# .PCD v0.7 - Point Cloud Data file format
VERSION 0.7
FIELDS x y z intensity roll pitch yaw time
SIZE 4 4 4 4 4 4 4 8
TYPE F F F F F F F F
COUNT 1 1 1 1 1 1 1 1
WIDTH 320
HEIGHT 1
VIEWPOINT 0 0 0 1 0 0 0
POINTS 320
DATA ascii
0.083206996 -0.010826626 0.21960457 0 5.6129193e-06 0.00012641367 -6.2321501e-06 0
-0.27289724 0.17186846 0.21672338 1 0.0004177306 -0.0025674482 1.1630665 0
-0.51933771 -0.085148618 0.22598949 2 0.0012194077 -0.0041579995 2.1696367 0
-0.58372831 -0.15979226 0.14737375 3 -0.032194551 -0.025386522 3.0815914 0
-0.52380186 -0.080858737 0.14905734 4 -0.021961108 0.044702463 3.071245 0
-0.62364161 -0.18678196 0.22440308 5 0.0030607928 -0.0044034296 -3.1295805 0
-0.80291849 -0.13972978 0.19046509 6 0.0041821892 -0.0029162138 3.0746906 0
-0.97876185 -0.15615505 0.24126475 7 0.00084931904 -0.007113074 -3.1360211 0
-1.0672297 -0.19820841 0.23529729 8 0.0010890901 -0.007218176 3.1131084 0
-1.1947557 -0.14420819 0.24213363 9 -0.00047275855 -0.0074961991 -3.1092501 0
-1.2798394 -0.16188046 0.20190734 10 0.0033595208 -0.0070704538 3.0965126 0
-1.2398716 -0.1913044 0.20372608 11 -0.0039489018 0.063765682 -3.0647278 0
-2.208147 -0.56132638 0.20699158 12 0.0019425746 -0.0080762748 -2.7577419 0
-3.2982819 -0.8866365 0.19648653 13 -0.0014027122 -0.01099822 -2.689853 0
-4.1992149 -1.4291986 0.16530928 14 0.0077382238 -0.015889402 -2.6885788 0
-5.1649976 -2.0530202 0.16148748 15 -0.04019624 0.0073676147 -2.5438235 0
-6.2332993 -2.3382957 0.13150361 16 -0.02533178 -0.019900503 -2.9829857 0
-6.4520612 -2.3258922 0.1754553 17 -0.0016746616 -0.0069778911 3.074631 0
-6.7334056 -1.8892978 0.22404698 18 -0.023774376 -0.016148787 2.0611327 0
-6.8549781 -0.8543182 0.15499733 19 0.00030974433 0.044241145 1.6530707 0
-6.9118977 0.22486599 0.11250894 20 0.00070676889 0.013722279 1.6537938 0
-6.905777 1.2654588 0.27591449 21 -4.6198977e-05 -0.20562728 1.5716087 0
-7.0634975 2.2621739 0.3771283 22 0.010744161 -0.03666978 1.6807051 0
-6.9017167 3.2955325 0.53862864 23 -0.00080418627 -0.19337803 1.5910523 0
-7.298564 4.2188025 0.75832301 24 0.0029398256 -0.11495098 1.6553497 0
-7.1252389 5.2066536 0.89239556 25 -0.00058366865 -0.22774827 1.5792277 0
-7.2150655 6.1978788 1.0102119 26 -0.00040187541 -0.20691919 1.5761364 0
-7.2711287 7.2108588 1.1658008 27 0.00096752151 -0.2118912 1.5577676 0
-7.345542 8.2086964 1.3009319 28 0.0070466478 -0.078031771 1.6594067 0
-7.2974329 9.2132721 1.4387662 29 -0.0016037405 -0.2148502 1.5934378 0
-7.5442204 10.191342 1.5662698 30 0.00095030235 -0.15137148 1.6320053 0
-7.4071498 11.190356 1.7509799 31 0.00042472102 -0.22385457 1.5652202 0
-7.7005711 12.172784 1.8766023 32 0.00062344829 -0.16016325 1.6334147 0
-7.6259151 13.229749 1.901518 33 0.00082263409 0.0011085806 1.7083659 0
-7.7228646 14.265592 1.9005303 34 0.00029545164 -0.004777337 1.6640739 0
-7.909256 15.259513 1.9051775 35 0.00066182419 -0.0066700988 1.6820322 0
-7.9756274 16.300184 1.88248 36 0.00061454892 -0.0072801984 1.6684039 0
-7.9940081 17.316322 1.8943145 37 0.00030422566 -0.012604308 1.6430529 0
-8.0407076 18.315384 1.8986484 38 4.5536308e-05 -0.016275426 1.5954525 0
-8.089241 19.339487 1.8991823 39 1.7121776e-05 -0.019270077 1.5826728 0
-8.1446877 20.43889 1.9077959 40 0.0001902224 -0.019359158 1.645432 0
-8.2276373 21.527344 1.9369259 41 4.0033765e-06 -0.022500509 1.5860494 0
-8.2918901 22.617046 1.9442072 42 0.00025683109 -0.021776939 1.66509 0
-8.3235598 23.626299 1.9626087 43 9.8519857e-05 -0.024653416 1.6380022 0
-8.3955593 24.655315 1.976053 44 0.0012893607 0.02727659 1.6062459 0
-8.5376005 25.682119 1.8296299 45 -0.0066298079 0.082865499 1.7452443 0
-8.5016251 26.676411 1.7001864 46 0.00034495609 0.1335218 1.5968827 0
-8.6609154 27.692945 1.5654174 47 0.00068379479 0.14886092 1.6140003 0
-8.6757851 28.823225 1.4208765 48 0.00075239933 0.14934827 1.6200101 0
-8.7469807 29.819386 1.3332723 49 -0.0011039483 0.076424122 1.6089491 0
-8.7982845 30.853254 1.1767465 50 0.00030224366 0.14194416 1.5892156 0
-8.7673836 31.855782 1.0728713 51 0.00060530106 0.13743547 1.6147531 0
-8.7958288 32.889523 0.97997659 52 -0.0014081711 0.077784643 1.6236076 0
-8.7637854 33.891735 0.83694845 53 -0.0002150605 0.11194296 1.5824515 0
-8.8665228 34.910137 0.73471016 54 0.00057526201 0.12267797 1.6585276 0
-8.9357071 35.975605 0.62055391 55 -0.0028041732 0.076427333 1.6617953 0
-9.0642796 37.049492 0.50842553 56 0.0069848089 0.15528835 1.673948 0
-9.091198 38.104237 0.56365401 57 -0.00040105698 -0.049984112 1.6402991 0
-9.1414375 39.153797 0.60353774 58 -0.00025042269 -0.054687485 1.5970287 0
-9.2292328 40.209503 0.6471718 59 -0.00029200243 -0.057043094 1.6001134 0
-9.207304 40.475121 0.65349287 60 0.040179614 -0.038499504 0.53246874 0
-8.227067 40.731503 0.66963339 61 0.041038375 -0.0084929988 0.21755449 0
-7.0632725 40.729343 0.65050864 62 0.020485763 -0.03491842 0.1507414 0
-6.0299034 41.1185 0.65524572 63 0.039782103 -0.011326273 0.22681996 0
-5.0358338 41.234825 0.64767957 64 0.040004753 -0.014883837 0.24206185 0
-3.9586942 41.141449 0.66015631 65 0.061311755 -0.0039279889 -0.19319095 0
-2.9192243 40.964054 0.62132686 66 0.057659194 -0.0029731209 -0.2021637 0
-1.9092835 40.755268 0.54765129 67 0.042781074 0.01462487 -0.19624503 0
-0.90523714 40.682335 0.58866966 68 0.049292389 -0.010755201 -0.22454371 0
0.080194905 40.257679 0.52555454 69 0.056829017 0.016176071 -0.37687188 0
0.21650217 40.07502 0.56812048 70 0.0008171415 0.029896421 -1.4388157 0
0.33673409 39.055134 0.52580982 71 -0.0015700402 -0.00061683386 -1.4167787 0
0.51371986 38.070999 0.4777326 72 2.4196021e-05 0.018368741 -1.4631877 0
0.64951122 37.076706 0.43456134 73 -0.00037483667 0.011849405 -1.4551579 0
0.75752157 36.031826 0.40591371 74 -0.00016969552 0.014077123 -1.465986 0
0.78786606 35.024075 0.3782894 75 -5.5075285e-05 0.015655128 -1.4618641 0
1.0605192 34.00597 0.36582127 76 -0.0014262148 -0.00073380623 -1.4003192 0
1.2447947 32.964607 0.35165608 77 -0.0010107026 0.0023835567 -1.3624276 0
1.3979402 31.925644 0.29991364 78 -0.0023612876 0.026801266 -1.3681099 0
1.5908713 30.935034 0.29631951 79 -0.00093641435 0.009012457 -1.3701981 0
1.9860562 29.91371 0.26790196 80 -0.0029724552 -0.00052273902 -1.2487987 0
2.0905871 28.841278 0.24448867 81 -0.00089534931 0.0076813018 -1.2735096 0
2.6458466 27.894098 0.2288907 82 -0.0042642686 -0.0027867211 -1.1661055 0
3.0137751 26.962172 0.14500962 83 0.0087421434 0.029925309 -1.0217787 0
3.0648708 25.885012 0.12908566 84 -0.00015489584 0.026734455 -1.6445956 0
3.0617218 24.870953 0.13307257 85 0.00035817342 0.012128633 -1.6538082 0
3.0080531 23.853771 0.094314031 86 0.00011354447 0.016686102 -1.6646283 0
2.946893 22.825054 0.060360804 87 -0.00010409045 0.020771669 -1.6605022 0
3.0227602 21.827868 0.036636893 88 2.7107451e-05 0.017184138 -1.6096061 0
2.9361796 22.042143 0.072323591 89 0.014536445 -0.0037278836 -2.6429589 0
2.9365644 22.202154 0.090771854 90 0.029783776 -0.032723568 3.1031632 0
2.7970943 22.121843 0.072296716 91 -0.012092361 -0.034239918 3.1362343 0
2.7203121 22.125221 0.084320277 92 -0.018929429 -0.020826306 3.0645046 0
2.5386093 22.029335 0.089635842 93 -0.00047701452 -0.043090284 -3.1090474 0
2.4192405 22.097544 0.056986079 94 0.018108923 -0.0015143445 3.1167352 0
2.3662624 22.111967 0.054774176 95 0.016299989 -0.0013093004 3.1348085 0
2.2014964 22.095961 0.072756715 96 0.022074154 -0.0081283171 3.1309946 0
2.1583107 22.055443 0.083219826 97 0.020684464 -0.0067473832 -3.1280816 0
1.9557098 22.112627 0.076465994 98 0.021884823 -0.0084683411 3.1271095 0
1.8649684 22.065392 0.093666464 99 0.018220289 -0.0097931381 -3.0842738 0
1.6808333 22.115738 0.07419093 100 0.020164954 -0.0086805131 3.1226945 0
1.6008948 22.04847 0.099558495 101 0.017856058 -0.010685151 -3.0895133 0
1.4312437 22.104071 0.077447824 102 0.01987583 -0.010315552 3.1211903 0
1.3600225 22.070522 0.10366981 103 0.017765803 -0.013061554 -3.0934889 0
1.1564394 22.099285 0.060262419 104 0.018449303 -0.0098643778 3.1244793 0
1.1199121 22.090134 0.077490553 105 0.019068625 -0.012110896 -3.138196 0
0.91208476 22.076813 0.076340474 106 0.020579182 -0.013250192 3.1390257 0
0.87203807 22.055727 0.091164425 107 0.020147964 -0.014530947 -3.1238132 0
0.6705361 22.055189 0.083142139 108 0.022113604 -0.015370588 -3.1388669 0
0.62301087 22.027611 0.089222461 109 0.020826824 -0.015568281 -3.1195779 0
0.37697113 22.0739 0.054094195 110 0.02055205 -0.01353822 -3.1371148 0
0.34639192 22.055733 0.075257011 111 0.019997558 -0.015560847 -3.1166179 0
0.17581581 22.027189 0.0851354 112 0.023086239 -0.017227927 -3.1254904 0
0.12604943 22.004122 0.091933839 113 0.022260774 -0.018454086 -3.1034923 0
-0.054482624 22.018465 0.092304066 114 0.024269694 -0.019189496 -3.1232698 0
-0.11645906 21.962029 0.098798834 115 0.023335496 -0.020042803 -3.1007841 0
-0.3613224 22.018747 0.067565426 116 0.022271186 -0.017786959 -3.123894 0
-0.40565377 21.993149 0.087101482 117 0.021858741 -0.019685183 -3.1021338 0
-0.57360256 21.989056 0.11113193 118 0.022603009 -0.021789901 -3.1172385 0
-0.64318389 21.939644 0.10579026 119 0.022514565 -0.022523122 -3.0936174 0
-0.79848456 22.001537 0.1147781 120 0.02346128 -0.023048818 -3.12359 0
-0.88760543 21.953072 0.10607874 121 0.023112906 -0.02313932 -3.1003745 0
-1.0754194 22.011339 0.097733401 122 0.023906883 -0.022699576 -3.1346874 0
-1.1501009 21.959446 0.094958343 123 0.023509979 -0.023373235 -3.1141412 0
-1.3417672 21.974405 0.092533484 124 0.024288582 -0.023586588 -3.1347387 0
-1.3976609 21.94014 0.097371839 125 0.024812842 -0.02457528 -3.1125271 0
-1.5764624 21.965397 0.11231305 126 0.023453036 -0.025251798 -3.135144 0
-1.6312375 21.928738 0.11432155 127 0.023600997 -0.026226312 -3.1140375 0
-1.8512859 21.963478 0.1092318 128 0.02134444 -0.02565144 3.1408195 0
-1.8976355 21.917158 0.11628936 129 0.021097219 -0.02691767 -3.1206555 0
-2.1006448 21.955734 0.098746926 130 0.024854003 -0.026824869 3.1381602 0
-2.1542561 21.922478 0.096863791 131 0.024316525 -0.027600626 -3.1262755 0
-2.3474078 21.959932 0.10384891 132 0.02509634 -0.027618991 3.1308017 0
-2.457129 21.874537 0.11201087 133 0.025068728 -0.029179635 -3.0781264 0
-2.6069031 21.930853 0.12844197 134 0.022647941 -0.030160403 3.1287916 0
-2.7061741 21.865883 0.13380857 135 0.022549236 -0.031482175 -3.0860372 0
-2.851563 21.968435 0.042029675 136 0.026761556 -0.024388447 3.1245458 0
-2.9419775 21.898203 0.078651108 137 0.026354009 -0.027797852 -3.0869586 0
-3.1121469 21.942364 0.10008869 138 0.026314579 -0.029963257 3.1268971 0
-3.2002954 21.89727 0.12018754 139 0.024833843 -0.03168593 -3.0874135 0
-3.3791289 21.917643 0.075016074 140 0.025023919 -0.028484011 3.126673 0
-3.4152229 21.899168 0.10191452 141 0.025753943 -0.031380985 -3.1345203 0
-3.606015 21.926046 0.10835768 142 0.027119795 -0.032049142 3.1307945 0
-3.7147737 21.877367 0.1239115 143 0.026305292 -0.033513762 -3.0826137 0
-3.8652818 21.912378 0.12207931 144 0.024709253 -0.03307607 3.1252878 0
-3.9745262 21.865395 0.12339395 145 0.024987554 -0.033503521 -3.0906014 0
-4.1264267 21.895399 0.11691378 146 0.024088563 -0.033164073 3.1183836 0
-4.2293248 21.854639 0.1391177 147 0.025004964 -0.035670288 -3.0950229 0
-4.3667312 21.915649 0.12445429 148 0.025898298 -0.034644447 3.1152532 0
-4.4749112 21.872231 0.14170687 149 0.02609458 -0.036628451 -3.0968578 0
-4.6427398 21.870443 0.13658051 150 0.026200863 -0.037101947 3.1177173 0
-4.7380314 21.845282 0.16029876 151 0.02642661 -0.039476763 -3.0966387 0
-4.9064608 21.882008 0.13197769 152 0.025937974 -0.037169997 3.1147635 0
-4.99686 21.851345 0.16133709 153 0.026670134 -0.040105689 -3.0972998 0
-5.1551147 21.867348 0.15065369 154 0.026400113 -0.039599225 3.1158986 0
-5.2607636 21.839165 0.17265078 155 0.026880056 -0.042145759 -3.0945385 0
-5.4060931 21.864275 0.15464188 156 0.027344177 -0.040630989 3.1159954 0
-5.5203066 21.819021 0.17994939 157 0.027217258 -0.044118747 -3.0954185 0
-5.6617084 21.888279 0.13490318 158 0.028496359 -0.038998105 3.115494 0
-5.8331552 21.776669 0.13239196 159 0.030484205 -0.072230317 -3.0966451 0
-5.8988714 21.877428 0.15034185 160 0.02964708 -0.040512159 3.1127138 0
-6.0286446 21.827688 0.155818 161 0.030179961 -0.04215258 -3.1018298 0
-6.1475234 21.854458 0.17481945 162 0.028257245 -0.043175556 3.1078925 0
-6.239954 21.82534 0.19380194 163 0.027829427 -0.045605179 -3.1091421 0
-6.4199309 21.839451 0.16858816 164 0.02802363 -0.042985652 3.1015873 0
-6.5309558 21.788576 0.19467658 165 0.027254224 -0.047193855 -3.1087308 0
-6.6385441 21.869728 0.17876057 166 0.030653862 -0.043951597 3.1072838 0
-6.7742229 21.80551 0.19876207 167 0.027091401 -0.047305446 -3.1019893 0
-6.9087024 21.876646 0.18832201 168 0.028945353 -0.045388233 3.1070504 0
-7.0291238 21.783678 0.20324647 169 0.028444083 -0.048045672 -3.1027713 0
-7.1615233 21.850128 0.19146322 170 0.028910769 -0.045898978 3.1071188 0
-7.2984481 21.759546 0.21259619 171 0.02924192 -0.050000142 -3.1028333 0
-7.4207478 21.817156 0.1934254 172 0.028505906 -0.046648625 3.1095512 0
-7.5353684 21.793528 0.21788324 173 0.02975014 -0.050090346 -3.1031659 0
-7.677237 21.860216 0.21781562 174 0.030648032 -0.04905704 3.1128795 0
-7.7844505 21.804937 0.23617083 175 0.030275567 -0.052380543 -3.0984819 0
-7.9580536 21.839714 0.21779284 176 0.029703088 -0.049488746 3.1182597 0
-8.0567875 21.722927 0.2365212 177 0.031575706 -0.052403383 -3.0903897 0
-8.1563892 21.861378 0.23596787 178 0.032673649 -0.051557206 3.1268008 0
-8.280757 21.709887 0.25331515 179 0.030891934 -0.054715961 -3.0858617 0
-8.3314571 21.812717 0.23889017 180 0.037612367 -0.018800301 3.128567 0
-8.3800173 21.778782 0.24980308 181 0.036925886 -0.019620042 -3.1347504 0
-8.5279102 21.867559 0.2517848 182 0.037762024 -0.019045373 3.1358495 0
-8.6046476 21.744709 0.25208372 183 0.037961192 -0.020377336 -3.1270406 0
-8.7960186 21.875698 0.25038591 184 0.036319956 -0.019293183 3.131278 0
-9.0480156 21.634699 0.27319282 185 0.031635143 -0.056859158 -3.079705 0
-9.209403 21.840397 0.23868287 186 0.032846212 -0.05308992 3.1321917 0
-9.231019 21.756168 0.25238341 187 0.033313807 -0.054136746 -3.1316807 0
-9.4049234 21.857529 0.25241241 188 0.035916638 -0.054151524 3.1363692 0
-9.4691315 21.789019 0.25982767 189 0.035340447 -0.055321962 -3.1271994 0
-9.6892672 21.821489 0.26874009 190 0.033746287 -0.055038892 3.1343923 0
-9.7191668 21.717777 0.27537766 191 0.034862697 -0.056785688 -3.1257725 0
-9.7914324 21.883314 0.25203177 192 0.037724264 -0.021769647 3.1348457 0
-9.8449135 21.743778 0.25817648 193 0.037139174 -0.023500983 -3.1274471 0
-9.9200659 21.900585 0.23899852 194 0.040309776 0.012634999 3.1298585 0
-10.040114 21.642145 0.25204885 195 0.041245051 0.0086462479 -3.0742788 0
-10.202461 21.853861 0.26143324 196 0.041223753 0.0095339995 3.1376333 0
-10.228869 21.716688 0.26108992 197 0.040864158 0.0084486352 -3.124469 0
-10.429373 21.840219 0.24921069 198 0.0409371 0.0093460176 3.1387689 0
-10.484716 21.700275 0.25067067 199 0.040063147 0.0080544464 -3.1225321 0
-10.664015 21.856873 0.25055477 200 0.041533187 0.0078357784 3.1408095 0
-10.740054 21.740582 0.24691756 201 0.04130787 0.0069822227 -3.1212676 0
-10.953624 21.793262 0.2292373 202 0.040406443 0.0086648045 3.1398914 0
-10.993531 21.758917 0.22861969 203 0.040713277 0.007661113 -3.118392 0
-11.159934 21.853474 0.22473679 204 0.042490996 0.0072498815 -3.1329608 0
-11.230189 21.722904 0.22721727 205 0.041893184 0.0063127507 -3.1113808 0
-11.431828 21.802469 0.22577359 206 0.041715927 0.0058689853 -3.1404395 0
-11.4777 21.70225 0.22445962 207 0.041546047 0.0046421485 -3.1184523 0
-11.808554 21.760748 0.2883369 208 0.037255418 -0.030020518 3.1391494 0
-11.838794 21.74029 0.27919504 209 0.038002413 -0.030633235 -3.1245854 0
-12.009322 21.763515 0.27148461 210 0.038592264 -0.031178657 3.1412203 0
-12.057912 21.701939 0.27662629 211 0.039098538 -0.032169525 -3.1207817 0
-12.165797 21.795582 0.22594622 212 0.041275498 0.0023384094 3.1374404 0
-12.240962 21.705933 0.22539505 213 0.041685648 0.0013033355 -3.1238806 0
-12.42916 21.813936 0.2266376 214 0.042040277 0.0011581003 3.1378462 0
-12.480239 21.681393 0.22484733 215 0.041770551 0.00028497283 -3.1200819 0
-12.655199 21.802925 0.23147859 216 0.041984912 0.00019882985 3.1320837 0
-12.714434 21.667555 0.2249102 217 0.041687295 -0.0010624914 -3.1273568 0
-12.829198 21.766529 0.1639939 218 0.050439805 0.032302391 3.1331117 0
-12.905938 21.684862 0.16504854 219 0.049778644 0.031561781 -3.1313272 0
-13.133269 21.737862 0.15688607 220 0.049894176 0.031455208 3.1324153 0
-13.188615 21.629597 0.15659781 221 0.048693389 0.03098336 -3.1304381 0
-13.356083 21.73694 0.15424202 222 0.049868252 0.030424666 3.1343503 0
-13.408245 21.649704 0.14940305 223 0.048429705 0.029411633 -3.1217492 0
-13.572679 21.753977 0.14740102 224 0.050057281 0.028989615 3.1413298 0
-13.664352 21.646696 0.14356886 225 0.048995536 0.028160887 -3.1194732 0
-13.856283 21.720448 0.11716194 226 0.049046189 0.031891156 3.1334338 0
-13.910418 21.6532 0.096390516 227 0.048456308 0.030282667 -3.1220713 0
-14.098475 21.703938 0.1037235 228 0.049695518 0.0292181 -3.1412458 0
-14.144187 21.629333 0.097411305 229 0.048720576 0.028204968 -3.1188483 0
-14.260872 21.715656 0.018418992 230 0.059094768 0.060384817 3.1363394 0
-14.362123 21.62805 0.02541692 231 0.056686826 0.059858494 -3.1253247 0
-14.614428 21.664387 0.11048554 232 0.050270166 0.025469605 3.1382403 0
-14.700958 21.652908 0.11547837 233 0.050272144 0.024929194 -3.1226654 0
-14.957454 21.633459 0.2092272 234 0.043411296 -0.0091756061 -3.139396 0
-15.026742 21.560163 0.22472896 235 0.04397158 -0.0093353381 -3.1147656 0
-15.290838 21.612169 0.32774648 236 0.036847513 -0.042269588 -3.1405399 0
-15.356356 21.573572 0.34384298 237 0.037730027 -0.042610686 -3.1168177 0
-15.522271 21.612726 0.33034569 238 0.040605932 -0.041662235 -3.1393614 0
-15.55896 21.585886 0.32192314 239 0.041431278 -0.042469632 -3.1187453 0
-15.728244 21.63216 0.24738321 240 0.044830315 -0.010325365 3.1392388 0
-15.75676 21.591106 0.23070426 241 0.045533746 -0.011966694 -3.1232028 0
-15.958747 21.602911 0.25301662 242 0.044870593 -0.012644219 -3.1362894 0
-16.019283 21.596722 0.25026715 243 0.044958632 -0.013251266 -3.1157711 0
-16.221815 21.613407 0.25550386 244 0.0445778 -0.014542318 -3.1338444 0
-16.261282 21.579227 0.24363643 245 0.044643823 -0.015149268 -3.1102166 0
-16.444803 21.604481 0.24245754 246 0.044700883 -0.017065121 -3.131444 0
-16.485941 21.558249 0.23939006 247 0.044835322 -0.017708877 -3.1090648 0
-16.629074 21.59894 0.12613027 248 0.051027026 0.013075043 -3.1348426 0
-16.686655 21.569456 0.092918038 249 0.051260021 0.011256417 -3.1168439 0
-16.912762 21.584414 0.12877008 250 0.050525226 0.011285041 -3.1392672 0
-16.963017 21.54397 0.12281214 251 0.050290868 0.01019684 -3.1178725 0
-17.171722 21.56307 0.13200489 252 0.050398607 0.0093367044 -3.1368318 0
-17.21484 21.551956 0.14451796 253 0.049967572 0.0089454828 -3.1169863 0
-17.427437 21.52759 0.134487 254 0.050458968 0.0080166385 -3.1324193 0
-17.465441 21.517927 0.13285437 255 0.050787508 0.0069349208 -3.1073763 0
-17.642702 21.515329 0.1149765 256 0.051291294 0.0049490146 -3.1328051 0
-17.69898 21.527649 0.1314439 257 0.051195074 0.0048937816 -3.1119337 0
-17.944098 21.530605 0.14327094 258 0.050567303 0.0045126919 -3.1400268 0
-17.973463 21.519371 0.13864541 259 0.051155448 0.0032035476 -3.1173184 0
-18.193098 21.515306 0.14669599 260 0.050726816 0.0027852484 -3.1317055 0
-18.233084 21.505234 0.1505553 261 0.05061039 0.0022118194 -3.1113813 0
-18.537426 21.478424 0.31095523 262 0.042677615 -0.02854006 -3.1272655 0
-18.541195 21.470583 0.30457979 263 0.04231846 -0.028499991 -3.1068933 0
-18.663828 21.500853 0.15085271 264 0.050863899 -0.00050330319 -3.1237636 0
-18.710054 21.483091 0.15537792 265 0.050766218 -0.0010666507 -3.1008623 0
-19.338842 21.494308 -0.030711628 266 0.060864348 0.021844441 -3.1288052 0
-19.398878 21.470257 -0.044870473 267 0.059900392 0.020027254 -3.1074631 0
-19.572765 21.016483 0.11583384 268 0.025666617 -0.0095132533 -2.0917275 0
-20.22851 20.114376 0.11521975 269 0.006087021 0.011809876 -2.1393602 0
-20.810631 19.233044 0.20696715 270 0.035147548 -0.048422065 -2.2783341 0
-21.396538 18.449293 -0.070512384 271 0.017380647 -0.023184357 -2.2396917 0
-22.05184 17.662594 -0.045950793 272 0.018700039 -0.025795065 -2.2529287 0
-22.905575 16.996887 0.11400016 273 0.018934177 -0.024891037 -2.5566847 0
-23.773527 16.442747 -0.012696045 274 0.043686274 -0.030294921 -2.5578809 0
-24.530796 15.77565 -0.04592504 275 0.028772101 -0.026736991 -2.3997476 0
-25.291462 15.122062 -0.058587044 276 0.027861893 -0.031192539 -2.3687973 0
-26.142742 14.532101 -0.13821252 277 0.01128634 -0.014604585 -2.4204402 0
-26.886419 13.847217 -0.11884286 278 0.008831989 -0.018442005 -2.3817222 0
-27.648565 13.061821 -0.021810664 279 0.039023422 -0.052213166 -2.4030561 0
-28.389393 12.330127 -0.0084219528 280 0.029374816 0.0052861464 -2.3851445 0
-27.879673 11.364488 -0.072239108 281 -0.0018735786 -0.013137645 -1.4530835 0
-27.754795 10.295036 -0.088045023 282 -0.00083268125 0.026447896 -1.4329684 0
-27.686312 9.2513142 -0.1203062 283 -0.0013138955 0.020723252 -1.4178826 0
-27.631996 8.2366104 -0.14020325 284 -0.0014134492 0.017367423 -1.42252 0
-27.175735 7.3039508 -0.2007529 285 -0.014125072 -0.019630216 -1.0455234 0
-26.486448 6.521132 -0.16855282 286 -0.0015466523 -0.01363553 -1.004665 0
-25.853319 5.6972852 -0.18547428 287 0.025787134 0.03367421 -0.84521157 0
-25.239769 4.9045787 -0.22190157 288 0.025390152 0.028958481 -0.83094221 0
-24.581228 4.0965967 -0.23601002 289 7.0781207e-05 -0.0079060802 -0.86629325 0
-23.789497 3.4171453 -0.2081808 290 0.01442884 -0.014573875 -0.84111094 0
-23.311501 2.485395 -0.24801436 291 0.0045336024 -0.0060601048 -1.2576287 0
-23.046009 1.5073444 -0.24756154 292 0.0057658073 0.0059923297 -1.1671966 0
-22.661129 0.45902431 -0.23537347 293 0.010908154 0.052292116 -1.1810549 0
-21.947763 -0.2794382 -0.28581646 294 0.016447354 0.011930777 -0.83369249 0
-21.276474 -1.1114476 -0.24886045 295 -0.0010656958 -0.017382737 -0.88845831 0
-20.538027 -1.8425919 -0.20523544 296 0.01381151 -0.020680046 -0.8675456 0
-19.781151 -2.6051474 -0.20207292 297 0.0342988 -0.0084290942 -0.75126195 0
-19.180416 -3.4709976 -0.22197489 298 0.0068128766 0.0037176022 -1.1157191 0
-18.856031 -3.8286536 -0.16470611 299 -0.0088790432 -0.063118726 -0.076654427 0
-17.897295 -4.2021737 -0.18829313 300 3.2589673e-05 -0.019167397 -0.13086224 0
-16.85668 -4.2728872 -0.15112585 301 0.00066802977 -0.019950284 -0.14289111 0
-15.837768 -4.3018947 -0.14297029 302 0.0008114326 -0.029973844 -0.10381237 0
-14.763467 -4.4236331 -0.10905986 303 0.0026136173 -0.03325358 -0.12334903 0
-13.637008 -4.6692367 -0.094504729 304 0.0043789498 -0.02695653 -0.22199576 0
-12.597384 -4.8581901 -0.036485475 305 -0.026045049 -0.060761552 -0.23538411 0
-11.603162 -5.0483398 -0.0044765365 306 -0.020161388 -0.066715747 -0.31057274 0
-10.65199 -5.4016905 0.070219494 307 -0.013632905 -0.077682927 -0.33109176 0
-9.680337 -5.1199212 0.00075971067 308 -0.014417436 -0.035890784 0.19474725 0
-9.6093607 -5.0917249 0.040854961 309 -0.016634692 -0.037351277 0.25006112 0
-8.5231791 -4.9491944 0.1401864 310 -0.052696098 -0.032626599 0.29271659 0
-7.5163693 -4.7667317 0.1661582 311 -0.048981208 -0.035586268 0.2504347 0
-6.479466 -4.3721619 0.1774416 312 -0.053317081 -0.027114524 0.33151937 0
-5.5560737 -3.9525239 0.14679439 313 -0.023713289 -0.025583155 0.47653255 0
-4.6273918 -3.4838212 0.22957873 314 -0.021796655 -0.027291248 0.56498289 0
-3.7118697 -2.8994572 0.25273696 315 -0.061430443 0.0061423038 0.59827679 0
-2.816452 -2.2867868 0.30877379 316 -0.019992979 -0.028542319 0.70725113 0
-1.9346927 -1.6595889 0.32592782 317 -0.060069755 0.014317863 0.70286393 0
-1.160497 -0.90355515 0.39865443 318 -0.023166647 -0.023003167 0.78821874 0
-0.38334036 -0.2469226 0.28419939 319 -0.042286802 0.07092078 0.68571132 0
