# .PCD v0.7 - Point Cloud Data file format
VERSION 0.7
FIELDS x y z intensity
SIZE 4 4 4 4
TYPE F F F F
COUNT 1 1 1 1
WIDTH 1389
HEIGHT 1
VIEWPOINT 0 0 0 1 0 0 0
POINTS 1389
DATA ascii
-27.445436 -25.23568 0.63760072 8
-27.461504 -24.53525 0.62993169 8
-27.472235 -23.847404 0.62246799 8
-27.494684 -23.186007 0.61558098 8
-27.49884 -22.524742 0.60858178 8
-27.515816 -21.888882 0.60215437 8
-27.548555 -21.279018 0.59633946 8
-27.55031 -20.658318 0.59011346 8
-27.570732 -20.064325 0.58453929 8
-27.587305 -19.479275 0.57912201 8
-27.447935 -48.754757 0.95362985 8
-27.388937 -26.668152 1.989354 9
-27.403917 -25.929932 1.9634764 9
-27.43264 -25.223637 1.9396632 9
-27.444506 -24.519806 1.9156892 9
-27.468199 -23.843668 1.8935289 9
-27.482283 -23.175327 1.871645 9
-27.497459 -22.523413 1.8507383 9
-27.534079 -21.903229 1.8321232 9
-27.542646 -21.274284 1.8124566 9
-27.545458 -20.654526 1.7932159 9
-27.566917 -20.061409 1.7759527 9
-27.574083 -19.46981 1.7584975 9
-27.588339 -18.89468 1.7421983 9
-27.22974 -33.374466 2.2403152 9
-27.256672 -32.449051 2.2042542 9
-27.274019 -31.542789 2.1690893 9
-27.294077 -30.668581 2.1357255 9
-27.312391 -29.819553 2.1037199 9
-27.334164 -28.999781 2.0733912 9
-27.341671 -28.189196 2.0433288 9
-27.375412 -27.428242 2.016489 9
-27.438276 -48.736145 2.9079332 9
-27.458429 -23.834951 3.1681728 10
-27.474249 -23.168339 3.1316376 10
-27.489744 -22.516893 3.0965729 10
-27.517302 -21.889696 3.0642962 10
-27.528601 -21.263264 3.0315793 10
-27.546183 -20.654915 3.0008805 10
-27.560623 -20.056684 2.9711051 10
-27.568148 -19.465488 2.941812 10
-27.589369 -18.895266 2.9151506 10
-27.599106 -18.327881 2.8883979 10
-27.281599 -30.654091 3.5740647 10
-27.30126 -29.806965 3.5205858 10
-27.335394 -29.00069 3.4713061 10
-27.341173 -28.188316 3.4206579 10
-27.364849 -27.417315 3.3743832 10
-27.377459 -26.656652 3.3287585 10
-27.403185 -25.92894 3.286638 10
-27.426979 -25.218157 3.2460835 10
-27.430456 -24.506996 3.2048683 10
-27.213404 -33.353855 3.7488229 10
-27.240023 -32.428692 3.6883581 10
-27.269318 -31.536852 3.6310244 10
-27.473141 -23.167183 4.3996854 11
-27.489374 -22.516388 4.3504691 11
-27.507637 -21.881821 4.303596 11
-27.513788 -21.251652 4.2567768 11
-27.5338 -20.645472 4.2139692 11
-27.54258 -20.043409 4.1712255 11
-27.55743 -19.457787 4.1311216 11
-27.580822 -18.889297 4.0939288 11
-27.586432 -18.319355 4.0556731 11
-27.358484 -27.410585 4.7402272 11
-27.382027 -26.660778 4.6779418 11
-27.398613 -25.92432 4.6171446 11
-27.424088 -25.215223 4.5603862 11
-27.430193 -24.506504 4.5028472 11
-27.448755 -23.826313 4.4496956 11
-27.422934 -48.707432 4.8668704 10
-27.224091 -32.409176 5.17981 11
-27.248539 -31.512312 5.09834 11
-27.266966 -30.63718 5.0194454 11
-27.298594 -29.803621 4.9464555 11
-27.316479 -28.980215 4.8742609 11
-27.344143 -28.191004 4.8069329 11
-27.2033 -33.340893 5.2658987 11
-27.497082 -21.873238 5.5524845 12
-27.515306 -21.252653 5.4944391 12
-27.534067 -20.645514 5.4388857 12
-27.550684 -20.049164 5.3851953 12
-27.564716 -19.462803 5.3332067 12
-27.583883 -18.891272 5.2843246 12
-27.401852 -25.927084 5.9603171 12
-27.413811 -25.205494 5.8841004 12
-27.439421 -24.514496 5.8139496 12
-27.459539 -23.835438 5.7455969 12
-27.471834 -23.165863 5.6784701 12
-27.482712 -22.510727 5.6138058 12
-27.295984 -29.800337 6.3842802 12
-27.318439 -28.98189 6.2921147 12
-27.337629 -28.183912 6.203238 12
-27.360485 -27.412243 6.11902 12
-27.383173 -26.661572 6.0383849 12
-27.204453 -33.341717 6.7976575 12
-27.231091 -32.416973 6.6879339 12
-27.247677 -31.510811 6.5808077 12
-27.272596 -30.643036 6.4804797 12
-27.511156 -21.249275 6.7445774 13
-27.520973 -20.63554 6.6741738 13
-27.551287 -20.049458 6.6115384 13
-27.551334 -19.453218 6.5443468 13
-27.571451 -18.882635 6.4845481 13
-27.594728 -18.32465 6.4279604 13
-27.409832 -48.68269 6.8360338 11
-27.421375 -24.49811 7.133359 13
-27.445757 -23.823229 7.050559 13
-27.470848 -23.164806 6.9713998 13
-27.480934 -22.509066 6.8917751 13
-27.488813 -21.866468 6.814846 13
-27.349369 -27.400749 7.5096908 13
-27.363478 -26.642061 7.4083791 13
-27.385027 -25.910856 7.3133364 13
-27.401388 -25.193785 7.2209449 13
-27.591797 -17.759533 7.564672 14
-27.273298 -30.643347 7.9568572 13
-27.290052 -29.793419 7.8368087 13
-27.308659 -28.971102 7.7225604 13
-27.334848 -28.180662 7.6154003 13
-27.528576 -20.641077 7.9311237 14
-27.529745 -20.033634 7.8483486 14
-27.546959 -19.449997 7.7733989 14
-27.551006 -18.868515 7.6978445 14
-27.582644 -18.316513 7.6329546 14
-27.214911 -32.397152 8.2065315 13
-27.240549 -31.50205 8.0777435 13
-27.422606 -23.802887 8.3691721 14
-27.446005 -23.143627 8.2746725 14
-27.463383 -22.494476 8.1823092 14
-27.48303 -21.861677 8.0944138 14
-27.497902 -21.238859 8.0087433 14
-27.35524 -26.633705 8.7987928 14
-27.378319 -25.904198 8.6863775 14
-27.40716 -25.198809 8.5805254 14
-27.417902 -24.494741 8.4735603 14
-27.581261 -17.752645 8.7777224 15
-27.39731 -48.65897 8.8203211 12
-27.304893 -28.966692 9.1735125 14
-27.317011 -28.161882 9.0415382 14
-27.332642 -27.383627 8.9163761 14
-27.510078 -20.019169 9.1039715 15
-27.544485 -19.448111 9.0226374 15
-27.548439 -18.866629 8.9348879 15
-27.570471 -18.308313 8.8564558 15
-27.23592 -31.496178 9.5951862 14
-27.263189 -30.631502 9.4496727 14
-27.272005 -29.773256 9.3043737 14
-27.452311 -22.485199 9.4944229 15
-27.464554 -21.846783 9.3898764 15
-27.490583 -21.233028 9.2942486 15
-27.513819 -20.629852 9.2016582 15
-27.209669 -32.390354 9.747962 14
-27.392208 -25.184772 9.9551744 15
-27.407063 -24.484791 9.83253 15
-27.419832 -23.800232 9.7142334 15
-27.444901 -23.142469 9.6051102 15
-27.363083 -25.889465 10.077896 15
-27.129086 -37.431839 0.78839296 8
-27.160353 -36.369053 0.77420712 8
-27.180801 -35.331245 0.76041609 8
-27.107248 -38.549938 0.80360395 8
-27.14996 -36.354412 2.3596177 9
-27.168711 -35.314854 2.3172252 9
-27.197828 -34.325821 2.2777226 9
-27.08573 -38.518494 2.4486053 9
-27.11524 -37.411957 2.4027517 9
-27.140142 -36.340534 3.9496248 10
-27.158298 -35.300648 3.8785141 10
-27.182625 -34.306007 3.8116519 10
-27.078081 -38.506779 4.0990257 10
-27.11108 -37.405445 4.022727 10
-27.130367 -36.326714 5.5481505 11
-27.143894 -35.281242 5.4472928 11
-27.179869 -34.301907 5.3556437 11
-27.058327 -38.47784 5.7559581 11
-27.1 -37.389374 5.6506009 11
-27.126223 -36.320442 7.1606975 12
-27.15662 -35.297112 7.034873 12
-27.171907 -34.291225 6.9112201 12
-27.07118 -38.495266 7.4336114 12
-27.099962 -37.388535 7.2940516 12
-27.193167 -33.327286 8.3426886 13
-27.11305 -36.302052 8.7876759 13
-27.144127 -35.280182 8.6334705 13
-27.170944 -34.289375 8.4853039 13
-27.064659 -38.485142 9.1248617 13
-27.098145 -37.385235 8.9550943 13
-27.182661 -33.313808 9.9077911 14
-27.14925 -34.261337 10.073015 14
-26.525896 -48.733761 0.94569486 8
-26.517735 -48.717239 2.8838806 9
-26.500473 -48.68399 4.8261704 10
-26.494268 -48.671051 6.7805142 11
-26.477497 -48.63868 8.7471333 12
-25.61952 -48.714325 0.93811792 8
-25.607218 -48.689339 2.86027 9
-25.604208 -48.682007 4.7892051 10
-25.58783 -48.649242 6.7258368 11
-25.565104 -48.604404 8.6743679 12
-24.717876 -48.676468 0.9305039 8
-24.721857 -48.682644 2.8388414 9
-24.704756 -48.647266 4.750576 10
-24.696383 -48.629089 6.6735792 11
-24.68572 -48.606392 8.6108837 12
-23.842939 -48.664417 0.92369062 8
-23.832905 -48.642166 2.8163538 9
-23.825504 -48.625294 4.7147169 10
-23.814907 -48.601891 6.6224809 11
-23.79932 -48.568275 8.5430231 12
-22.977007 -48.644932 0.91703194 8
-22.971518 -48.631458 2.7964752 9
-22.955128 -48.594887 4.6795154 10
-22.951725 -48.585831 6.5749578 11
-22.941629 -48.562569 8.4835138 12
-22.122107 -48.622929 0.91061473 8
-22.119366 -48.614952 2.7771127 9
-22.111736 -48.596237 4.6487875 10
-22.098068 -48.564224 6.5286765 11
-22.086006 -48.535732 8.4228716 12
-21.513559 -4.6863871 0.38187453 8
-21.287642 -48.62096 0.9048503 8
-21.443413 -4.6711125 1.147642 9
-21.409319 -4.6636958 1.9144132 10
-21.271746 -48.582592 2.757678 9
-21.368925 -4.6549053 2.6826422 11
-21.276333 -4.6347432 3.4461267 12
-21.238728 -4.6265602 4.2223763 13
-21.261639 -48.557449 4.6155977 10
-21.261209 -48.554409 6.4859052 11
-21.243731 -48.512394 8.3653393 12
-21.236971 -48.494858 10.267612 13
-21.187948 -4.6155076 5.0034099 14
-21.149845 -4.6072183 5.7969508 15
-20.449812 -48.58617 0.89874756 8
-20.445236 -48.573135 2.7403498 9
-20.435528 -48.547916 4.5865345 10
-20.424871 -48.520409 6.4417872 11
-20.413731 -48.491753 8.3106976 12
-20.402361 -48.462521 10.198064 13
-20.002802 -5.2649665 0.35827175 8
-20.011047 -4.9623423 0.35726708 8
-20.00473 -4.9607821 1.0774751 9
-19.969183 -6.1829724 0.36161962 8
-19.985167 -5.8761668 0.36050588 8
-19.986891 -5.5675011 0.35921982 8
-19.629913 -48.568523 0.89322901 8
-19.973019 -6.1841636 1.092404 9
-19.974247 -5.8729606 1.087926 9
-19.986059 -5.413816 1.0822651 9
-19.964882 -6.1816483 1.8250468 10
-19.981426 -5.8750763 1.8188574 10
-19.989294 -5.4147778 1.8088837 10
-19.993347 -4.9579678 1.7994063 10
-19.616421 -48.532848 2.72207 9
-19.9545 -6.1784358 2.5612864 11
-19.978588 -5.8742461 2.5535047 11
-19.979443 -5.4120669 2.5385187 11
-19.998924 -4.9593596 2.5270779 11
-19.960052 -6.1801581 3.3057361 12
-19.975897 -5.8734593 3.2942884 12
-19.978485 -5.4118466 3.2751744 12
-19.97773 -4.9541116 3.2570481 12
-19.982985 -4.9554214 3.9988892 13
-19.964212 -6.1814504 4.0585828 13
-19.965807 -5.8704967 4.0416083 13
-19.974844 -5.4108262 4.0194039 13
-19.610662 -48.516327 4.556695 10
-19.969774 -5.2563128 4.7640495 14
-19.980038 -4.9546995 4.7492976 14
-19.996496 -4.6563616 4.7370853 14
-19.930696 -6.4847331 4.8346295 14
-19.96699 -6.1823144 4.8216844 14
-19.963987 -5.8699675 4.8003845 14
-19.955908 -5.8675952 5.5696058 15
-19.964815 -5.4081388 5.5388904 15
-19.970894 -4.9524388 5.5099707 15
-19.977777 -4.6520119 5.4931502 15
-19.937677 -6.4870038 5.6136208 15
-19.603886 -48.497269 6.4009533 11
-19.59214 -48.465878 8.2575245 12
-19.582687 -48.440155 10.133524 13
-18.823067 -48.558945 0.88811451 8
-18.809095 -48.520493 2.7061222 9
-18.802891 -48.502075 4.5297546 10
-18.794264 -48.477386 6.3623281 11
-18.785032 -48.451126 8.2085304 12
-18.77784 -48.430107 10.074356 13
-16.803555 9.1929293 -0.33118674 7
-16.548136 7.5708818 -0.31488556 7
-16.223131 6.061254 -0.29996461 7
-15.869537 4.667315 -0.28685668 7
-15.478237 3.3723512 -0.27510086 7
-15.066049 2.1694419 -0.26475614 7
-14.993631 8.4840508 0.3036834 8
-15.005603 8.4909639 0.90669668 9
-15.023824 8.5014114 1.5135249 10
-15.031699 8.5060072 2.1240902 11
-15.049644 8.5163012 2.7423947 12
-15.054058 8.5189409 3.3660145 13
-15.060884 8.5229511 3.9991679 14
-15.08286 8.535533 4.6478462 15
-14.600323 1.0457771 -0.25504652 7
-14.539907 8.5042524 0.29695848 8
-14.531019 8.4991999 0.88531524 9
-14.548753 8.5097141 1.4778249 10
-14.568895 8.521637 2.0757611 11
-14.57777 8.5269718 2.6784263 12
-14.592546 8.5357618 3.2898605 13
-14.618962 8.5513582 3.9139843 14
-14.622241 8.5534277 4.5432358 15
-14.121389 3.7216203e-05 -0.24650815 7
-14.080075 8.5080242 0.2900503 8
-14.102374 8.5216398 0.86657274 9
-14.107504 8.524888 1.4452863 10
-14.111333 8.5273495 2.027792 11
-14.131752 8.539834 2.618715 12
-14.136449 8.5428228 3.2143259 13
-14.149867 8.5510845 3.8208313 14
-14.154222 8.5538702 4.4354734 15
-13.635577 -0.97659385 -0.23910353 7
-13.660205 8.5235243 0.2839072 8
-13.660916 8.5241184 0.84688359 9
-13.67098 8.5305462 1.412962 10
-13.684864 8.5393591 1.9839072 11
-13.718524 8.5605078 2.5646262 12
-13.705601 8.5526018 3.1439219 13
-13.723766 8.5640917 3.7385457 14
-13.737617 8.5728931 4.3429918 15
-13.231856 8.5215788 -0.27204281 7
-13.251437 8.534338 0.27794027 8
-13.252707 8.535306 0.82908928 9
-13.272635 8.5482912 1.3843231 10
-13.286263 8.5572243 1.9437124 11
-13.285999 8.557209 2.5064495 12
-13.308226 8.5716791 3.0806415 13
-13.303504 8.568799 3.6571491 14
-13.323318 8.5817242 4.250473 15
-13.129778 -1.8903106 -0.23248082 7
-12.853756 8.5409174 0.27215025 8
-12.867813 8.5504131 0.81260324 9
-12.881022 8.5595026 1.9021871 11
-12.893749 8.5681181 2.4553709 12
-12.900016 8.5724449 3.0142856 13
-12.923131 8.587966 3.5860565 14
-12.913366 8.5816479 4.1585059 15
-12.611055 -2.7469594 -0.22666189 7
-12.50199 8.5679216 1.3290339 10
-12.530975 8.5884428 3.511035 14
-12.552204 8.603159 4.0814867 15
-12.060596 -3.5458655 -0.2212165 7
-12.110888 8.5568666 0.26152077 8
-12.129781 8.5703745 0.78120118 9
-12.139099 8.5771236 1.3033915 10
-12.151743 8.5862207 1.8300958 11
-12.161285 8.5931282 2.361834 12
-12.167306 8.5975513 2.8994818 13
-12.187531 8.6121893 4.0026307 15
-11.773383 8.5736332 0.25686112 8
-11.778167 8.5772848 0.76639408 9
-11.792975 8.5882339 1.2793103 10
-11.789753 8.5860605 1.7939243 11
-11.803545 8.5962725 2.3160422 12
-11.805749 8.598053 2.8423915 13
-11.819159 8.6079922 3.3793445 14
-11.507533 -4.2975402 -0.21659617 7
-11.429745 8.5762291 -0.24698208 7
-11.436142 8.5812006 0.252159 8
-11.444909 8.5879478 0.75263733 9
-11.448578 8.5908756 1.2551726 10
-11.465796 8.6039629 1.763206 11
-11.46119 8.600687 2.2728126 12
-11.474747 8.6110344 2.7921159 13
-11.477837 8.6135349 3.3167 14
-11.481691 8.6166115 3.8503551 15
-10.942466 -5.0035634 -0.2125714 7
-10.959093 8.5960693 0.2456453 8
-10.960899 8.5976152 0.73276788 9
-11.120715 8.5963917 1.2325997 10
-10.974606 8.6086988 1.7156841 11
-10.988246 8.6195812 2.2151968 12
-10.998028 8.6273632 2.720535 13
-11.005778 8.6336508 3.233084 14
-11.000436 8.629571 3.7501953 15
-10.493588 8.6022024 0.23929153 8
-10.50695 8.6135254 1.191427 10
-10.533107 8.6357269 3.1480994 14
-10.53664 8.6388187 3.6546347 15
-10.356229 -5.6620607 -0.20890814 7
-10.211058 8.6179104 0.23562737 8
-10.206656 8.6143875 0.70251811 9
-10.212388 8.6194172 1.1718948 10
-10.225842 8.6309595 1.6459315 11
-10.231049 8.6355486 2.1235893 12
-10.227326 8.6326046 2.6047807 13
-10.248333 8.650527 3.0996988 14
-10.254203 8.6556835 3.5993025 15
-9.7819166 -6.2944441 -0.20623957 7
-9.9159193 8.614686 -0.22709034 7
-9.9268446 8.6243658 0.23188066 8
-9.7956409 8.6334887 0.68680334 9
-9.7955437 8.6335754 1.1450421 10
-9.6637058 8.6421957 1.5946289 11
-9.9398384 8.6362419 1.61963 11
-9.8111629 8.6476889 2.0744646 12
-9.8165474 8.6527033 2.5468631 13
-9.8184929 8.6545582 3.0251639 14
-9.8276043 8.6627932 3.5140069 15
-9.380435 8.6331205 0.22476548 8
-9.3785667 8.6316099 0.67039645 9
-9.3982401 8.6499128 1.1200649 10
-9.3978662 8.6497774 1.5710287 11
-9.4112864 8.6623306 2.0288284 12
-9.4162598 8.667119 2.4907846 13
-9.4242506 8.6749077 3.435709 15
-9.4022503 -25.304106 5.2353883 13
-9.4010468 -25.299486 6.2189579 14
-9.3937902 -25.278532 7.2134943 15
-9.1453581 42.476173 -0.76264381 7
-9.1724644 -6.8752728 -0.20356411 7
-8.9938984 8.6404781 0.21986134 8
-9.0080147 -25.353806 0.45902631 8
-9.1247921 8.64258 0.66101497 9
-9.0133438 8.659586 1.0960599 10
-8.998024 -25.324253 1.3977057 9
-9.0180321 8.6643028 1.5382348 11
-9.0167313 8.6633577 1.9833831 12
-8.9990311 -25.325687 2.3404815 10
-9.0278921 8.6741972 2.4367137 13
-9.0343723 8.6806545 2.8958585 14
-8.9980736 -25.321575 3.2884076 11
-9.0377321 8.6841478 3.3619635 15
-8.9912376 -25.300888 4.2413983 12
-8.9843807 -25.278669 6.1817389 14
-8.9815817 -25.269304 7.1735959 15
-8.5490274 -7.4175549 -0.20127453 7
-8.6234121 8.6489134 -0.21127112 7
-8.6260376 8.6517658 0.21532837 8
-8.5981236 -25.342487 0.45662406 8
-8.5167017 8.6647186 0.63896185 9
-8.5943508 -25.329865 1.3911711 9
-8.5271854 8.6758366 1.4962579 11
-8.5307655 8.679595 1.9303423 12
-8.5915222 -25.320026 2.3284533 10
-8.6527843 8.6797037 2.3852851 13
-8.413578 8.6852388 2.7948239 14
-8.6515217 8.678668 2.8323028 14
-8.5863848 -25.303368 3.2698569 11
-8.4201965 8.6923084 3.2460198 15
-8.5846138 -25.296637 4.2197747 12
-8.5837107 -25.292442 5.1802635 13
-8.5737591 -25.261526 6.1470523 14
-8.5727777 -25.257067 7.1347141 15
-8.2844172 8.6731701 0.21135318 8
-8.1894865 -25.3218 0.45417655 8
-8.1585455 8.6657581 0.62588346 9
-8.2698908 -48.274498 0.83785069 8
-8.2848558 8.6740751 1.0517774 10
-8.1933174 -25.332083 1.3848035 9
-8.1729593 8.6815319 1.4664828 11
-8.1895447 -25.318817 2.3174298 10
-8.1845551 8.6943207 2.3238776 13
-8.2667856 -48.24987 2.5483451 9
-8.1843805 8.6943798 2.759747 14
-8.1803093 -25.288639 3.252604 11
-8.1961088 8.7070808 3.2073572 15
-8.2636747 -48.225204 4.2633295 10
-8.1805773 -25.287863 4.1984754 12
-8.1791534 -25.28183 5.1537232 13
-8.2632437 -48.216148 5.9889817 11
-8.1772842 -25.274401 6.1212273 14
-8.1711063 -25.253613 7.1001368 15
-8.2602749 -48.192223 7.726438 12
-8.2576399 -48.170181 9.4818544 13
-7.9239435 -7.9347878 -0.19965333 7
-7.7155509 8.6801119 0.20455797 8
-7.7909627 -25.319883 0.45218557 8
-7.8254128 8.6773672 0.61442739 9
-7.8347845 8.6879492 1.0257604 10
-7.7875566 -25.307117 1.3773041 9
-7.7293277 8.6963425 1.4309365 11
-7.8457389 8.700654 1.8582041 12
-7.7876029 -25.305582 2.3058891 10
-7.8448219 8.6997919 2.2798779 13
-7.8492193 8.704917 2.7090812 14
-7.8554368 8.7120857 3.146476 15
-7.7838802 -25.291773 3.238466 11
-7.7860327 -25.297064 4.1812038 12
-7.7753196 -25.260479 5.1263032 13
-7.7773561 -25.265354 6.091609 14
-7.7684765 -25.234692 7.0630021 15
-7.2869544 -8.4216833 -0.19847097 7
-7.5058742 8.6914749 -0.19882971 7
-7.4008875 8.6944771 0.20105712 8
-7.3932652 -25.308655 0.45014563 8
-7.2925596 8.693574 0.59657019 9
-7.5594635 -48.263428 0.83597893 8
-7.3968859 8.6902866 1.0005397 10
-7.3890572 -25.292435 1.3707147 9
-7.4093108 8.705265 1.4059175 11
-7.4145203 8.7114859 1.8143573 12
-7.3864722 -25.281778 2.2939677 10
-7.4143958 8.7117634 2.2263613 13
-7.5577669 -48.245415 2.5424297 9
-7.4271941 8.7269592 2.6485715 14
-7.4195018 8.7181807 3.0705926 15
-7.3826551 -25.266882 3.2215457 11
-7.5548277 -48.219429 4.2531295 10
-7.3808756 -25.258961 4.1571569 12
-7.3793907 -25.252031 5.1027803 13
-7.5516109 -48.191631 5.972218 11
-7.3799911 -25.252222 6.0625153 14
-7.374464 -25.231388 7.0319886 15
-7.5488715 -48.166836 7.704587 12
-7.5470939 -48.148109 9.4556236 13
-6.9840837 8.6976242 0.19633618 8
-6.9966555 -25.288235 0.44805759 8
-6.9889703 8.7040834 0.58682173 9
-6.8514037 -48.244476 0.83416182 8
-7.0910659 8.7037783 0.98420459 10
-6.9983959 -25.29262 1.3652679 9
-7.0003119 8.7187042 1.3750589 11
-7.0971904 8.711834 1.7820909 12
-6.9963636 -25.28334 2.28491 10
-6.8995123 8.721612 2.1641171 13
-6.8477631 -48.210781 2.5354853 9
-6.9032912 8.7266731 2.5715394 14
-6.9181948 8.7457857 2.99084 15
-6.9933658 -25.270554 3.2090545 11
-6.8470931 -48.198021 4.2424793 10
-6.9898133 -25.255751 4.1398811 12
-6.9893031 -25.251934 5.0821786 13
-6.8469987 -48.18927 5.9594975 11
-6.8453522 -48.169525 7.6888986 12
-6.8419404 -48.137234 9.4336443 13
-6.634006 22.7799 -0.41533294 7
-6.6320119 -8.8729267 -0.19755982 7
-6.4930615 8.7075605 -0.18829106 7
-6.5901666 8.7065516 0.19210133 8
-6.6124887 -25.301315 0.44667473 8
-6.6000834 8.7199936 0.57481676 9
-6.6380424 22.795706 0.413335 8
-6.5995646 8.7196627 0.9585939 10
-6.6074376 -25.279898 1.3594543 9
-6.698801 8.7211752 1.3522938 11
-6.6408782 22.807411 1.243927 9
-6.607698 8.7307777 1.7364346 12
-6.6046786 -25.267258 2.2748082 10
-6.6089773 8.7330217 2.1312587 13
-6.6154218 8.7417068 2.5335696 14
-6.5992522 -25.244398 3.193548 11
-6.6153727 8.7419395 2.9403298 15
-6.6009102 -25.248655 4.1229577 12
-6.5982895 -25.236504 5.0597067 13
-6.2150497 8.7191334 0.18826875 8
-6.2246423 -25.289299 0.44495854 8
-6.2192736 8.7254133 0.56309301 9
-6.2660065 22.724554 0.41013408 8
-6.1466141 -48.224442 0.83251625 8
-6.2228265 8.73067 0.93971765 10
-6.2230148 -25.28046 1.3546793 9
-6.2275238 8.7375412 1.3193415 11
-6.2682424 22.734732 1.2346973 9
-6.2253599 8.7348309 1.7009543 12
-6.2164421 -25.251497 2.2652793 10
-6.2303038 8.7419853 2.088938 13
-6.1454701 -48.206406 2.5306866 9
-6.2357383 8.7499228 2.4830525 14
-6.2169795 -25.251453 3.1830006 11
-6.2406654 8.7572527 2.8840435 15
-6.1450009 -48.193642 4.2342453 10
-6.2142906 -25.238264 4.1064687 12
-6.2110338 -25.222744 5.0387731 13
-6.1434746 -48.172516 5.9462819 11
-6.1406469 -48.141106 7.6699004 12
-6.1413665 -48.137463 9.4158669 13
-5.957459 -9.2854557 -0.19683973 7
-5.7176228 1.4801148e-05 -0.29965505 6
-5.7698154 0.41330302 -0.30301148 6
-5.8259521 0.83902079 -0.30818105 6
-5.8314147 1.2707814 -0.31235328 6
-5.8163185 1.7110635 -0.3171818 6
-5.7739944 2.1579959 -0.32238165 6
-5.7114863 2.6141248 -0.32843179 6
-5.6014566 3.0659907 -0.33383244 6
-5.761097 8.7278547 0.18373357 8
-5.8381319 -25.269814 0.44322059 8
-5.86096 8.7420626 0.55299169 9
-5.9322805 22.781252 0.40933722 8
-5.6323719 22.972088 0.41102508 8
-5.8598847 8.7407207 0.92223865 10
-5.836411 -25.259964 1.3490956 9
-5.858182 8.7384453 1.2934937 11
-5.9358416 22.797121 1.2330954 9
-5.6327066 22.97583 1.2380197 9
-5.8623548 8.7451057 1.6694454 12
-5.8320684 -25.238741 2.2565539 10
-5.8260946 8.7578478 2.0468247 13
-5.7533641 8.7617912 2.551116 14.333333
-5.8323331 -25.237488 3.170541 11
-5.872541 8.7612247 2.8286607 15
-5.8301821 -25.225733 4.0905924 12
-5.8273106 -25.210836 5.0193872 13
-5.2769675 -9.6820297 -0.19677122 7
-5.2149591 -1.5328372 -0.28551015 6
-5.3835459 -1.1724401 -0.28924072 6
-5.5590796 -0.59776926 -0.2934517 6
-5.4616036 3.5191834 -0.33963439 6
-5.2881641 3.9700863 -0.34566423 6
-5.588913 8.7362776 -0.18005939 7
-5.3772478 8.7451286 0.18023983 8
-5.403841 -29.018202 0.50485134 8
-5.4502931 -27.105082 0.47274122 8
-5.4208317 8.7453184 0.54049104 9
-5.4453802 -48.208168 0.83112353 8
-5.3799996 8.7503719 0.90009111 10
-5.399734 -28.992561 1.5350943 9
-5.4463968 -27.082649 1.4378052 9
-5.384429 8.758091 1.2639307 11
-5.3424001 8.7605124 1.7495607 12.333333
-5.3738074 8.7661171 2.2504184 13.666667
-5.4437966 -48.183777 2.5254781 9
-5.392848 -28.951971 2.5659478 10
-5.4439373 -27.067368 2.4054253 10
-5.352891 8.7793884 2.7574613 15
-5.4432478 -27.06089 3.3789685 11
-5.3970103 -28.9708 3.6076086 11
-5.4428635 -48.165119 4.224802 10
-5.4423022 -27.053112 4.3602057 12
-5.391768 -28.939011 4.6514301 12
-5.4362812 -27.020025 5.3467751 13
-5.4431767 -48.157471 5.9345517 11
-5.3894272 -28.922789 5.7076459 13
-5.4407735 -48.125637 7.6546082 12
-5.4381375 -48.091652 9.3910952 13
-4.864398 -2.2234163 -0.28124952 6
-5.0621009 -1.8898609 -0.28398073 6
-5.070601 4.4077024 -0.35123396 6
-4.8474345 4.8645964 -0.35908142 6
-4.9984655 8.7501869 0.1767692 8
-5.0046434 8.7613611 0.52982581 9
-5.0054545 8.7630606 0.88411891 10
-4.9803605 8.7682619 1.3588914 11.333333
-5.0356607 8.7683754 1.8456467 12.666667
-5.0121584 8.7763414 2.3352077 14
-4.9298568 8.7786322 2.6997111 15
-4.8013897 30.794218 2.7223103 10
-4.8015842 30.800602 3.8231542 11
-4.8037148 30.81942 4.935904 12
-4.8042383 30.828011 6.0603371 13
-4.8064518 30.847511 7.2032776 14
-4.810492 30.878788 8.36936 15
-4.5785637 -10.047091 -0.19700007 7
-4.4295797 -2.8486931 -0.27722579 6
-4.644886 -2.5382714 -0.27849001 6
-4.569736 5.2947164 -0.36580008 6
-4.7478108 8.7423763 -0.17304419 7
-4.5572319 8.7607307 0.17303982 8
-4.6384058 8.7634649 0.5205164 9
-4.7988334 30.76767 0.53908265 8
-4.7470326 -48.193588 0.8299464 8
-4.5645132 8.7757158 0.86643195 10
-4.5675697 8.7821321 1.3928589 11.5
-4.5662723 8.7803164 1.9252704 13
-4.7993183 30.775856 1.6279701 9
-4.5719194 8.7916594 2.2894931 14
-4.7457056 -48.168045 2.5211751 9
-4.5725532 8.7932186 2.6575837 15
-4.7447271 -48.14603 4.2170877 10
-4.7443752 -48.130325 5.9225931 11
-4.7443123 -48.117462 7.6420984 12
-4.7435827 -48.097702 9.3784456 13
-4.3498087 30.768036 -0.54727292 7
-4.1827188 -3.1330369 -0.27521846 6
-4.2480698 5.700376 -0.37196067 6
-4.2089205 8.7714434 0.17030275 8
-4.2123947 8.7789898 0.51094109 9
-4.3514657 30.785345 0.53787476 8
-4.1913242 8.7896624 0.96712172 10.333333
-4.2413831 8.7869921 1.4305065 11.666667
-4.2149105 8.7861147 1.8954451 13
-4.349957 30.780325 1.6243705 9
-4.2911253 8.7842321 2.2584422 14
-4.1454329 8.8034992 2.2478075 14
-4.1430402 8.7989264 2.6074035 15
-4.3004279 8.8037071 2.6269014 15
-4.3524537 30.803595 2.7169712 10
-4.3533926 30.815916 3.81654 11
-4.3558631 30.8391 4.9281678 12
-4.35536 30.841356 6.0496788 13
-4.3564887 30.855213 7.1893625 14
-4.3558741 30.856865 8.3452358 15
-3.8663735 -10.392638 -0.19775265 7
-3.6528082 -3.6543276 -0.27231571 6
-3.9290445 -3.4062881 -0.273963 6
-3.6047969 0.2582362 -0.31613204 5
-3.6087952 0.51978689 -0.31887767 5
-3.8951747 6.0925121 -0.37852585 6
-3.9768076 8.7658195 -0.16779521 7
-3.7976503 8.7849417 0.16732094 8
-3.8019288 8.795167 0.50257719 9
-3.9056678 30.805101 0.53681183 8
-3.8007247 8.7930899 1.0077887 10.5
-3.9854865 8.7873278 1.5291429 12
-3.7709775 8.812458 1.5189788 12
-3.8046896 8.8034067 1.8652416 13
-3.9058995 30.813219 1.6226081 9
-3.8059669 8.8070383 2.216228 14
-3.8099749 8.8167629 2.5749803 15
-3.9065177 30.824406 2.7132092 10
-3.9075439 30.838842 3.8116667 11
-3.9075768 30.845522 4.9193478 12
-3.9074638 30.851133 6.0395937 13
-3.9094598 30.873432 7.17941 14
-3.9105761 30.888927 8.3374796 15
-3.5031698 50.630459 -0.89678144 7
-3.3734725 -3.8944206 -0.27162814 6
-3.2357597 -1.2076348 -0.30250698 5
-3.3238409 -0.97673476 -0.30336422 5
-3.4349036 -0.61996239 -0.30573234 5
-3.544601 -0.25384083 -0.31097445 5
-3.5812142 9.1061365e-06 -0.31331995 5
-3.5741844 0.77904129 -0.31988752 5
-3.5666351 1.049521 -0.32507208 5
-3.4736729 1.442953 -0.32905751 5
-3.3513782 1.8353202 -0.33403668 5
-3.2492054 2.0948751 -0.33797243 5
-3.5111716 6.4693584 -0.38552332 6
-3.3804839 9.1377878 -0.17024928 7
-3.46122 8.9654465 0.16778654 8
-3.386596 9.5727262 0.17708248 8
-3.399363 10.063352 0.1851466 8
-3.4184453 10.617153 0.19431625 8
-3.5407844 8.791008 0.49691376 9
-3.3701413 9.1111441 0.50916564 9
-3.3837297 9.5653267 0.53169554 9
-3.4011936 10.069502 0.55686069 9
-3.4131734 10.601655 0.58342493 9
-3.4592288 30.809805 0.5355947 8
-3.4578173 8.9576178 1.0098612 10.5
-3.38269 9.5630751 0.88753158 10
-3.3949778 10.051903 0.92819297 10
-3.4093785 10.590734 0.97323507 10
-3.4564748 8.9545307 1.5209188 12
-3.3750997 9.5423641 1.2429703 11
-3.3893828 10.036139 1.3007313 11
-3.4044039 10.576159 1.3641528 11
-3.4528322 8.945508 1.8646955 13
-3.3724144 9.5358276 1.7842283 12.5
-3.3844481 10.022331 1.675631 12
-3.3984654 10.558608 1.7568614 12
-3.4589145 30.814146 1.6194969 9
-3.3819642 8.9514303 2.2099488 14
-3.3675847 9.5232639 2.3325741 14
-3.3848751 10.024358 2.0569208 13
-3.3947384 10.547914 2.1540363 13
-3.4564009 8.9552631 2.573246 15
-3.3632772 9.5118351 2.703984 15
-3.3798127 10.010186 2.4396179 14
-3.392211 10.540941 2.5567472 14
-3.4590709 30.822695 2.7080293 10
-3.3764298 10.000985 2.8288822 15
-3.3898337 10.53445 2.965616 15
-3.4606736 30.844133 3.8054073 11
-3.4621732 30.864729 4.9135947 12
-3.4605494 30.857664 6.0301394 13
-3.4624231 30.881781 7.1686616 14
-3.4623239 30.888496 8.3226891 15
-3.1290689 -10.690851 -0.19849949 7
-3.0803146 -4.1156611 -0.27107513 6
-2.9257684 -1.7362334 -0.29834548 5
-3.1047776 -1.4185553 -0.29904702 5
-3.1300175 2.3515058 -0.34226757 5
-2.9717441 2.5853825 -0.34440461 5
-2.8239305 2.8366709 -0.35001844 5
-3.0970566 6.8309894 -0.39308983 6
-3.0148365 30.822098 0.53461719 8
-3.0146844 30.828754 1.6174388 9
-3.0163372 30.853838 2.7062962 10
-3.0171566 30.870497 3.8025346 11
-3.0174603 30.881973 4.9085455 12
-3.0159957 30.875523 6.0241499 13
-3.0168743 30.89308 7.16009 14
-3.0190084 30.923594 8.3191996 15
-2.6468253 7.1601739 -0.40038615 6
-2.4611061 -4.5069194 -0.27083802 6
-2.7780893 -4.3231564 -0.27101558 6
-2.6199846 -2.1107242 -0.29515931 5
-2.4727459 -0.63125992 -0.31359708 4
-2.5640001 -0.27554148 -0.31685132 4
-2.6007984 0.18715928 -0.32071051 4
-2.5797198 0.66036004 -0.3271755 4
-2.4931643 1.036069 -0.33174166 4
-2.6324773 3.0536194 -0.35262218 5
-2.4315014 3.2671978 -0.35628763 5
-2.1578245 7.434103 -0.4063541 6
-2.3780591 -10.979504 -0.19995843 7
-2.1299314 -4.6628008 -0.27036363 6
-2.1023002 -2.6054945 -0.29384938 5
-2.3744249 -2.3731532 -0.29440355 5
-2.1493623 -1.2746785 -0.30714822 4
-2.3375454 -0.96788085 -0.31092563 4
-2.0029523 -0.28823254 -0.32044458 3
-2.0397074 0.29386422 -0.32646906 3
-2.010046 0.43829215 -0.32595733 3
-2.3421474 1.3949003 -0.33500499 4
-2.1525857 1.7427931 -0.34042537 4
-2.2168753 3.4730473 -0.36054575 5
-1.6442349 7.6795268 -0.41265219 6
-1.796957 -4.815702 -0.27106181 6
-1.7046599 -2.8681467 -0.29290593 5
-1.7525167 -1.7496035 -0.30478817 4
-1.9957777 -1.4928629 -0.30618355 4
-1.7397907 -0.94924939 -0.31428486 3
-1.9049407 -0.59630483 -0.31659198 3
-1.6173049 -0.35196128 -0.32154194 2
-1.6593798 0.36189899 -0.33034506 2
-1.9699746 0.65757471 -0.32932833 3
-1.8497044 1.0149192 -0.33503154 3
-1.6661078 1.3497809 -0.3402397 3
-1.9738152 1.9846989 -0.34388718 4
-1.7702789 2.2117958 -0.34835231 4
-1.8567243 3.7437711 -0.36609134 5
-1.4525285 -4.9432654 -0.27164912 6
-1.3881395 -3.0316756 -0.29255238 5
-1.3364649 -2.0730937 -0.30314326 4
-1.4892948 -1.9845934 -0.30492887 4
-1.386272 -1.382037 -0.31041658 3
-1.3857917 -1.0597579 -0.31546915 2.3333333
-1.315426 -0.65762031 -0.31933016 1.3333334
-1.3591129 -0.2957139 -0.32083595 1
-1.297846 0.28313854 -0.3299413 0.5
-1.4057808 0.7020238 -0.33287117 1.5
-1.4130044 0.9876408 -0.33676395 2
-1.3812897 1.3908782 -0.34269467 2.5
-1.36103 1.7028198 -0.34602565 3
-1.4589732 2.4819932 -0.35413423 4
-1.4621204 3.9674726 -0.37039578 5
-1.1053858 7.8809352 -0.41856787 6
-1.0990254 -5.0462575 -0.2722131 6
-0.94544774 -3.204869 -0.29315621 5
-1.170242 -3.1267476 -0.29291964 5
-1.0283837 -2.2394145 -0.30341956 4
-0.96929228 -1.6924508 -0.30938739 3
-1.0599723 -1.3768318 -0.31431115 2.3333333
-0.98516506 -0.98116899 -0.3182779 1
-1.0428156 -0.68120468 -0.3207593 0.25
-1.1790543 -0.25648794 -0.32294938 0
-1.0529499 0.65492696 -0.33375573 0
-0.99646628 1.0059168 -0.34085506 0.75
-1.0339206 1.4313132 -0.34501609 2
-1.1103923 1.8928052 -0.34841806 3
-0.90870017 2.0190103 -0.35136011 3
-1.0999178 2.6929684 -0.35795644 4
-0.81732738 2.8385413 -0.36337277 4
-1.0431142 4.1634412 -0.37647998 5
-0.545627 8.0366831 -0.42413732 6
-0.71946806 -3.2855523 -0.29506168 5
-0.53324026 -2.4216666 -0.30485585 4
-0.69759762 -2.355175 -0.30196542 4
-0.59135824 -1.8677908 -0.31089941 3
-0.60951877 -1.3589169 -0.31494775 1.5
-0.6655553 -1.0447013 -0.31975612 0.25
-0.60334808 1.1274984 -0.34499624 0
-0.58926696 1.3094351 -0.34622559 0.75
-0.58498687 1.6980131 -0.35056061 2
-0.57700258 2.1588874 -0.35532641 3
-0.50914395 2.9196115 -0.36494949 4
-0.60017455 4.317112 -0.38235319 5
-0.35118467 -1.4605044 -0.31708655 1.5
-0.3019352 -1.1485243 -0.31788918 0
-0.19530533 1.393538 -0.35070822 0.5
-0.21121582 1.803278 -0.35434097 2
-0.22443837 2.2471943 -0.35875076 3
-0.10544841 2.9972906 -0.36734477 4
-0.14795104 4.3863082 -0.38266715 5
0.024483541 8.1388617 -0.41921964 6
0.27143246 39.898415 -0.66313308 7
0.33769098 -5.2720242 -0.27784327 6
0.21284421 -3.3981051 -0.29846331 5
0.25114352 -2.4899664 -0.30791408 4
0.1917457 -1.7941355 -0.31581748 2.5
0.18175864 -1.3732975 -0.32138309 1
0.19274659 -1.1847905 -0.32339743 0
0.15968081 1.3989291 -0.34980774 0.5
0.21584086 1.8144263 -0.3545447 2
0.18345802 2.2656164 -0.35826054 3
0.20092319 3.0104461 -0.36723089 4
0.31175154 4.4054589 -0.38171437 5
0.26841637 39.923176 0.73023081 8
0.26518637 39.920971 2.1256666 9
0.26202556 39.929447 3.5270886 10
0.25891918 39.948078 4.9390273 11
0.25585717 39.976925 6.3661408 12
0.61297464 8.1969624 -0.42233136 6
0.68682641 -11.780991 -0.20846273 7
0.75739819 -5.2775989 -0.28014925 6
0.6033386 -3.3740728 -0.30048445 5
0.61419767 -2.4392242 -0.30939826 4
0.58657801 -1.9051056 -0.31674817 3
0.60399574 -1.3896215 -0.32176629 1.5
0.65145332 -1.0731606 -0.32624587 0.25
0.60016698 1.1397915 -0.34807998 0
0.51785743 1.344893 -0.34998694 0.66666669
0.59047103 1.7295734 -0.35496637 2
0.73818409 2.187247 -0.21408284 4.818182
0.7713362 2.549556 -0.17345792 5.5999999
0.70136708 2.9813335 -0.20978934 5.5
0.75190538 3.3828399 -0.17719071 6
0.74423045 3.705199 -0.12702501 6.5
0.62902033 4.3879271 -0.38274997 5
0.78282923 2.1859868 0.20897983 10
0.77261907 2.578541 0.20916449 9.666667
0.76442111 2.9951503 0.19798462 9.2857141
0.75434834 3.3964534 0.18816257 9
0.74647725 3.719064 0.20426828 9
0.78516138 2.1826067 0.55530214 14.142858
0.77556795 2.5822637 0.58627832 13.555555
0.76574755 2.976083 0.61410171 13.1
0.75676507 3.3944008 0.59329772 12.285714
0.74955481 3.7375979 0.61096418 12
0.76504403 3.0496383 0.8501125 15
0.75657076 3.4487801 0.90945196 14.666667
0.75109005 3.748271 0.96091479 14.5
0.85833555 -11.813684 -0.20912378 7
1.1449134 -5.2683406 -0.28301728 6
0.96352839 -3.3024561 -0.30120799 5
0.96689951 -2.3547161 -0.31303215 4
0.95699978 -1.7710813 -0.31998244 3
0.96385461 -1.3521738 -0.32449761 2
0.94801474 -0.97628111 -0.32885975 0.75
1.0091505 -0.67343831 -0.33095789 0
1.1367389 0.55332792 -0.34457293 0
1.0202931 1.0087136 -0.35016078 0.66666669
0.94176459 1.3795688 -0.35322443 1.5
0.97058749 1.8851687 -0.19965717 4.75
0.98834115 1.9161855 0.1949825 10
0.98941875 1.9173015 0.51896751 14.142858
0.83967376 39.927242 0.73166811 8
0.83671325 39.937641 2.1282153 9
0.83363003 39.943035 3.5302479 10
0.83079875 39.960945 4.9428792 11
0.82795161 39.979546 6.3691239 12
1.2091238 8.2061062 -0.42518175 6
1.5341296 -5.2274189 -0.28568918 6
1.2065806 -3.2512963 -0.30349869 5
1.4532257 -3.194998 -0.30701157 5
1.3445939 -2.1886575 -0.31611601 4
1.2093894 -1.6296878 -0.32208571 3
1.4508123 -1.4602875 -0.32727602 3
1.3619558 -0.98821813 -0.33038533 2
1.3696557 -0.60065132 -0.33371907 1.25
1.3217981 -0.2237092 -0.33699402 0.5
1.346843 0.19356221 -0.34222028 0.5
1.3677998 0.56400692 -0.34563971 1
1.427197 0.99281645 -0.35104814 1.8
1.2343702 1.3369184 -0.35433751 2
1.3715268 1.8937488 -0.201088 5
1.367089 1.9213557 0.21355845 10
1.4778291 -25.09481 0.43325943 8
1.3663722 1.9227561 0.55529088 14
1.4118881 39.94455 0.73348403 8
1.4091027 39.955032 2.1312251 9
1.4061065 39.960056 3.5344212 10
1.4037765 39.984119 4.9490042 11
1.4008243 39.991764 6.3749256 12
1.7323108 -11.945945 -0.21249351 7
1.9222898 -5.1546493 -0.28816679 6
1.8070545 -3.053467 -0.31027034 5
1.783741 -1.9235659 -0.32225329 4
1.6455076 -1.238428 -0.32689455 3
1.8334712 -1.003489 -0.33227733 3
1.8069899 -0.64134377 -0.33612651 2.5
1.7232473 -0.21190009 -0.3399561 2
1.7469871 0.20539865 -0.34428212 2
1.678504 0.58450735 -0.34760323 2
1.9753438 1.0708793 -0.35529205 3
1.7762566 1.3788056 -0.35589999 3
1.7624567 1.8900195 -0.19980119 5.2222223
1.766899 1.9304661 0.19010466 9.5
1.7715061 1.9325463 0.56895179 13.5
1.8346534 -25.057291 1.3114486 9
1.8340598 -25.059132 2.1929903 10
1.832011 -25.041298 3.0776284 11
1.830097 -25.025362 3.9689143 12
1.8290603 -25.021435 4.8713121 13
2.3168135 -5.0722141 -0.29172683 6
2.1576521 -2.8883467 -0.31475669 5
2.3725231 -2.7423685 -0.31636187 5
2.0686355 -1.6714656 -0.32649162 4
2.3156452 -1.3749241 -0.33036792 4
2.0685029 -0.52535713 -0.33875024 3
2.1319089 -0.22257684 -0.34010306 3
2.1652699 0.21378897 -0.34496072 3
2.1263659 0.56956768 -0.34914276 3
2.0343926 0.91913068 -0.35313374 3
2.1634307 1.9362231 -0.17764454 5.7142859
2.1516864 1.9380586 0.21078293 9.5
2.1975284 -25.075487 0.43434215 8
2.1479728 1.9424728 0.62796414 13.5
2.296977 1.9537687 0.82135618 15
2.1955245 -25.061134 1.3134236 9
2.1918406 -25.02774 2.1930342 10
2.1911585 -25.028446 3.0798662 11
2.1902347 -25.026476 3.973943 12
2.1888697 -25.019592 4.8768497 13
2.1851206 -24.994595 6.7176809 15
2.6359427 -12.041869 -0.21629363 7
2.7060091 -4.95333 -0.29489169 6
2.6850519 -2.5012116 -0.3199833 5
2.5241232 -1.0430288 -0.33475983 4
2.677954 -0.6776619 -0.33829045 4
2.779336 -0.39140704 -0.34325111 4
2.7962723 0.79999572 -0.35473201 4
2.7619023 1.0108078 -0.3585408 4
2.6422892 1.3066663 -0.35939059 4
2.5524776 1.9091289 -0.19213918 5.7142859
2.5618227 1.9474158 0.20889932 9.2857141
2.5562286 -25.046104 0.43468592 8
2.5675602 1.9531298 0.60560131 12.714286
2.5511587 1.953618 0.87503821 15
2.5554881 -25.046181 1.3146923 9
2.5531213 -25.03043 2.1965241 10
2.5514383 -25.021383 3.0834599 11
2.549823 -25.013048 3.9774919 12
2.5488224 -25.010796 4.8820486 13
2.5466006 -24.996721 5.7960496 14
2.5458 -24.996639 6.7276578 15
3.0961094 -4.8138475 -0.29861 6
3.0899298 -2.1428151 -0.32735279 5
2.8296788 -0.19211332 -0.34667543 4
2.8520045 0.2813524 -0.35015649 4
2.8353434 0.59380049 -0.35346779 4
2.9175391 -25.037176 0.43548089 8
2.9166598 -25.036146 1.3164983 9
2.9136899 -25.017282 2.1990881 10
2.9133284 -25.020746 3.088495 11
2.910661 -25.004543 3.9826555 12
2.9084759 -24.992544 4.8864188 13
2.908232 -24.997221 5.805541 14
2.9049711 -24.976206 6.7329879 15
3.5746477 -12.111284 -0.22077374 7
3.4848247 -4.6499486 -0.30271232 6
3.3453684 -1.8227768 -0.3310287 5
3.4956322 -1.5907986 -0.33342227 5
3.2812636 -25.039331 0.43656674 8
3.2771277 -25.013758 1.3179352 9
3.2778618 -25.025209 2.2039733 10
3.2745972 -25.006304 3.092478 11
3.2737532 -25.005848 3.9902236 12
3.271384 -24.993862 4.8956451 13
3.2666698 -24.9641 5.8084373 14
3.267359 -24.975552 6.7450638 15
3.8607509 -4.4489183 -0.30638376 6
3.6445134 -1.351931 -0.3371692 5
3.8325882 -0.96719307 -0.34262359 5
3.9647107 -0.55679989 -0.34636778 5
3.9382725 1.7671939 -0.37146428 5
3.7533312 2.1984372 -0.37436104 5
3.6438346 -25.023787 0.43744308 8
3.6414723 -25.012978 1.3207942 9
3.6409392 -25.014698 2.2077072 10
3.6376519 -24.997604 3.0978274 11
3.6335726 -24.975122 3.9935231 12
3.8139451 -24.966028 4.9057159 13
3.8142161 -24.972937 5.8288574 14
3.8118525 -24.962931 6.7628937 15
4.2397861 -4.2316494 -0.31106281 6
4.0413609 -0.27358088 -0.35013869 5
4.1280632 0.25593635 -0.35700682 5
4.1323104 0.55658597 -0.35965061 5
4.0974078 1.0116153 -0.36391202 5
4.0182281 1.4659282 -0.36825866 5
4.0079556 -25.011206 0.43847042 8
4.0074701 -25.013124 1.3239905 9
4.0052152 -25.004049 2.2119029 10
4.0026636 -24.993164 3.1043694 11
4.0011764 -24.988939 4.0047979 12
4.3618159 -24.96064 5.846858 14
4.3573918 -24.940269 6.7808876 15
4.606153 58.459068 -0.96632057 7
4.5492845 -12.140873 -0.2257825 7
4.597755 -3.9743514 -0.315063 6
4.7975121 2.2758217 1.441303 15
4.7873459 2.5153689 1.3329297 14.333333
4.9279375 -3.6779032 -0.31823656 6
5.0089512 -6.4800792 0.72094929 10
5.0694604 -6.3680902 0.71666521 10
5.1296587 31.032515 0.58534956 8
4.9998279 -6.2814493 0.9906975 11
4.9946446 -5.1280818 1.0120952 11.5
5.070128 -4.0753345 1.0377862 12
5.1981316 -3.9975712 1.0463884 12
5.0808988 -3.1532955 1.1716962 13
4.9560881 -4.1030159 1.2585623 13
4.9340181 -3.1618719 1.362638 14
4.9626627 -2.5865161 1.3540788 14.25
5.0567279 -2.2827375 1.3600857 14.333333
5.0885954 1.791774 1.2630068 14
4.9477096 2.1462235 1.2628058 14
5.179862 3.6037498 1.24454 13
5.1355038 31.081514 1.6876966 9
5.1362891 31.100203 2.7948992 10
5.1516829 31.206842 3.9213262 11
5.1566501 31.250967 5.0549893 12
5.1628222 31.302546 6.2059464 13
5.1671844 31.343481 7.3738761 14
5.1713791 31.383686 8.5635786 15
5.5518184 -12.104291 -0.23092145 7
5.2917547 -3.3878739 -0.32461479 6
5.3780842 -6.2792082 0.72846043 10
5.5870481 31.032869 0.58762836 8
5.3792624 -4.9942098 0.90791053 11
5.3020678 -2.9824152 1.1924319 13
5.4556603 -2.8663571 1.208234 13
5.2028899 -2.0563073 1.303478 14
5.2733955 -1.8047936 1.2994272 14
5.363595 -1.4153843 1.2940836 14
5.4333105 -1.0235837 1.2905908 14
5.4710131 -0.62848777 1.2862141 14
5.4881597 -0.23341358 1.2836418 14
5.4673624 0.19975886 1.2791423 14
5.4153767 0.58933043 1.2741475 14
5.3480549 0.95499825 1.2710936 14
5.2421432 1.3710752 1.2683393 14
5.5311885 3.0737596 1.2482116 13
5.3545489 3.3652387 1.2476372 13
5.5876479 31.048862 1.6909376 9
5.5857205 31.050959 2.7982383 10
5.5860353 31.065527 3.9141078 11
5.5856552 31.076378 5.0400853 12
5.5860419 31.091619 6.1802998 13
5.5833268 31.089899 7.3332534 14
5.5834169 31.103918 8.5091991 15
5.6137838 -3.0506434 -0.32950062 6
5.9251919 -2.6892927 -0.3349849 6
5.776207 -6.1415019 0.74340099 10
5.6949773 -4.8495522 0.92562139 11
5.9071946 -4.7450104 0.93795735 11
5.9322567 2.3053005 1.2551539 13
5.7923226 2.5931814 1.2518836 13
5.6424313 2.875201 1.2491043 13
6.2101912 -2.2975888 -0.34029156 6
6.0627522 -6.0443788 0.75521499 10
6.2542725 -5.97262 0.76318085 10
6.0478439 31.038422 0.59012431 8
6.0734792 -4.6676269 0.94845778 11
6.1096663 -2.6176419 1.3039734 13
6.2342305 -2.2323925 1.2999641 13
6.3466778 -1.7627605 1.2938911 13
6.3927231 -1.5146884 1.2908494 13
6.357533 0.96256667 1.2671062 13
6.2536726 1.3729863 1.2622433 13
6.128324 1.7913098 1.2589712 13
6.0158863 2.0922942 1.2560625 13
6.3132305 4.3205209 1.2311527 12
6.0472064 31.046827 1.6961985 9
6.0480294 31.062738 2.807667 10
6.0496058 31.082577 3.9276416 11
6.0501251 31.097134 5.0578833 12
6.0466418 31.091387 6.1977563 13
6.0480719 31.110909 7.3588414 14
6.0468435 31.117058 8.5365982 15
6.6175857 -12.068244 -0.23758744 7
6.465569 -1.8776083 -0.34540576 6
6.7023411 -1.434791 -0.35104817 6
6.5905008 -5.8566222 0.77856827 10
6.4228392 -1.3284708 1.2890338 13
6.4552317 -1.0476969 1.2858984 13
6.4800901 -0.60257328 1.2805032 13
6.4825411 -0.20557596 1.2766266 13
6.4685411 0.16667847 1.2741696 13
6.4200063 0.55868626 1.2695752 13
6.6836114 3.7734635 1.2353677 12
6.4589953 4.1203265 1.2330465 12
7.0675087 3.790596 -0.40614921 6
6.8730869 4.3478246 -0.4117347 6
6.9141879 -0.96833199 -0.35699451 6
7.0982876 -0.47911081 -0.36321643 6
6.8533306 -5.7481918 0.79020387 10
7.1108618 2.9986312 1.2419214 12
6.9284253 3.3615634 1.2393941 12
7.2452378 3.2402475 -0.40214553 6
7.3266149 0.45310286 -0.37379867 6
7.4013643 0.99416208 -0.37979046 6
7.4269485 1.5463902 -0.38536793 6
7.4217463 2.1103592 -0.39156038 6
7.3469357 2.6717954 -0.39638412 6
7.5503988 1.8565778 1.2504117 12
7.4469533 2.175236 1.2480234 12
7.2854857 2.5904124 1.24414 12
7.7023425 -11.934721 -0.24401879 7
7.8733282 0.23128645 1.2650758 12
7.8412457 0.56877804 1.263086 12
7.7712154 0.98632276 1.2590774 12
7.6836715 1.3988593 1.2556281 12
7.6077104 1.6405761 1.2514031 12
7.9668298 5.5307317 1.2130955 11
8.280262 5.0703268 1.2145747 11
8.0776024 5.3536634 1.2121856 11
8.7544098 4.2955317 1.2196677 11
8.5808725 4.5993547 1.2178303 11
8.4356079 4.8381753 1.2163837 11
8.8698196 -11.797639 -0.25228444 7
9.0940952 -47.862991 0.84419489 8
9.1735725 3.4832942 1.2269391 11
9.0406475 3.7709386 1.2250322 11
8.8944235 4.0519114 1.2223837 11
9.0885334 -47.841999 2.5460038 9
9.0806665 -47.808922 4.2514467 10
9.0792837 -47.809948 5.9692049 11
9.0719385 -47.779716 7.6967578 12
9.0657492 -47.755634 9.442543 13
9.3518362 61.800556 -1.0214691 7
9.5301371 2.5602317 1.2333595 11
9.3719006 2.9925079 1.229918 11
9.2412081 3.2832065 1.2261788 11
9.799572 -47.835709 0.84668827 8
9.9455318 0.97266847 1.2474747 11
9.8733664 1.360433 1.2446332 11
9.766511 1.7767404 1.2400547 11
9.6611061 2.1908488 1.2378576 11
9.7943811 -47.818176 2.5525272 9
9.7881203 -47.795425 4.2628665 10
9.7824078 -47.775406 5.9823647 11
9.7781858 -47.762703 7.7163858 12
9.7718992 -47.740025 9.4667654 13
10.06094 -11.558677 -0.26054433 7
10.052179 0.25920242 1.25449 11
10.018861 0.58215696 1.2524431 11
10.515308 -47.839733 0.84993684 8
10.501572 -47.784664 2.559104 9
10.49958 -47.782982 4.2753325 10
10.492511 -47.758263 5.9990268 11
10.48821 -47.746178 7.7378011 12
10.483124 -47.730602 9.4943132 13
11.165749 7.0522232 1.1832727 10
10.931345 7.3507743 1.1803659 10
11.199548 -47.718216 7.7590909 12
11.192389 -47.694927 9.5187521 13
11.318094 -11.26384 -0.27000993 7
11.226224 -47.803547 0.85267472 8
11.473803 6.5741282 1.1848657 10
11.262275 6.8893452 1.1829075 10
11.215259 -47.763897 2.5669427 9
11.212784 -47.760372 4.2878528 10
11.207572 -47.745239 6.0175552 11
11.944405 -47.781361 0.85586715 8
11.937623 5.8521242 1.1910093 10
11.734743 6.1760821 1.1880498 10
11.938609 -47.76487 2.576545 9
11.927826 -47.728462 4.3005104 10
11.929232 -47.740807 6.0385394 11
11.919647 -47.709278 7.7852311 12
11.914077 -47.693874 9.5522547 13
12.344126 5.0927162 1.1959164 10
12.167691 5.43296 1.1936501 10
12.626715 -10.884271 -0.28030634 7
12.66685 -47.758202 0.85925144 8
12.52351 4.7513275 1.1994231 10
12.439018 4.9243922 1.1980598 10
12.723167 4.3121414 1.2027395 10
12.609239 4.5781727 1.2011263 10
12.662765 -47.749195 2.5858548 9
12.654914 -47.726021 4.3168168 10
12.649169 -47.710831 6.0576825 11
12.64327 -47.695099 7.8123102 12
12.635933 -47.674019 9.5841942 13
13.173364 3.1345649 1.2114764 10
13.085443 3.4123487 1.2100948 10
12.938482 3.7733443 1.20628 10
12.841267 4.0466051 1.2052015 10
13.395654 -47.740425 0.86294562 8
13.552804 1.8169942 1.2222233 10
13.474634 2.2011163 1.2207899 10
13.360857 2.5779066 1.2169319 10
13.28077 2.8598239 1.2152201 10
13.395317 -47.745365 2.5964208 9
13.382251 -47.704998 4.3324566 10
13.366035 -47.659679 7.8377147 12
13.877364 0.25854886 1.2389932 10
13.830908 0.55511284 1.2359793 10
13.764703 0.94820267 1.2323999 10
13.690825 1.3382342 1.2291101 10
13.608791 1.6263226 1.2248589 10
14.011195 -10.428509 -0.29200464 7
14.131838 -47.729439 0.86698073 8
14.117343 -47.692368 4.3498898 10
14.111068 -47.677155 6.1035538 11
14.100736 -47.648296 7.8689141 12
14.096054 -47.638565 9.655632 13
14.618997 9.2263842 -0.26920578 7
14.864171 -47.692741 2.616986 9
14.857059 -47.675659 4.3679996 10
14.849935 -47.658592 6.1284523 11
14.833642 -47.618027 9.6942177 13
15.453284 -9.8671703 -0.30474573 7
15.596129 -47.643784 6.1553278 11
15.585793 -47.617859 7.93575 12
15.576563 -47.595367 9.7347174 13
15.617743 -47.693089 0.87546074 8
15.61022 -47.675663 2.6287358 9
15.600293 -47.650909 4.3864403 10
16.371126 -47.67746 0.88009226 8
16.359554 -47.649147 2.6406238 9
16.353115 -47.635773 4.4068551 10
16.347502 -47.624847 6.1831975 11
16.33493 -47.593708 7.9705982 12
16.328575 -47.580708 9.779253 13
16.978279 -9.2021103 -0.31910616 7
17.13032 -47.658516 0.88489908 8
17.117945 -47.629318 2.6535544 9
17.10751 -47.610783 6.2132578 11
17.099566 -47.593987 8.0115528 12
17.082239 -47.551167 9.8231754 13
17.377289 9.2970982 -0.30715039 7
17.900457 -47.649246 0.89012808 8
17.887562 -47.620022 2.6677642 9
17.873444 -47.587536 4.4493852 10
17.870262 -47.58419 6.2432733 11
17.855852 -47.551018 8.047267 12
17.849401 -47.539062 9.8732004 13
18.604429 -8.4220562 -0.33548263 7
18.668341 -47.613693 0.89511299 8
18.661882 -47.602177 2.6822042 9
18.653912 -47.586807 4.4745765 10
18.648333 -47.577579 6.2775421 11
18.631205 -47.538952 8.090292 12
18.619461 -47.514095 9.9231176 13
19.45616 -47.608185 0.90091598 8
19.443129 -47.58115 2.6971886 9
19.43642 -47.56958 4.4994211 10
19.428232 -47.554428 6.3113027 11
19.414526 -47.525818 8.1352921 12
19.404234 -47.505608 9.9791145 13
20.275631 -7.4818339 -0.35297975 7
20.234138 -47.562881 2.7130713 9
20.230534 -47.559151 4.5261431 10
20.203083 -47.504242 8.1810493 12
20.193756 -47.487183 10.035728 13
20.567003 -28.16054 4.2951584 11
20.545778 -27.303465 4.2094865 11
20.517305 -26.469584 4.1263986 11
20.484282 -24.923876 5.1253905 12
20.786297 -24.566565 5.113184 12
20.572777 -28.17074 5.5389209 12
20.552258 -27.314289 5.4284453 12
20.525217 -26.48192 5.3214893 12
20.487825 -24.930199 6.2886529 13
20.772442 -24.552181 6.2682757 13
20.579363 -28.182079 6.7976384 13
20.564024 -27.332157 6.6635919 13
20.540949 -26.504366 6.533422 13
20.503546 -24.951353 7.4727912 14
20.560335 -27.329536 7.9112186 14
20.535236 -26.499197 7.7557912 14
20.589104 -28.197769 8.0757532 14
20.51314 -24.965094 8.6754847 15
20.572905 -27.348545 9.1861153 15
20.547733 -26.517536 9.0055065 15
20.601042 -28.216511 9.3769798 15
21.039341 9.384716 -0.35955495 7
21.019869 -47.516605 4.5510554 10
21.012785 -47.505268 6.3836026 11
21.838041 -47.513004 2.7463737 9
21.833498 -47.507675 4.5804725 10
21.824589 -47.492882 6.4240713 11
21.806 -47.457062 8.2786894 12
22.055815 -6.388195 -0.37290418 7
22.664978 -47.509647 2.7654703 9
22.645195 -47.472672 4.6087003 10
22.641123 -47.46862 6.4647894 11
22.624842 -47.439037 8.332015 12
23.497446 -47.494694 2.784729 9
23.482506 -47.468887 4.641325 10
23.480663 -47.469582 6.5108676 11
23.452393 -47.416908 8.3870745 12
23.913052 -5.1054916 -0.39490271 7
23.974474 -5.1192837 0.46074086 8
23.963051 -4.5815225 0.45919189 8
23.935066 -4.0453954 0.45751607 8
23.932455 -3.6934407 0.45683002 8
23.997187 -5.485075 1.3235056 9
23.993675 -5.1240721 1.3195868 9
23.969706 -4.5835371 1.3132608 9
23.958662 -4.0500207 1.308211 9
23.929153 -3.6935556 1.3040115 9
24.332947 -47.463333 2.8038757 9
24.317238 -47.437019 4.6726165 10
