# .PCD v0.7 - Point Cloud Data file format
VERSION 0.7
FIELDS x y z intensity
SIZE 4 4 4 4
TYPE F F F F
COUNT 1 1 1 1
WIDTH 189
HEIGHT 1
VIEWPOINT 0 0 0 1 0 0 0
POINTS 189
DATA ascii
-28.80723 9.4171038 0.52874833 8
-28.900631 12.291212 0.54765618 8
-28.837383 11.297837 1.6227733 9
-28.843908 12.26726 2.7418413 10
-28.807133 11.76609 3.8204238 11
-28.648935 3.7236583 0.50427008 8
-28.72336 6.28509 0.51315182 8
-28.650927 4.5641494 1.5204793 9
-28.75551 8.0471592 1.56479 9
-28.675159 5.8444109 2.560354 10
-28.766361 9.4038687 2.6476371 10
-28.61496 4.5584793 3.5578651 11
-28.712711 8.0352879 3.6609106 11
-28.668898 7.1419477 4.6795588 12
-28.770477 11.271859 4.8938355 12
-28.695818 8.9269342 5.8416095 13
-28.784925 12.242429 6.0799971 13
-28.653503 8.0188847 6.8694878 14
-28.759125 11.746727 7.1719174 14
-28.642685 8.4613256 8.0028257 15
-28.734684 11.736831 8.3168497 15
-28.483995 -2.0487735 0.49834555 8
-28.547108 0.41005382 0.49831638 8
-28.438183 -2.8683696 1.4977313 9
-28.572966 1.6432061 1.499931 9
-28.487103 -0.81847656 2.493238 10
-28.566029 2.0547848 2.505697 10
-28.450695 -0.81743431 3.4946477 11
-28.463327 8.3791514e-05 4.5081029 12
-28.588953 4.1342936 4.5752687 12
-28.40045 -1.6332637 5.5294046 13
-28.475719 0.81818724 5.5374184 13
-28.590567 4.9766855 5.641171 13
-28.454334 0.81757945 6.5719337 14
-28.543234 4.127739 6.6584649 14
-28.414326 0.40817365 7.6143708 15
-28.540646 4.5467653 7.744113 15
-28.375648 -3.274332 3.5068862 11
-28.377579 -2.8623044 4.5170569 12
-28.341463 -2.8586934 6.575954 14
-28.3297 -2.8575239 7.6290116 15
-28.081551 -14.912441 0.55326718 8
-28.139587 -12.444899 1.6110535 9
-28.044355 -14.38061 2.7553196 10
-28.083641 -12.905434 3.7930017 11
-28.045391 -13.378839 4.9193072 12
-28.015862 -13.861983 6.073379 13
-28.002388 -12.868394 8.2549162 15
-27.969301 -18.097519 0.57916057 8
-27.967905 -17.532379 1.7274736 9
-27.939476 -18.078423 2.9086652 10
-27.978935 -15.904238 3.9490614 11
-27.872738 -19.192345 4.1518683 11
-27.870089 -18.606642 5.3040819 12
-27.873793 -18.036224 6.4498959 13
-27.965445 -14.851289 7.3073034 14
-27.84915 -18.020384 7.6542635 14
-27.822901 -18.003504 8.8756294 15
-20.408865 -6.6709876 0.37417296 8
-20.458981 -4.7853999 0.36637297 8
-20.433554 -4.7794809 1.099322 9
-20.426666 -4.777895 1.8347967 10
-20.415091 -4.7752166 2.5736926 11
-20.430582 -4.7788649 3.3225193 12
-20.509655 -4.7974095 4.8619504 14
-20.544451 -4.8055735 5.6524811 15
-20.377789 -6.6608701 1.1228303 9
-20.351952 -6.652462 1.8724269 10
-20.358034 -6.6544876 2.628835 11
-20.329273 -6.6451273 3.3864017 12
-20.347281 -5.6938491 4.1060505 13
-20.328323 -6.6448903 4.9361873 14
-20.2981 -6.6350522 5.7205834 15
-12.738116 8.5115557 1.8805649 11
-12.727035 8.5042152 2.4238944 12
-12.375131 8.5287018 0.26167792 8
-12.363002 8.5204697 1.3130399 10
-12.351697 8.5128689 2.9154539 13
-12.345187 8.5084496 3.461031 14
-11.97831 8.5122528 3.9370294 15
-10.700892 8.5709314 0.71776885 9
-10.70365 8.5732641 1.6831414 11
-10.389872 8.5701971 2.6172864 13
-10.100642 8.5785713 2.0981469 12
-9.8136196 8.5808649 3.0088227 14
-9.8074684 8.5755606 3.4900393 15
-9.7381639 -25.478895 0.47037756 8
-9.3086491 8.6236181 0.22058737 8
-9.3149862 -25.461157 1.4146085 9
-9.3230343 -25.483276 2.36728 10
-9.3237696 -25.485394 3.324815 11
-9.3295593 -25.501335 4.2930694 12
-9.0382309 8.618041 1.0916711 10
-8.5480795 8.6334791 1.4907506 11
-8.5464087 8.6318598 1.9228848 12
-8.0963163 8.6616325 0.62032044 9
-7.8515244 8.6459942 2.2689905 13
-7.8459439 8.6399298 2.6931973 14
-7.8457813 8.639823 3.1258733 15
-7.6503177 8.6713982 0.20076193 8
-7.2172275 8.6711731 1.7855546 12
-7.2945104 -25.463657 5.1401176 13
-7.2870264 -25.437595 6.0997758 14
-7.2973347 -25.473705 7.0904236 15
-6.811739 8.6798935 1.3534155 11
-6.6235881 8.6945591 0.57155299 9
-6.429193 8.6959276 0.18752556 8
-6.0544214 8.7020683 1.6774305 12
-5.8689833 8.6998348 2.0381439 13
-5.7294517 -25.427738 0.44873169 8
-5.7129564 -25.354473 1.3553817 9
-5.6981621 8.7141266 1.2767841 11
-5.7166142 -25.370787 2.2680991 10
-5.7151423 -25.3643 3.1847017 11
-5.7211566 -25.391085 4.1141114 12
-5.5244393 8.7195482 0.90151519 10
-5.3458633 8.712718 2.736783 15
-5.0122128 8.7218733 2.3201978 14
-4.4701295 -48.281219 0.83390069 8
-4.4700265 -48.27977 2.5281043 9
-4.4724298 -48.305458 4.2307663 10
-4.4739342 -48.321415 5.9444427 11
-4.4753094 -48.335972 7.6737485 12
-3.8135841 8.855876 0.16659486 8
-3.8079028 8.842823 0.50268924 9
-3.7940457 8.8108492 0.83721632 10
-3.7883465 8.7977533 1.1738697 11
-3.7847548 8.7895336 1.5132577 12
-3.7798581 8.7782955 1.8551478 13
-3.7770483 8.7718897 2.2020588 14
-3.7787204 8.7758541 2.5571377 15
0.29868451 1.8500576 -0.23402296 4
0.29879972 1.8506907 -0.099170558 6
0.30059278 1.860764 0.10245342 9
0.2998794 1.8567247 0.30665511 12
0.31264868 1.8494769 0.48026919 14.5
1.3154083 1.9099497 -0.2890943 4
1.6401124 -25.098951 1.3106384 9
1.6417186 -25.12417 2.1947334 10
1.6416186 -25.123507 3.0828228 11
1.6420848 -25.131435 3.9798591 12
2.0009212 -25.084213 0.43211299 8
2.1990764 1.9245067 0.68652487 14
2.0033972 -25.118797 4.8884773 13
2.2858782 1.9430834 -0.26491472 5
2.2833664 1.940852 -0.10479236 6.5
2.2478106 1.9385545 0.10721485 8.5
2.2845368 1.9416091 0.32142541 10.5
2.2743781 1.9328278 0.53570557 12.5
2.2689667 1.9280602 0.81132382 15
2.3670416 -25.125916 5.8162408 14
2.3680034 -25.13678 6.7543864 15
4.1823211 -25.013695 0.43532702 8
4.1843915 -25.026543 1.3220046 9
4.1851301 -25.031454 2.2121243 10
4.185668 -25.035175 3.1078827 11
4.1881046 -25.050211 4.0134153 12
4.3371825 1.478387 1.2387917 15
4.3300371 1.9096787 1.2799897 15
4.5571575 -3.8839519 0.9473213 12
4.5067992 -2.6678045 1.2098563 14
4.5206122 -2.5894136 1.3970972 15
4.5525088 0.049876358 1.2272902 15
4.6188297 -4.6743512 0.80520344 11
4.6338401 -3.0174117 1.0749571 13
5.3262563 -6.7816429 0.44947892 9
5.2676792 -4.3553843 0.83803308 11
5.4852891 -5.3876791 0.67082846 10
5.4113641 -3.3014994 1.0039563 12
7.3968964 0.097668566 1.176435 12
9.2833033 0.12936382 1.1439807 11
12.392898 0.18161248 1.0877426 10
13.010327 -47.670464 0.84820276 8
13.747601 -47.66861 2.5852249 9
13.755053 -47.696102 6.0792804 11
14.494518 -47.680222 7.8767419 12
16.729927 -47.569763 4.3962641 10
18.266228 -47.533859 6.2365613 11
19.814705 -47.447601 2.6795461 9
20.504082 -25.990545 7.6330056 14
20.628273 -47.470554 8.1812811 12
21.405165 -47.382687 0.89259511 8
21.418776 -47.414436 4.5361805 10
23.608839 -5.133678 0.42130816 8
23.628271 -5.1383119 1.2674606 9
45.215061 17.069393 0.8584702 8
45.227936 17.073315 2.5497572 9
48.792412 12.254709 0.89004296 8
49.265572 11.623073 2.6655095 9
