# .PCD v0.7 - Point Cloud Data file format
VERSION 0.7
FIELDS x y z intensity
SIZE 4 4 4 4
TYPE F F F F
COUNT 1 1 1 1
WIDTH 1333
HEIGHT 1
VIEWPOINT 0 0 0 1 0 0 0
POINTS 1333
DATA ascii
-1.9634703 -2.6345971 -0.30742174 0
-1.8591082 -2.6494837 -0.30772793 0
-1.757 -2.6630003 -0.30861118 0
-1.6342114 -2.6382694 -0.30989501 0
-1.5375034 -2.6484349 -0.31021434 0
-1.440032 -2.6525648 -0.31129488 0
-1.3447328 -2.6556206 -0.31167337 0
-1.2475325 -2.649349 -0.31235623 0
-1.1540489 -2.6445057 -0.31346685 0
-1.063845 -2.6417694 -0.31442443 0
-0.95809054 -2.6478853 -0.31618637 0
-0.84703487 -2.6326458 -0.31610787 0
-0.75367761 -2.6658018 -0.31660002 0
-0.6665116 -2.6444349 -0.31732395 0
-0.5622521 -2.6236398 -0.3177385 0
-0.4515661 -2.6600716 -0.31964144 0
-0.35670334 -2.6783636 -0.32007521 0
-0.2547442 -2.6283252 -0.32133314 0
-0.14070474 -2.6204085 -0.32223517 0
-0.047105491 -2.6330285 -0.32335478 0
0.037812844 -2.6409273 -0.32432067 0
0.16028419 -2.632108 -0.3238025 0
0.26187846 -2.6365964 -0.32538769 0
0.34995151 -2.6284654 -0.32560456 0
0.43915257 -2.6249464 -0.32732013 0
0.5387435 -2.604764 -0.32659352 0
-2.3585894 -2.5428386 -0.30535507 0
-2.2647848 -2.5493467 -0.30564469 0
-2.1539578 -2.54408 -0.30566275 0
-2.0534401 -2.5588741 -0.30654848 0
-1.9447781 -2.5329053 -0.30828229 0
-1.850912 -2.5591073 -0.30895194 0
-1.7438587 -2.5624835 -0.30916852 0
-1.6409448 -2.5261807 -0.31036732 0
-1.5497069 -2.5557725 -0.31139672 0
-1.4533387 -2.5452929 -0.31225049 0
-1.3578038 -2.5588627 -0.31210682 0
-1.2452114 -2.5489471 -0.31278813 0
-1.1561491 -2.549159 -0.31412473 0
-1.0643622 -2.5375142 -0.31448662 0
-0.96108717 -2.5606623 -0.31616798 0
-0.85649824 -2.5366709 -0.31695411 0
-0.74731237 -2.57288 -0.31723171 0
-0.63325632 -2.5124884 -0.31815028 0
-0.54325539 -2.5349929 -0.31834632 0
-0.43881255 -2.5575171 -0.32020125 0
-0.34909943 -2.5619226 -0.32074383 0
-0.24671943 -2.5456543 -0.32189512 0
-0.13751888 -2.5604606 -0.32240266 0
-0.045863368 -2.5644047 -0.32356855 0
0.045852881 -2.5645533 -0.32440183 0
0.15592913 -2.5620911 -0.3239868 0
0.24818993 -2.5616798 -0.32542038 0
0.34110889 -2.5611393 -0.32587799 0
0.46241707 -2.5558357 -0.32586148 0
0.56444907 -2.545059 -0.32687721 0
0.65276992 -2.5595269 -0.32779467 0
0.74340904 -2.5599604 -0.32978332 0
0.83310837 -2.5579269 -0.33043322 0
0.96435869 -2.5237927 -0.33268163 0
1.0307682 -2.5074992 -0.3332352 0
-2.4504972 -2.4453213 -0.30359158 0
-2.3454466 -2.4452884 -0.30510211 0
-2.2321713 -2.4413505 -0.30684283 0
-2.1574149 -2.4637761 -0.30669308 0
-2.0454872 -2.4396925 -0.30706012 0
-1.9270757 -2.436862 -0.30919617 0
-1.8476387 -2.4543281 -0.30958125 0
-1.7505662 -2.4571333 -0.3102262 0
-1.6465143 -2.4442084 -0.31046534 0
-1.5524795 -2.4664674 -0.31078246 0
-1.4448903 -2.4482927 -0.31303844 0
-1.3488164 -2.442585 -0.31303045 0
-1.240981 -2.450598 -0.31355008 0
-1.134889 -2.439805 -0.31459615 0
-1.0463722 -2.4453757 -0.31489956 0
-0.95547414 -2.4476438 -0.3167381 0
-0.85438746 -2.4295237 -0.31775233 0
-0.75325549 -2.4614339 -0.31803495 0
-0.65641719 -2.4691868 -0.3177225 0
-0.53777617 -2.4518716 -0.31905428 0
-0.46069959 -2.4464042 -0.31992489 0
-0.34310672 -2.4424067 -0.32129854 0
-0.23850866 -2.4609308 -0.32228133 0
-0.15049434 -2.4704525 -0.3222903 0
-0.070273153 -2.4611592 -0.32408887 0
0.044322342 -2.4790852 -0.32450792 0
0.14104518 -2.4589841 -0.32451147 0
0.24728477 -2.4580402 -0.32612789 0
0.36497959 -2.4703655 -0.32650819 0
0.45368749 -2.4583888 -0.32587808 0
0.54234904 -2.4454992 -0.3274436 0
0.64915818 -2.4285367 -0.32889944 0
0.75118053 -2.4427247 -0.33069676 0
0.85439205 -2.4721396 -0.33089247 0
0.96043378 -2.4349902 -0.33283868 0
1.0731734 -2.4752412 -0.3323091 0
1.1477826 -2.4647446 -0.3341673 0
1.2456782 -2.4167383 -0.33408055 0
-2.5421731 -2.3411195 -0.30324426 0
-2.4207582 -2.3273139 -0.30449712 0
-2.3404717 -2.3488705 -0.30460113 0
-2.2570419 -2.3645899 -0.30627763 0
-2.1452181 -2.3462675 -0.30759588 0
-2.0384479 -2.3279161 -0.30837378 0
-1.9563289 -2.3563321 -0.30812427 0
-1.8670012 -2.3609359 -0.30950487 0
-1.7477589 -2.3451695 -0.31112102 0
-1.6564537 -2.3370619 -0.31170002 0
-1.557929 -2.3612862 -0.31173742 0
-1.4536464 -2.3467474 -0.3124221 0
-1.3415623 -2.3488836 -0.31424946 0
-1.2333478 -2.3516855 -0.31417456 0
-1.1625406 -2.3797286 -0.31346241 0
-1.0534029 -2.3335912 -0.31565356 0
-0.96387726 -2.3652081 -0.31616193 0
-0.84785789 -2.3433139 -0.31851333 0
-0.75329715 -2.3413904 -0.31853786 0
-0.65035653 -2.365052 -0.31892684 0
-0.56389117 -2.3805773 -0.31844378 0
-0.46550837 -2.3352597 -0.32062283 0
-0.36550725 -2.3568687 -0.32199791 0
-0.25374705 -2.3538613 -0.32297987 0
-0.16080697 -2.3620121 -0.32274312 0
-0.051875729 -2.3440852 -0.32441014 0
0.042026535 -2.3508832 -0.32466695 0
0.14332277 -2.3496857 -0.32475811 0
0.2532253 -2.3486102 -0.32649037 0
0.34120288 -2.3549607 -0.32690126 0
0.45635232 -2.3769686 -0.32710341 0
0.55747575 -2.3531513 -0.32789865 0
0.66176063 -2.3406808 -0.3298789 0
0.76404792 -2.3174899 -0.33118272 0
0.86130404 -2.3808694 -0.33132473 0
0.95998383 -2.3352594 -0.33265334 0
1.046086 -2.3515606 -0.33318147 0
1.1515287 -2.3575113 -0.33371237 0
1.2498769 -2.3427308 -0.33448291 0
1.3484132 -2.3615973 -0.33442539 0
1.4380167 -2.3212967 -0.3364093 0
-2.6303332 -2.2430775 -0.30293509 0
-2.5511627 -2.249774 -0.30385792 0
-2.4636188 -2.2687874 -0.30465281 0
-2.3695447 -2.2457294 -0.30540231 0
-2.2429709 -2.2510073 -0.30646923 0
-2.1323228 -2.2339292 -0.30787331 0
-2.0489228 -2.2409296 -0.30855501 0
-1.9540138 -2.2420433 -0.30947867 0
-1.8419358 -2.2620075 -0.31014633 0
-1.7410448 -2.2342567 -0.31176269 0
-1.6528926 -2.2507367 -0.31288636 0
-1.5405668 -2.2637599 -0.31242371 0
-1.4440701 -2.2230966 -0.31360018 0
-1.349357 -2.2496784 -0.3149803 0
-1.2470415 -2.2298539 -0.31496936 0
-1.153581 -2.278038 -0.31521186 0
-1.0397495 -2.2353132 -0.31622669 0
-0.94659585 -2.2565544 -0.31676027 0
-0.84865153 -2.2450793 -0.31805632 0
-0.75924897 -2.2488 -0.31944549 0
-0.66148502 -2.2772121 -0.31943062 0
-0.55135703 -2.2554111 -0.31933102 0
-0.44894636 -2.2521982 -0.32134438 0
-0.35248217 -2.272877 -0.32248023 0
-0.25177315 -2.2579525 -0.32296595 0
-0.15271169 -2.2432714 -0.32285148 0
-0.055785608 -2.2257264 -0.32496223 0
0.039730731 -2.222681 -0.324826 0
0.14449629 -2.2387953 -0.3245523 0
0.24584189 -2.2367485 -0.32635847 0
0.36215413 -2.2298198 -0.32718405 0
0.44055694 -2.2605324 -0.32815108 0
0.53777891 -2.2699912 -0.32814845 0
0.63850749 -2.2584331 -0.33019206 0
0.73726344 -2.2362387 -0.3314645 0
0.84665698 -2.2590992 -0.33256611 0
0.96062922 -2.2450805 -0.33260188 0
1.064743 -2.2468283 -0.33454254 0
1.1434433 -2.2582603 -0.33295387 0
1.2329901 -2.232975 -0.33526003 0
1.3370994 -2.2657535 -0.33443585 0
1.4514506 -2.2517762 -0.33628869 0
1.5558048 -2.2512834 -0.33731663 0
1.6216162 -2.2086082 -0.33709395 0
-2.726877 -2.1406455 -0.30462196 0
-2.6719384 -2.1918125 -0.30357993 0
-2.5605707 -2.1624746 -0.30423519 0
-2.4639544 -2.1421301 -0.30496916 0
-2.3365762 -2.1517558 -0.30608752 0
-2.2256775 -2.1397619 -0.30721197 0
-2.1496301 -2.1573439 -0.30759239 0
-2.069963 -2.1685991 -0.30867118 0
-1.9622494 -2.1461523 -0.30977729 0
-1.8441759 -2.1366997 -0.31076613 0
-1.7375612 -2.1544688 -0.31176919 0
-1.6398211 -2.1572258 -0.31280124 0
-1.5556656 -2.1508787 -0.3139545 0
-1.4360487 -2.1362245 -0.31369406 0
-1.3539368 -2.151067 -0.31351283 0
-1.2657253 -2.1562836 -0.31615973 0
-1.1498222 -2.1546843 -0.31628129 0
-1.0437652 -2.1365175 -0.31641778 0
-0.94540578 -2.1664784 -0.31760988 0
-0.85775143 -2.1298063 -0.31817925 0
-0.74579406 -2.1582217 -0.31964308 0
-0.64165318 -2.1523941 -0.32057738 0
-0.55215818 -2.1264756 -0.32011056 0
-0.44656432 -2.1600695 -0.32134235 0
-0.34819576 -2.1455362 -0.32331836 0
-0.25393805 -2.1412113 -0.32310298 0
-0.14475323 -2.1263177 -0.32367077 0
-0.053652223 -2.1405308 -0.32530966 0
0.038200196 -2.137213 -0.32493204 0
0.14566523 -2.1393251 -0.32585198 0
0.25323626 -2.1336429 -0.32664281 0
0.34534493 -2.1263757 -0.32745373 0
0.45948821 -2.1290028 -0.32837665 0
0.54945982 -2.1544185 -0.32988569 0
0.64611834 -2.1664019 -0.33067051 0
0.74268693 -2.1489427 -0.33233389 0
0.85251868 -2.1429429 -0.33285207 0
0.95960897 -2.1563644 -0.33309674 0
1.0580376 -2.1524417 -0.33416235 0
1.1472712 -2.1496532 -0.33481687 0
1.2598186 -2.1347961 -0.33444017 0
1.3563617 -2.1550126 -0.33592835 0
1.4468445 -2.137145 -0.33687711 0
1.5490111 -2.1416965 -0.33732539 0
1.6716187 -2.1770625 -0.33843598 0
1.7484936 -2.128262 -0.33921838 0
-2.7739444 -2.0520043 -0.30300492 0
-2.6550624 -2.0538275 -0.30501679 0
-2.5569484 -2.0369174 -0.30606589 0
-2.4384186 -2.0296221 -0.30585331 0
-2.3398411 -2.0537193 -0.30666709 0
-2.2512059 -2.043956 -0.30754405 0
-2.1730442 -2.0595031 -0.30796221 0
-2.0519211 -2.0592709 -0.30911821 0
-1.9452438 -2.0379384 -0.31026685 0
-1.8487396 -2.0413065 -0.31075203 0
-1.7559618 -2.054445 -0.31191897 0
-1.6710567 -2.0521693 -0.31295517 0
-1.542686 -2.0426733 -0.31486309 0
-1.4556247 -2.07443 -0.31459332 0
-1.3477905 -2.0427389 -0.31480768 0
-1.2479576 -2.0471702 -0.31599542 0
-1.1546942 -2.0562217 -0.31683242 0
-1.0599904 -2.0443566 -0.31778237 0
-0.95401013 -2.0642042 -0.31778109 0
-0.84853595 -2.0227621 -0.31910792 0
-0.73872298 -2.0513701 -0.32026571 0
-0.64971155 -2.0194604 -0.32180977 0
-0.54546958 -2.0405602 -0.32066613 0
-0.44322014 -2.0687268 -0.32116234 0
-0.35682014 -2.0143108 -0.32404336 0
-0.25489441 -2.0246179 -0.32322091 0
-0.15387349 -2.0433431 -0.32459119 0
-0.051518839 -2.055335 -0.3256571 0
0.051083524 -2.0377359 -0.32576302 0
0.15444812 -2.0505724 -0.32572052 0
0.24316645 -2.0487335 -0.32678697 0
0.34665146 -2.0416522 -0.32803553 0
0.44991577 -2.0288174 -0.3291617 0
0.5579946 -2.0224771 -0.33082727 0
0.65661901 -2.0515304 -0.33289236 0
0.75800604 -2.0496738 -0.33242318 0
0.86028737 -2.0370569 -0.33214122 0
0.94914448 -2.053405 -0.33444029 0
1.0528166 -2.0426235 -0.33343673 0
1.1450046 -2.0501156 -0.33533743 0
1.2352511 -2.0261867 -0.33520254 0
1.3404598 -2.0636079 -0.33607173 0
1.4396673 -2.0411303 -0.33706954 0
1.545211 -2.0425737 -0.33782792 0
1.6472852 -2.052644 -0.33881587 0
1.7543787 -2.0426888 -0.33971325 0
1.8491502 -2.0516803 -0.34063959 0
1.9100084 -2.0009832 -0.33965066 0
-2.8452475 -1.9511561 -0.30299532 0
-2.7196779 -1.9523183 -0.30369627 0
-2.6194992 -1.9377389 -0.3047756 0
-2.5232687 -1.9231387 -0.3062236 0
-2.4548726 -1.955652 -0.30794358 0
-2.369082 -1.97191 -0.30673349 0
-2.2706161 -1.9456067 -0.30749902 0
-2.1498561 -1.951625 -0.30872279 0
-2.0420439 -1.935352 -0.30966881 0
-1.9564328 -1.9450274 -0.31067628 0
-1.8582263 -1.9558849 -0.31145009 0
-1.764466 -1.9578372 -0.3118276 0
-1.6493069 -1.9388043 -0.31343102 0
-1.5504553 -1.9605653 -0.31489375 0
-1.4558063 -1.9533982 -0.31575 0
-1.3602548 -1.9385109 -0.31573504 0
-1.256813 -1.9447933 -0.31581163 0
-1.1547847 -1.9568169 -0.31753725 0
-1.0544111 -1.9422989 -0.31808937 0
-0.94596374 -1.9720087 -0.31829587 0
-0.84404391 -1.9342157 -0.32006982 0
-0.75727302 -1.9608363 -0.31909743 0
-0.65092856 -1.9279867 -0.32231888 0
-0.55309719 -1.9419506 -0.32197309 0
-0.45430177 -1.9559124 -0.32106894 0
-0.34653047 -1.9557676 -0.32413468 0
-0.24493952 -1.9449762 -0.32430121 0
-0.1413355 -1.9560496 -0.32492203 0
-0.048948359 -1.9541792 -0.32579672 0
0.048208181 -1.9244788 -0.32661614 0
0.14737019 -1.9573065 -0.32626429 0
0.2463534 -1.9566723 -0.32792231 0
0.35631886 -1.9474669 -0.32874179 0
0.45135269 -1.9681821 -0.32973585 0
0.55021423 -1.9463917 -0.33117291 0
0.65247089 -1.9557471 -0.33202201 0
0.73949701 -1.9565852 -0.33304793 0
0.84648365 -1.9351953 -0.33309007 0
0.9505747 -1.9382938 -0.33378488 0
1.0670365 -1.9324255 -0.33589518 0
1.1625714 -1.970028 -0.33489919 0
1.257462 -1.9358294 -0.33544341 0
1.3537525 -1.9588982 -0.33667353 0
1.4565903 -1.9639512 -0.33728495 0
1.5534521 -1.9357067 -0.33890381 0
1.6695036 -1.9624976 -0.33986306 0
1.7528563 -1.9448745 -0.34083247 0
1.8557127 -1.9440176 -0.34041923 0
1.9686747 -1.9588187 -0.34297064 0
2.0313864 -1.9251685 -0.34364724 0
-2.9294107 -1.8488013 -0.30364594 0
-2.8583002 -1.8421862 -0.30535144 0
-2.7588036 -1.8536091 -0.30470279 0
-2.6683774 -1.8581825 -0.30428308 0
-2.5730913 -1.8470933 -0.30540219 0
-2.4644945 -1.8505944 -0.30691212 0
-2.3451207 -1.8681666 -0.30856869 0
-2.2463677 -1.8426493 -0.30899701 0
-2.123678 -1.8463098 -0.30956686 0
-2.0367541 -1.8225043 -0.31135201 0
-1.963962 -1.8434337 -0.31082001 0
-1.8608714 -1.8675345 -0.31176719 0
-1.7533375 -1.8368067 -0.31261557 0
-1.6635193 -1.8544565 -0.31341875 0
-1.565096 -1.8667094 -0.31461468 0
-1.4457518 -1.8553445 -0.3160921 0
-1.3436596 -1.8300246 -0.31743652 0
-1.258872 -1.8497603 -0.31603211 0
-1.1486108 -1.8545383 -0.31747144 0
-1.0431576 -1.8269083 -0.31914714 0
-0.93578184 -1.8480209 -0.31959549 0
-0.84904212 -1.8368717 -0.31987256 0
-0.75445455 -1.8581082 -0.32059932 0
-0.65414864 -1.8596561 -0.32139498 0
-0.54469782 -1.8263741 -0.32306448 0
-0.45166764 -1.8478798 -0.32187101 0
-0.34657207 -1.851977 -0.32453987 0
-0.24543698 -1.8403926 -0.32525837 0
-0.15903276 -1.8455423 -0.32540989 0
-0.05916056 -1.8360922 -0.32591075 0
0.04623846 -1.8459707 -0.32722539 0
0.15191448 -1.8409767 -0.32722297 0
0.25740331 -1.8329451 -0.3285169 0
0.34448406 -1.8528681 -0.3290689 0
0.44452152 -1.8433273 -0.33027527 0
0.54182214 -1.8656119 -0.33117026 0
0.65188533 -1.8433336 -0.33358148 0
0.75023258 -1.84014 -0.332537 0
0.84333903 -1.859314 -0.33366129 0
0.94383872 -1.8500855 -0.33350608 0
1.0383966 -1.8458492 -0.33558905 0
1.1395063 -1.8490628 -0.3350271 0
1.2428455 -1.8261914 -0.33638406 0
1.3471115 -1.8625455 -0.33699518 0
1.456239 -1.8687333 -0.33802438 0
1.5578748 -1.8312716 -0.3398746 0
1.6542592 -1.8621116 -0.34018549 0
1.7651132 -1.8759013 -0.34013343 0
1.8443466 -1.8246088 -0.34290305 0
1.9456561 -1.8438863 -0.34355083 0
2.062149 -1.8611552 -0.34346983 0
2.115458 -1.8126686 -0.34301025 0
-3.007133 -1.7028625 -0.30284846 0
-2.9667592 -1.7651365 -0.30339813 0
-2.8559144 -1.7550685 -0.30389458 0
-2.7571073 -1.7491658 -0.30572724 0
-2.6407795 -1.7559065 -0.30627975 0
-2.5378144 -1.7403154 -0.30640948 0
-2.4265046 -1.7418685 -0.3071081 0
-2.3366337 -1.7545723 -0.30819777 0
-2.2190692 -1.7420019 -0.31062454 0
-2.1381197 -1.7370578 -0.31046662 0
-2.0650568 -1.7694664 -0.31005359 0
-1.9377868 -1.7339474 -0.31212768 0
-1.8441666 -1.7415981 -0.3122595 0
-1.7608036 -1.7501837 -0.31346297 0
-1.6527793 -1.7565212 -0.31403333 0
-1.5483618 -1.7682197 -0.31513849 0
-1.4444771 -1.7481205 -0.31661892 0
-1.3410863 -1.7466841 -0.31721064 0
-1.2397859 -1.7401868 -0.31754729 0
-1.139835 -1.7548769 -0.31739557 0
-1.0387312 -1.7317495 -0.31986064 0
-0.9586941 -1.7541149 -0.32004404 0
-0.84737527 -1.7468649 -0.3201932 0
-0.74815333 -1.7484022 -0.32176086 0
-0.64872265 -1.7384583 -0.32210833 0
-0.54781473 -1.745384 -0.3239117 0
-0.44560421 -1.7681725 -0.32262719 0
-0.36015382 -1.7414409 -0.32456753 0
-0.26113644 -1.750152 -0.32521728 0
-0.15685035 -1.7490894 -0.32574025 0
-0.056624297 -1.757268 -0.32618889 0
0.044268742 -1.7674626 -0.32783467 0
0.14546989 -1.7628167 -0.32792091 0
0.24641825 -1.7547474 -0.32882214 0
0.34786206 -1.7444284 -0.33011931 0
0.44817463 -1.7259207 -0.33102182 0
0.54705364 -1.7433693 -0.33205968 0
0.64960551 -1.7567056 -0.33296603 0
0.7614131 -1.7377977 -0.33404762 0
0.85281289 -1.7519261 -0.33472365 0
0.95447212 -1.7480192 -0.33569384 0
1.0523492 -1.7542274 -0.33535278 0
1.1463814 -1.7580954 -0.33511496 0
1.2412692 -1.7422819 -0.33691075 0
1.350372 -1.758702 -0.33764616 0
1.4459728 -1.7503299 -0.33921978 0
1.5273751 -1.7442784 -0.34000313 0
1.6498162 -1.7532026 -0.34055752 0
1.7514206 -1.782937 -0.34151426 0
1.8443313 -1.7394348 -0.34310484 0
1.932969 -1.7296789 -0.34311655 0
2.0364239 -1.7449244 -0.34351206 0
2.1608627 -1.7571733 -0.34560615 0
2.2294447 -1.7245617 -0.3460896 0
-3.0370085 -1.6346958 -0.30220652 0
-2.9316044 -1.6325381 -0.30376697 0
-2.8481534 -1.6490372 -0.30514687 0
-2.749655 -1.6627493 -0.30496716 0
-2.6551337 -1.6579456 -0.30641276 0
-2.5543869 -1.646313 -0.30819017 0
-2.4591773 -1.6523024 -0.30811182 0
-2.3720775 -1.6518505 -0.30743715 0
-2.267168 -1.6521708 -0.30873823 0
-2.1758235 -1.6338358 -0.31027117 0
-2.0497158 -1.6569263 -0.31171888 0
-1.9362218 -1.6351898 -0.31189737 0
-1.8556839 -1.6444496 -0.31325182 0
-1.7490642 -1.6575645 -0.31383532 0
-1.6532472 -1.6592401 -0.31448367 0
-1.5511363 -1.6485649 -0.31578076 0
-1.4502693 -1.6325383 -0.31720042 0
-1.3504921 -1.6485676 -0.31769404 0
-1.2358735 -1.6457155 -0.31893408 0
-1.144666 -1.6373914 -0.31827539 0
-1.0648135 -1.6650717 -0.31820229 0
-0.93887442 -1.6441994 -0.32074293 0
-0.83714986 -1.6527904 -0.32108882 0
-0.74008822 -1.663561 -0.32212555 0
-0.65686679 -1.6309661 -0.32309413 0
-0.54846072 -1.6637465 -0.32473448 0
-0.45332208 -1.6338648 -0.32434854 0
-0.35039151 -1.6352466 -0.32514098 0
-0.24323456 -1.6469221 -0.32649255 0
-0.14864413 -1.6578134 -0.32621002 0
-0.053645238 -1.6652678 -0.32658753 0
0.04641699 -1.6719508 -0.32848507 0
0.14546706 -1.6675166 -0.32874712 0
0.24897167 -1.6619186 -0.32925692 0
0.35265568 -1.6454974 -0.33033004 0
0.44809222 -1.6387345 -0.33172473 0
0.54812866 -1.6232874 -0.33308005 0
0.63335013 -1.6512361 -0.33344257 0
0.7452879 -1.6431633 -0.33495104 0
0.84570247 -1.6407536 -0.33520389 0
0.95051479 -1.6427729 -0.33514667 0
1.0422089 -1.655836 -0.33572474 0
1.1573976 -1.6493756 -0.33685708 0
1.258215 -1.6632286 -0.33710998 0
1.3524761 -1.6558911 -0.33889174 0
1.4492583 -1.6429396 -0.34020266 0
1.561936 -1.6458709 -0.3403551 0
1.6602641 -1.6424969 -0.34270826 0
1.7574487 -1.6655132 -0.3430081 0
1.8685849 -1.6720686 -0.34297681 0
1.9525582 -1.6490681 -0.34364325 0
2.0465982 -1.6385587 -0.34502339 0
2.1239977 -1.6428821 -0.34540844 0
2.2486143 -1.653343 -0.34610969 0
2.3228943 -1.6175765 -0.34755552 0
-3.1077642 -1.5320126 -0.3031356 0
-3.0815756 -1.5558457 -0.30315086 0
-2.977942 -1.5483599 -0.30348858 0
-2.8743024 -1.5470839 -0.30426407 0
-2.7601566 -1.5629822 -0.30588132 0
-2.6590607 -1.5563661 -0.30672869 0
-2.5577705 -1.5467693 -0.30751836 0
-2.4521532 -1.5556929 -0.30897903 0
-2.3400142 -1.5559143 -0.3094306 0
-2.2401152 -1.5361552 -0.30971661 0
-2.1333311 -1.5314188 -0.31051993 0
-2.0304306 -1.5398182 -0.31154287 0
-1.9648161 -1.5652269 -0.31335351 0
-1.8496842 -1.5621018 -0.31287557 0
-1.7548959 -1.5479457 -0.31400087 0
-1.6512468 -1.5426191 -0.31535426 0
-1.546356 -1.5298425 -0.3162218 0
-1.4508631 -1.5419372 -0.31747189 0
-1.3471661 -1.5384873 -0.31913033 0
-1.2547915 -1.5574594 -0.31881276 0
-1.149029 -1.5507368 -0.31930298 0
-1.0612563 -1.5594682 -0.31861174 0
-0.96122676 -1.551723 -0.32059509 0
-0.85663158 -1.5518442 -0.32117593 0
-0.76176918 -1.5596068 -0.3216899 0
-0.64084679 -1.5327973 -0.32425192 0
-0.54772824 -1.5610648 -0.32461169 0
-0.44723868 -1.5532001 -0.32481721 0
-0.35020134 -1.5503975 -0.32536131 0
-0.25886407 -1.5505536 -0.32594526 0
-0.14666502 -1.5510354 -0.32802391 0
-0.043578506 -1.5541884 -0.32786733 0
0.049880996 -1.5472445 -0.32952753 0
0.15130076 -1.5604913 -0.32875317 0
0.25276074 -1.55585 -0.32976323 0
0.35407865 -1.5430419 -0.33144286 0
0.45840394 -1.5471817 -0.33210304 0
0.54711902 -1.5471501 -0.33386973 0
0.65829611 -1.5691862 -0.33425215 0
0.74841011 -1.5429265 -0.33550996 0
0.84300631 -1.5349394 -0.33534661 0
0.95360708 -1.5393903 -0.33624548 0
1.0408826 -1.5532674 -0.33610046 0
1.1492374 -1.5556135 -0.33793131 0
1.2553726 -1.5462282 -0.33821955 0
1.3477254 -1.5615021 -0.33953869 0
1.4494228 -1.5676411 -0.33961451 0
1.5391833 -1.5275362 -0.34237051 0
1.6445948 -1.5364304 -0.34291649 0
1.7411722 -1.5579003 -0.34292066 0
1.8498775 -1.5622988 -0.34317833 0
1.9602423 -1.5615915 -0.34435388 0
2.0505238 -1.5472428 -0.34444121 0
2.1480589 -1.5576471 -0.34563065 0
2.2453082 -1.5478891 -0.3472698 0
2.3487546 -1.5471861 -0.34768867 0
-3.1316886 -1.4611094 -0.30347675 0
-3.0195484 -1.4617856 -0.30455261 0
-2.9191892 -1.4650984 -0.30508161 0
-2.8287976 -1.4451814 -0.30570921 0
-2.7259617 -1.4421839 -0.30644998 0
-2.6277552 -1.4387676 -0.30751339 0
-2.5322347 -1.4339397 -0.30899486 0
-2.4500585 -1.4577498 -0.30854446 0
-2.3411186 -1.4465832 -0.30996335 0
-2.2504737 -1.4504397 -0.31102896 0
-2.1502233 -1.4410439 -0.31187266 0
-2.0614572 -1.4576483 -0.31111616 0
-1.9537205 -1.4452025 -0.31301725 0
-1.8422084 -1.4461709 -0.31425771 0
-1.7438928 -1.4304657 -0.31494951 0
-1.639431 -1.4562424 -0.31539732 0
-1.5329186 -1.4320893 -0.31785131 0
-1.4499961 -1.4446383 -0.31715983 0
-1.3604426 -1.4540532 -0.31873548 0
-1.2465965 -1.4443412 -0.3198314 0
-1.1582179 -1.4561245 -0.32041076 0
-1.0577615 -1.4625304 -0.31959563 0
-0.95395356 -1.4458611 -0.32081133 0
-0.8546415 -1.4349146 -0.32293096 0
-0.74976158 -1.4636596 -0.3220554 0
-0.65266132 -1.4389963 -0.32422537 0
-0.54887164 -1.4520813 -0.32467562 0
-0.45907891 -1.4429864 -0.32537401 0
-0.35286397 -1.4436696 -0.32597581 0
-0.24857815 -1.4645609 -0.32615891 0
-0.1542213 -1.4329122 -0.32856587 0
-0.053720586 -1.4387275 -0.32885653 0
0.047945406 -1.4385213 -0.32995829 0
0.14993763 -1.4389759 -0.32851651 0
0.24629085 -1.4330102 -0.33085683 0
0.34506649 -1.4383959 -0.33317932 0
0.455134 -1.4500808 -0.33365566 0
0.5542776 -1.4352044 -0.3328909 0
0.64907753 -1.4586747 -0.33512405 0
0.75373852 -1.4480774 -0.33572593 0
0.85697174 -1.4628732 -0.33528498 0
0.94028831 -1.4475545 -0.33653849 0
1.0350573 -1.4405717 -0.33812216 0
1.1444067 -1.447184 -0.33803394 0
1.2430629 -1.4402392 -0.33912641 0
1.3508418 -1.4563363 -0.34000787 0
1.4594567 -1.4646817 -0.34124938 0
1.562604 -1.459805 -0.34201857 0
1.6302694 -1.4332987 -0.34292984 0
1.7452874 -1.4527631 -0.34292108 0
1.8374753 -1.4423552 -0.34345171 0
1.9368303 -1.4543197 -0.34395736 0
2.0534177 -1.4516928 -0.3453739 0
2.1631575 -1.4608393 -0.34666422 0
2.2544177 -1.4454809 -0.34754404 0
2.3493617 -1.4594088 -0.34710941 0
2.4265451 -1.4436507 -0.34786999 0
-3.2161295 -1.3086401 -0.30377585 0
-3.1717937 -1.3706813 -0.30342624 0
-3.0694158 -1.3525887 -0.3042576 0
-2.9663718 -1.3582067 -0.30531093 0
-2.8757586 -1.3416727 -0.3061319 0
-2.7758522 -1.3438144 -0.30709851 0
-2.6773906 -1.3437418 -0.3078506 0
-2.5666432 -1.3578943 -0.30839661 0
-2.4697096 -1.3522329 -0.30953035 0
-2.3676224 -1.3406945 -0.31021276 0
-2.2608759 -1.3451502 -0.31111202 0
-2.1466017 -1.3457154 -0.31211936 0
-2.040061 -1.3426536 -0.31316987 0
-1.9390947 -1.3434356 -0.31225112 0
-1.8450937 -1.3444998 -0.3147561 0
-1.7375927 -1.3440816 -0.31600678 0
-1.6458086 -1.3504131 -0.31602919 0
-1.5466044 -1.3445737 -0.31617087 0
-1.4604799 -1.3591576 -0.31808609 0
-1.3543646 -1.3512859 -0.31804702 0
-1.2448685 -1.3534545 -0.31983262 0
-1.1381862 -1.3494998 -0.32104674 0
-1.0289456 -1.3536119 -0.32013157 0
-0.94331235 -1.3444142 -0.32091516 0
-0.84946251 -1.3665481 -0.32206732 0
-0.75713271 -1.3484892 -0.32272711 0
-0.65867621 -1.3398682 -0.32447913 0
-0.53940928 -1.3392526 -0.3256802 0
-0.45002085 -1.3330402 -0.3248865 0
-0.35070223 -1.3506358 -0.32666236 0
-0.25571415 -1.3717432 -0.32661113 0
-0.1503475 -1.3500607 -0.32849377 0
-0.056418005 -1.3522092 -0.32958031 0
0.040708989 -1.3461295 -0.33020824 0
0.14102483 -1.3536756 -0.32876706 0
0.2579965 -1.3563274 -0.329725 0
0.35897127 -1.3669746 -0.33287808 0
0.45124024 -1.3604178 -0.33409962 0
0.55566847 -1.3387026 -0.33367506 0
0.63865656 -1.3351052 -0.33542636 0
0.75851524 -1.3460968 -0.33599856 0
0.85292149 -1.35499 -0.3362034 0
0.95436919 -1.3513801 -0.33793068 0
1.0601364 -1.3527154 -0.33823794 0
1.1361383 -1.3355248 -0.33869705 0
1.2509533 -1.3486563 -0.33964494 0
1.355191 -1.3407406 -0.34027517 0
1.4517438 -1.3562534 -0.34100357 0
1.5520325 -1.368914 -0.34229732 0
1.6620394 -1.348394 -0.34194887 0
1.746376 -1.3390467 -0.34357402 0
1.8334254 -1.3429027 -0.34245169 0
1.9253877 -1.3407265 -0.34504637 0
2.032202 -1.3512254 -0.34633321 0
2.1379321 -1.3562874 -0.34681186 0
2.2514107 -1.3395457 -0.34738371 0
2.3438051 -1.3495091 -0.34828067 0
2.4617465 -1.3615178 -0.34894353 0
2.5259204 -1.3133146 -0.34955978 0
-3.2380075 -1.2284166 -0.30387875 0
-3.1625783 -1.251979 -0.30435303 0
-3.0390155 -1.2533926 -0.30506006 0
-2.9126589 -1.258677 -0.30608493 0
-2.8217552 -1.2434535 -0.30689716 0
-2.7201769 -1.2454817 -0.30780074 0
-2.6228127 -1.2466215 -0.30876324 0
-2.5233209 -1.2439252 -0.30960569 0
-2.4275351 -1.2401885 -0.3106308 0
-2.3189905 -1.248178 -0.31130138 0
-2.2187483 -1.2314565 -0.31233177 0
-2.171531 -1.2710491 -0.31170529 0
-2.07306 -1.2536869 -0.31277391 0
-1.9729165 -1.2515707 -0.31384987 0
-1.8677286 -1.2418299 -0.31354025 0
-1.7593238 -1.2440497 -0.31610805 0
-1.6720638 -1.2555232 -0.31692728 0
-1.5554267 -1.2442129 -0.31747824 0
-1.4349452 -1.2474713 -0.31769136 0
-1.349396 -1.2499889 -0.31977195 0
-1.2548351 -1.2523465 -0.31935775 0
-1.1481233 -1.2377936 -0.32040915 0
-1.0543847 -1.2576751 -0.3218486 0
-0.95075607 -1.2436019 -0.32189706 0
-0.84970909 -1.2485706 -0.3228198 0
-0.73778713 -1.2551085 -0.32342163 0
-0.63995314 -1.2527803 -0.32575512 0
-0.55688637 -1.251652 -0.32505429 0
-0.4450458 -1.2459918 -0.32605883 0
-0.35763577 -1.2499492 -0.32753804 0
-0.24531791 -1.2400413 -0.32858506 0
-0.14825581 -1.2498769 -0.32842991 0
-0.047557525 -1.2582469 -0.32955682 0
0.053113211 -1.2557657 -0.32971948 0
0.15365392 -1.2536268 -0.33035257 0
0.24798378 -1.2450049 -0.33115584 0
0.34833458 -1.2520164 -0.33327469 0
0.46044037 -1.2449951 -0.33336902 0
0.54565895 -1.2537202 -0.33373165 0
0.66333765 -1.2588372 -0.33602533 0
0.74941343 -1.2457743 -0.3359333 0
0.83721274 -1.2417499 -0.33732826 0
0.95294368 -1.2520263 -0.33933869 0
1.0465001 -1.2444426 -0.33795157 0
1.1590723 -1.2576975 -0.33894819 0
1.2394894 -1.2418996 -0.33941609 0
1.3432364 -1.2370188 -0.33993015 0
1.4542633 -1.2459309 -0.34166139 0
1.5559417 -1.2577765 -0.34253818 0
1.6624682 -1.2483957 -0.34226167 0
1.7645173 -1.2538052 -0.34341034 0
1.8454657 -1.2462884 -0.34470278 0
1.9628458 -1.2585436 -0.34678635 0
2.0419447 -1.2416005 -0.34669396 0
2.1487992 -1.2577667 -0.34733716 0
2.2430298 -1.2351722 -0.34788406 0
2.3453064 -1.2481319 -0.34845003 0
2.4394488 -1.2537726 -0.34974658 0
2.5480046 -1.242442 -0.35056585 0
-3.2671177 -1.1422849 -0.30409628 0
-3.1521866 -1.1529713 -0.30485448 0
-3.0539901 -1.1418194 -0.30559096 0
-2.9482391 -1.1506792 -0.30613646 0
-2.8521581 -1.1368331 -0.3066313 0
-2.7598896 -1.146136 -0.3075853 0
-2.6641417 -1.1512799 -0.30863619 0
-2.5652812 -1.152447 -0.30947903 0
-2.4668474 -1.1508909 -0.31037995 0
-2.3614666 -1.1641384 -0.31134334 0
-2.2549396 -1.1520103 -0.31269276 0
-2.1270826 -1.1646333 -0.31359008 0
-2.0348208 -1.1522118 -0.31381369 0
-1.9373689 -1.1527498 -0.31465477 0
-1.8425121 -1.1505445 -0.31567472 0
-1.7502086 -1.1493306 -0.31500155 0
-1.630151 -1.1484215 -0.31732208 0
-1.5430744 -1.1415133 -0.31806439 0
-1.4448212 -1.150988 -0.31935003 0
-1.341175 -1.1393791 -0.31959474 0
-1.2451717 -1.1375177 -0.32108021 0
-1.1570059 -1.1509264 -0.32020411 0
-1.0452654 -1.1432024 -0.32090113 0
-0.94949466 -1.1325487 -0.32184377 0
-0.84421849 -1.1450213 -0.32372603 0
-0.75034505 -1.1615137 -0.3238841 0
-0.6495322 -1.1483828 -0.32507622 0
-0.54792833 -1.1509333 -0.32624578 0
-0.4581106 -1.1489094 -0.32711083 0
-0.34981164 -1.1734146 -0.3281869 0
-0.27323794 -1.1912253 -0.32751 0
0.34372157 -1.1894095 -0.33185878 0
0.44803646 -1.1601697 -0.33334103 0
0.55101395 -1.1448901 -0.33365357 0
0.64560908 -1.1469841 -0.3371231 0
0.74547386 -1.1533571 -0.33574936 0
0.85534286 -1.1651897 -0.33922967 0
0.93657976 -1.1466056 -0.33879021 0
1.053059 -1.151693 -0.33809128 0
1.1558433 -1.1434625 -0.33901608 0
1.2658749 -1.165729 -0.33969101 0
1.3462567 -1.1386628 -0.34113026 0
1.4421755 -1.1489685 -0.342814 0
1.5451065 -1.1429459 -0.34268522 0
1.6340332 -1.1553098 -0.34285522 0
1.7381642 -1.1557996 -0.3448647 0
1.8491806 -1.1546274 -0.34625217 0
1.9602127 -1.1474292 -0.34635997 0
2.0615256 -1.1479213 -0.34700158 0
2.1570697 -1.160971 -0.34775129 0
2.2737186 -1.1410863 -0.34929731 0
2.3682449 -1.1464332 -0.34961185 0
2.4640884 -1.1496756 -0.35011795 0
2.5564306 -1.1484383 -0.35025534 0
2.6274576 -1.1354442 -0.3514699 0
-3.3139784 -1.0271848 -0.30354312 0
-3.2883835 -1.0537421 -0.30311957 0
-3.1567638 -1.0450393 -0.30459866 0
-3.0476174 -1.0411265 -0.30634862 0
-2.9503851 -1.0553005 -0.30708578 0
-2.8379993 -1.0458864 -0.30786517 0
-2.7465169 -1.0497031 -0.30799448 0
-2.658046 -1.0522759 -0.3080419 0
-2.5514078 -1.059563 -0.3095443 0
-2.4398339 -1.0614179 -0.31082889 0
-2.3289199 -1.0464104 -0.31196412 0
-2.2660828 -1.0614159 -0.31233782 0
-2.1521242 -1.0516207 -0.313072 0
-2.080148 -1.0627037 -0.31405786 0
-1.9595184 -1.0437968 -0.31505135 0
-1.8515198 -1.0487722 -0.31589386 0
-1.7314435 -1.0427412 -0.31660938 0
-1.6550398 -1.0631742 -0.31673408 0
-1.5601683 -1.053717 -0.31765962 0
-1.4671848 -1.0531411 -0.31916463 0
-1.3525113 -1.0357791 -0.32067752 0
-1.2538725 -1.0494474 -0.3207083 0
-1.1398658 -1.0496743 -0.3212347 0
-1.0440165 -1.0478739 -0.32180604 0
-0.9453072 -1.0338496 -0.32195067 0
-0.86973476 -1.0611198 -0.32317418 0
-0.76008958 -1.0474043 -0.32475862 0
-0.65655202 -1.0430751 -0.32589617 0
-0.5576027 -1.0817342 -0.32618865 0
0.65635115 -1.0654024 -0.33543158 0
0.74772954 -1.0602584 -0.33621651 0
0.85141963 -1.045525 -0.33785388 0
0.95812297 -1.0630351 -0.33755085 0
1.046373 -1.0411566 -0.33875123 0
1.1440916 -1.0386235 -0.33975703 0
1.2397722 -1.0623254 -0.3405416 0
1.3630733 -1.0636481 -0.34240854 0
1.4460298 -1.0380971 -0.34259722 0
1.5436842 -1.0425268 -0.34306282 0
1.6492932 -1.0531651 -0.34422183 0
1.7485704 -1.0472373 -0.3451561 0
1.862601 -1.065483 -0.34570628 0
1.9232042 -1.0351222 -0.34674126 0
2.0226262 -1.0516626 -0.34768343 0
2.1386304 -1.0581367 -0.34856501 0
2.2281487 -1.0396069 -0.34916639 0
2.3385139 -1.0505435 -0.34949273 0
2.4439402 -1.0424887 -0.34959111 0
2.5388622 -1.0402466 -0.35158214 0
2.6543102 -1.0432016 -0.35291433 0
-3.3288965 -0.95395559 -0.30447543 0
-3.2223158 -0.94845992 -0.30514914 0
-3.128643 -0.94529128 -0.30573297 0
-3.0296679 -0.96284592 -0.30616859 0
-2.9356346 -0.95613545 -0.30725878 0
-2.8405712 -0.94775152 -0.30796468 0
-2.7432141 -0.95912528 -0.30917853 0
-2.6500309 -0.94785929 -0.30987707 0
-2.5463607 -0.95200533 -0.31012014 0
-2.4430897 -0.95350981 -0.31024933 0
-2.3386834 -0.95167798 -0.31114095 0
-2.236738 -0.94768041 -0.31290093 0
-2.1443956 -0.94497472 -0.31424895 0
-2.044225 -0.95365214 -0.31483269 0
-1.9492869 -0.94358933 -0.31503481 0
-1.8542327 -0.94728667 -0.31582549 0
-1.7538868 -0.9441182 -0.31692767 0
-1.6501751 -0.95010424 -0.31751838 0
-1.5299447 -0.95533228 -0.3186709 0
-1.4399933 -0.95754272 -0.32011232 0
-1.3395149 -0.94707429 -0.32081497 0
-1.2458152 -0.94949627 -0.32164177 0
-1.1471308 -0.95478922 -0.32203251 0
-1.0374817 -0.9462629 -0.32204688 0
-0.95427823 -0.94877011 -0.32283968 0
-0.85360897 -0.94697398 -0.32328644 0
-0.75755346 -0.95427555 -0.32452855 0
-0.69917762 -0.99642378 -0.32616198 0
0.77104086 -0.98946589 -0.33614075 0
0.85419279 -0.9508847 -0.33850369 0
0.95194244 -0.95528007 -0.33881041 0
1.047603 -0.95091671 -0.34046957 0
1.1310363 -0.95065397 -0.34036481 0
1.2448044 -0.95277643 -0.34075871 0
1.3480612 -0.95318741 -0.34185258 0
1.4631011 -0.94689614 -0.34208634 0
1.5515945 -0.94158775 -0.34381837 0
1.6576184 -0.93866867 -0.3448638 0
1.7786376 -0.94101578 -0.34563038 0
1.8647382 -0.95256186 -0.34697551 0
1.9728255 -0.95499516 -0.34799719 0
2.0769868 -0.95104706 -0.34841502 0
2.1724303 -0.93881798 -0.34837642 0
2.2669837 -0.94138473 -0.34912887 0
2.3596985 -0.94052553 -0.35000125 0
2.4562635 -0.93850446 -0.35097146 0
2.5436921 -0.95108199 -0.35149723 0
2.6513338 -0.96973306 -0.35249072 0
2.7207086 -0.92944229 -0.35302466 0
-3.361263 -0.85992539 -0.3050774 0
-3.2583833 -0.83359563 -0.30600929 0
-3.1547284 -0.85541505 -0.30646497 0
-3.0596278 -0.85314971 -0.30701753 0
-2.9665027 -0.85010302 -0.30771098 0
-2.875927 -0.84650874 -0.3085053 0
-2.7758796 -0.86040992 -0.30898193 0
-2.6606693 -0.83874351 -0.31047046 0
-2.5572796 -0.84660727 -0.31083092 0
-2.4470859 -0.84594393 -0.31196094 0
-2.3770716 -0.8612321 -0.31247407 0
-2.2674501 -0.8477369 -0.31268182 0
-2.1747451 -0.848957 -0.31291881 0
-2.0719333 -0.84307945 -0.31477481 0
-1.9589169 -0.84658813 -0.31658241 0
-1.8521688 -0.84824198 -0.31704822 0
-1.7704984 -0.85546637 -0.31653234 0
-1.6572691 -0.84667909 -0.31777576 0
-1.556016 -0.84630668 -0.31910074 0
-1.4341542 -0.84951347 -0.3197391 0
-1.360312 -0.85634309 -0.32035765 0
-1.2515169 -0.84517545 -0.32083395 0
-1.1342069 -0.84998816 -0.32303002 0
-1.0516782 -0.85349584 -0.32283482 0
-0.95548123 -0.85471117 -0.32331637 0
-0.85826743 -0.8492558 -0.3237001 0
0.94534463 -0.85809344 -0.34007832 0
1.0451931 -0.85742146 -0.3399561 0
1.1580167 -0.86423188 -0.34049562 0
1.2307371 -0.83849061 -0.34066936 0
1.3489717 -0.85058087 -0.3414861 0
1.450034 -0.84868997 -0.34329787 0
1.5462432 -0.84507507 -0.34379351 0
1.6483891 -0.84202975 -0.34481883 0
1.7371403 -0.85625613 -0.34617159 0
1.8376296 -0.8413983 -0.34714705 0
1.9376717 -0.85726768 -0.34718192 0
2.019145 -0.85081697 -0.34741879 0
2.1167099 -0.84367627 -0.34783736 0
2.2313831 -0.85257995 -0.34890026 0
2.3414028 -0.8438971 -0.3502543 0
2.4399991 -0.8402012 -0.3512634 0
2.5459883 -0.8497507 -0.35212865 0
2.6650152 -0.84695828 -0.35291556 0
2.747458 -0.85162854 -0.35318857 0
-3.3774552 -0.76178324 -0.30397207 0
-3.2788863 -0.73953772 -0.3049714 0
-3.1810212 -0.76555991 -0.30635947 0
-3.0493512 -0.73387331 -0.30761468 0
-2.9520137 -0.75554585 -0.30880702 0
-2.8352222 -0.7469992 -0.30956721 0
-2.718749 -0.73719954 -0.3103016 0
-2.6451778 -0.76500422 -0.31042513 0
-2.5295384 -0.74455756 -0.31186149 0
-2.4279025 -0.74718058 -0.31250614 0
-2.350451 -0.74705505 -0.31343988 0
-2.2392578 -0.76499933 -0.31429416 0
-2.1406858 -0.73133391 -0.3155174 0
-2.048651 -0.75268084 -0.31482702 0
-1.9488084 -0.74462259 -0.31621367 0
-1.856113 -0.75525969 -0.31740606 0
-1.7048191 -0.78058106 -0.3178491 0
-1.6253352 -0.77251863 -0.31821954 0
-1.551182 -0.75097513 -0.31909433 0
-1.4571953 -0.74821222 -0.32048804 0
-1.3464721 -0.7498886 -0.32131431 0
-1.2375666 -0.74171937 -0.32101423 0
-1.1566688 -0.74867952 -0.32150093 0
-1.0461497 -0.75085568 -0.32286426 0
-0.95258391 -0.75909811 -0.32432231 0
0.99065101 -0.7891475 -0.3393786 0
1.0495615 -0.7534706 -0.33968267 0
1.1435721 -0.74889004 -0.33987373 0
1.2633792 -0.75157768 -0.34206891 0
1.3467302 -0.73331761 -0.34303468 0
1.4479139 -0.75282204 -0.34349295 0
1.563009 -0.76283544 -0.34491473 0
1.6407112 -0.7407406 -0.34609184 0
1.7551689 -0.7526511 -0.34655327 0
1.8614541 -0.74199021 -0.3469671 0
1.9618802 -0.74965906 -0.34701917 0
2.0575609 -0.75252646 -0.34784648 0
2.1594985 -0.75498778 -0.34913337 0
2.2580347 -0.75333667 -0.35047492 0
2.352968 -0.74777502 -0.35106012 0
2.4518039 -0.74072474 -0.35245952 0
2.5408576 -0.74781871 -0.35303003 0
2.6287611 -0.75331944 -0.35387608 0
2.7540264 -0.75535637 -0.35590118 0
2.8118985 -0.71939886 -0.35637745 0
-3.411797 -0.66757751 -0.30416125 0
-3.3602784 -0.64932865 -0.30460474 0
-3.2314439 -0.65634227 -0.30600214 0
-3.1181657 -0.65657973 -0.3072271 0
-3.0298901 -0.63799214 -0.30815607 0
-2.9268219 -0.66012549 -0.30854437 0
-2.8388057 -0.64027238 -0.30943763 0
-2.7484903 -0.64065439 -0.31067255 0
-2.6480012 -0.65732956 -0.31123033 0
-2.5582666 -0.65447366 -0.31235462 0
-2.4550922 -0.64681876 -0.31312257 0
-2.3362324 -0.65150595 -0.31345809 0
-2.2466853 -0.66119194 -0.31448123 0
-2.1657035 -0.637353 -0.31522813 0
-2.0739152 -0.64284128 -0.31572303 0
-1.9656237 -0.64026695 -0.31687945 0
-1.883896 -0.67372608 -0.31690761 0
-1.4729249 -0.68708372 -0.31988862 0
-1.343673 -0.6574809 -0.3214072 0
-1.2407647 -0.65650952 -0.32290316 0
-1.1561732 -0.64383602 -0.32327828 0
-1.0517403 -0.6586982 -0.3251411 0
-0.98115772 -0.69372398 -0.32197627 0
1.0786383 -0.66284215 -0.33929917 0
1.1564506 -0.64091176 -0.34172058 0
1.2389799 -0.65078658 -0.34219259 0
1.3413624 -0.64924341 -0.34360567 0
1.4453236 -0.65565896 -0.34548962 0
1.5484891 -0.64283431 -0.34549162 0
1.6566855 -0.6521703 -0.34623638 0
1.7418466 -0.65130311 -0.34622988 0
1.8418653 -0.66174632 -0.34686559 0
1.9448334 -0.65675628 -0.34896344 0
2.0528281 -0.66894317 -0.34922108 0
2.1283219 -0.64615059 -0.35052726 0
2.2530887 -0.64599776 -0.35140288 0
2.3561251 -0.65111309 -0.35226771 0
2.4522629 -0.63998604 -0.35332644 0
2.5669811 -0.65671372 -0.35394144 0
2.6644001 -0.64116496 -0.35454604 0
2.7537549 -0.64184761 -0.35473254 0
2.8164558 -0.65648186 -0.35509571 0
-3.4371374 -0.56254953 -0.3057411 0
-3.3426626 -0.56350684 -0.30655316 0
-3.2275133 -0.53603089 -0.30739379 0
-3.1337795 -0.54354388 -0.30764559 0
-3.0368791 -0.54921913 -0.30806518 0
-2.9472036 -0.55485326 -0.30889842 0
-2.8579881 -0.55922514 -0.30970949 0
-2.7694268 -0.54189718 -0.31059676 0
-2.6782792 -0.54400331 -0.31161603 0
-2.5497575 -0.54097235 -0.3128739 0
-2.475631 -0.55043942 -0.31324819 0
-2.3750825 -0.55369455 -0.31461367 0
-2.2587461 -0.54354542 -0.3156428 0
-2.136409 -0.56282371 -0.31679928 0
-2.035322 -0.54858667 -0.31695208 0
-1.9268247 -0.54226542 -0.3170706 0
-1.8599906 -0.51865399 -0.31978977 0
-1.2338686 -0.59177214 -0.32251731 0
-1.1381503 -0.57121277 -0.32307979 0
-1.0729959 -0.55789858 -0.3241455 0
1.1558462 -0.54924923 -0.34299913 0
1.2528816 -0.55331242 -0.3433854 0
1.3658093 -0.55579537 -0.3441419 0
1.4404342 -0.54173064 -0.34528196 0
1.5415275 -0.55144954 -0.34483841 0
1.6525612 -0.56791496 -0.34682316 0
1.7400855 -0.54793525 -0.34919664 0
1.875067 -0.5519588 -0.34927702 0
1.958241 -0.54602867 -0.34947291 0
2.0403719 -0.55322218 -0.35009778 0
2.137393 -0.54683071 -0.35053241 0
2.2408271 -0.53922802 -0.35181296 0
2.3255417 -0.55961537 -0.35235956 0
2.436399 -0.55894238 -0.35278025 0
2.5504913 -0.5561462 -0.353549 0
2.652307 -0.53891891 -0.3552461 0
2.7662702 -0.54119641 -0.35635903 0
2.8501942 -0.55756968 -0.35661712 0
-3.4435916 -0.47112849 -0.30530673 0
-3.3417783 -0.45719284 -0.306328 0
-3.2523487 -0.44495738 -0.30722517 0
-3.162919 -0.43272191 -0.3081224 0
-3.0644851 -0.46403584 -0.30897713 0
-2.9751959 -0.450515 -0.30982071 0
-2.8578882 -0.44338661 -0.31061664 0
-2.755497 -0.45102623 -0.31132165 0
-2.6476316 -0.44003651 -0.31192523 0
-2.5309093 -0.44377285 -0.31256357 0
-2.4692187 -0.44651747 -0.31264329 0
-2.3555949 -0.44348073 -0.31432587 0
-2.2370567 -0.44586748 -0.31555912 0
-2.1310921 -0.44878241 -0.31664801 0
-2.0488851 -0.44672596 -0.31792861 0
-1.9578407 -0.44167995 -0.31940579 0
-1.8507648 -0.45492962 -0.3188315 0
-1.7496037 -0.44761172 -0.31971818 0
-1.6669731 -0.439316 -0.31958294 0
-1.5794543 -0.42830637 -0.32079181 0
-1.4802958 -0.41277701 -0.3217572 0
1.1704808 -0.4860557 -0.33959541 0
1.2470104 -0.4457745 -0.34562454 0
1.3613278 -0.46059036 -0.34321785 0
1.4335049 -0.44447002 -0.3441112 0
1.5530485 -0.44504523 -0.34636739 0
1.6577822 -0.44951993 -0.34690472 0
1.727896 -0.45532468 -0.34737837 0
1.8390735 -0.45654896 -0.34827599 0
1.9521878 -0.4345488 -0.34953964 0
2.0662379 -0.45041376 -0.35103887 0
2.169467 -0.45673501 -0.35241982 0
2.2720749 -0.444489 -0.35338664 0
2.3575637 -0.46121511 -0.35386369 0
2.4523346 -0.4435505 -0.35474393 0
2.5380561 -0.45905182 -0.35520986 0
2.6233349 -0.45505977 -0.35533661 0
2.7348666 -0.4542371 -0.35589284 0
2.8483503 -0.44529906 -0.35644212 0
-3.4595203 -0.35765514 -0.30549756 0
-3.3475044 -0.36073083 -0.3062827 0
-3.2576978 -0.35105416 -0.30709493 0
-3.1678913 -0.3413775 -0.30790716 0
-3.078213 -0.35405421 -0.30885699 0
-2.9885089 -0.3437387 -0.30970559 0
-2.8535354 -0.34890723 -0.31095317 0
-2.7164927 -0.35188892 -0.31236708 0
-2.6270027 -0.34029675 -0.3132793 0
-2.530127 -0.34250242 -0.31452203 0
-2.4482248 -0.35305935 -0.31485873 0
-2.3391995 -0.34578952 -0.31537741 0
-2.2299452 -0.35399416 -0.31552562 0
-2.1464517 -0.34074116 -0.31617159 0
-2.0544548 -0.35637996 -0.31626034 0
-1.9552174 -0.34489131 -0.31729278 0
-1.8535357 -0.3489649 -0.31903586 0
-1.7599859 -0.34691155 -0.32025871 0
-1.6361233 -0.3457782 -0.320804 0
-1.5560957 -0.36024392 -0.32105559 0
-1.4437103 -0.35518193 -0.32138309 0
-1.3474878 -0.33460185 -0.32291844 0
1.2510705 -0.35138211 -0.34397376 0
1.3512787 -0.34817314 -0.34491324 0
1.4538916 -0.34981325 -0.3460798 0
1.5429732 -0.35204521 -0.34597525 0
1.6555365 -0.34148011 -0.34762162 0
1.756333 -0.35527781 -0.34853062 0
1.8396099 -0.34634975 -0.3489646 0
1.9409089 -0.35104325 -0.35006616 0
2.038774 -0.35067636 -0.35148051 0
2.1735108 -0.36520571 -0.35275117 0
2.241123 -0.33016345 -0.3531169 0
2.3743427 -0.35953212 -0.35381362 0
2.4685307 -0.33772933 -0.35486236 0
2.5549252 -0.34954831 -0.35541329 0
2.64132 -0.36136723 -0.35596421 0
2.7289691 -0.35345021 -0.35672438 0
2.8465819 -0.35642022 -0.35775894 0
2.9074631 -0.31330189 -0.35908484 0
-3.4709616 -0.24871387 -0.30619192 0
-3.3618436 -0.26521629 -0.30718732 0
-3.2717466 -0.25810921 -0.30796653 0
-3.1816492 -0.2510021 -0.30874577 0
-3.0465035 -0.24034148 -0.30991465 0
-2.9113579 -0.22968087 -0.3110835 0
-2.8380229 -0.25477785 -0.31144586 0
-2.7261386 -0.25432456 -0.31249374 0
-2.636126 -0.24592571 -0.31324109 0
-2.5436471 -0.25567338 -0.31391534 0
-2.2515428 -0.2916474 -0.31721476 0
-2.1677282 -0.28079069 -0.31795338 0
-2.052315 -0.27591586 -0.31859827 0
-1.9892133 -0.28667131 -0.31831482 0
-1.8578507 -0.29494092 -0.31755209 0
-1.730772 -0.28313425 -0.31955582 0
-1.6242299 -0.27575645 -0.32143313 0
-1.5470634 -0.28363252 -0.32120374 0
-1.4293722 -0.25866878 -0.32660922 0
-1.3505599 -0.27028191 -0.32363048 0
-1.2442007 -0.24665277 -0.32503119 0
-1.1845589 -0.24935354 -0.3243987 0
1.2639389 -0.24728569 -0.34516239 0
1.3466561 -0.2586939 -0.34513634 0
1.460596 -0.24008477 -0.3453126 0
1.5520196 -0.24642833 -0.34629938 0
1.6399504 -0.24419503 -0.34715009 0
1.7598088 -0.25455874 -0.34877393 0
1.8638943 -0.24144173 -0.35023984 0
1.9443381 -0.25186253 -0.35087138 0
2.0431559 -0.25740069 -0.35119063 0
2.1611173 -0.24850868 -0.35239875 0
2.2275708 -0.24005219 -0.35301751 0
2.3557091 -0.25386381 -0.35430256 0
2.4766264 -0.24894129 -0.35513294 0
2.5658007 -0.23937112 -0.35583583 0
2.6528368 -0.2474926 -0.3565971 0
2.7398732 -0.25561407 -0.35735837 0
2.8302522 -0.24365276 -0.35806522 0
2.910778 -0.25061467 -0.35872954 0
-3.4743891 -0.14913407 -0.30615443 0
-3.3625996 -0.16859619 -0.30697912 0
-3.2722988 -0.16406873 -0.30770236 0
-3.181998 -0.15954126 -0.30842561 0
-3.0465469 -0.15275006 -0.30951047 0
-2.9110956 -0.14595884 -0.31059533 0
-2.8207951 -0.14143138 -0.31131858 0
-2.730273 -0.15650086 -0.3121441 0
-2.6400154 -0.1513278 -0.31287491 0
-2.5497575 -0.14615476 -0.3136057 0
1.2772918 -0.14679457 -0.34460425 0
1.3551537 -0.15273118 -0.34480286 0
1.4729986 -0.14809777 -0.34645984 0
1.5697857 -0.1464359 -0.34753889 0
1.6458821 -0.14166573 -0.34847605 0
1.7613294 -0.1593926 -0.34923172 0
1.8426394 -0.13228811 -0.35172737 0
1.9566034 -0.15425079 -0.35117492 0
2.0348821 -0.14588164 -0.35144344 0
2.140871 -0.14823614 -0.35238186 0
2.2238781 -0.14341818 -0.35325047 0
2.3335164 -0.1591084 -0.35400516 0
2.4528599 -0.15128863 -0.35500082 0
2.576086 -0.14763984 -0.35599831 0
2.6632667 -0.15263693 -0.3566561 0
2.7504473 -0.15763402 -0.35731393 0
2.8366082 -0.14224325 -0.35770822 0
2.9142838 -0.14615943 -0.35830271 0
-3.5125811 -0.050286513 -0.30734208 0
-3.4635735 -0.074344538 -0.30706137 0
-3.3731611 -0.072403125 -0.30778936 0
-3.2827487 -0.070461705 -0.30851731 0
-3.1639388 -0.060507599 -0.30968919 0
-3.0399101 -0.072650157 -0.31025729 0
-2.9211001 -0.062696047 -0.31142917 0
-2.8306878 -0.060754634 -0.31215712 0
-2.7402754 -0.058813214 -0.31288511 0
-2.6498632 -0.056871802 -0.31361306 0
-2.5594511 -0.054930389 -0.31434101 0
1.290329 -0.041494943 -0.34599829 0
1.3505334 -0.051426828 -0.34736419 0
1.4616725 -0.058721997 -0.34729755 0
1.5310298 -0.044618104 -0.34877187 0
1.656101 -0.04731638 -0.34895852 0
1.7672714 -0.058230877 -0.34886011 0
1.8525913 -0.036228109 -0.35159341 0
1.9603888 -0.055974346 -0.35103527 0
2.0462768 -0.043857139 -0.35209858 0
2.127243 -0.045596827 -0.35258308 0
2.2223468 -0.04765771 -0.3531622 0
2.3371017 -0.058731444 -0.35385326 0
2.457561 -0.045834195 -0.35509276 0
2.5786312 -0.055314314 -0.35587421 0
2.6659353 -0.057188321 -0.35654044 0
2.7532394 -0.059062321 -0.35720658 0
2.8435307 -0.040670693 -0.35821852 0
2.9219589 -0.041750077 -0.35881674 0
-3.5102947 0.025115505 -0.30712628 0
-3.4829686 0.049857561 -0.30753866 0
-3.3475435 0.047918562 -0.30893597 0
-3.2121179 0.045979559 -0.31033328 0
-3.1218345 0.044686895 -0.31126484 0
-3.0315506 0.043394227 -0.31219637 0
-2.9412673 0.042101562 -0.31312796 0
-2.8509836 0.040808897 -0.31405947 0
-2.7607002 0.039516229 -0.31499103 0
-2.6704166 0.038223568 -0.31592259 0
-2.5801332 0.0369309 -0.31685412 0
1.2897726 0.046130855 -0.34588495 0
1.3582855 0.048594814 -0.34667462 0
1.4610547 0.052290749 -0.3478592 0
1.5285007 0.051534288 -0.34837985 0
1.6543748 0.047351636 -0.34876677 0
1.761435 0.050373845 -0.34911317 0
1.8414824 0.052695267 -0.35056475 0
1.9608603 0.056086607 -0.35112873 0
2.0457001 0.043937113 -0.3524572 0
2.1269054 0.045679525 -0.35314497 0
2.2258987 0.047784608 -0.35398534 0
2.3221712 0.049842011 -0.35477194 0
2.443856 0.052450668 -0.35567546 0
2.5632672 0.05502348 -0.35683894 0
2.6716843 0.057346269 -0.35761324 0
2.7590625 0.059222341 -0.35832357 0
2.8487654 0.040784538 -0.35930991 0
2.931438 0.041966826 -0.35998088 0
-3.511024 0.12568268 -0.30737895 0
-3.4706054 0.17406794 -0.30815867 0
-3.3802691 0.16953877 -0.30890495 0
-3.2621384 0.17126779 -0.31012753 0
-3.1370528 0.14969303 -0.31066748 0
-3.0189228 0.15142207 -0.31189007 0
-2.9285862 0.14689288 -0.31263632 0
-2.8382497 0.14236371 -0.3133826 0
-2.7470341 0.15749033 -0.31425908 0
-2.6566811 0.15231106 -0.31495154 0
-2.5663285 0.14713177 -0.31564403 0
1.2874402 0.14795814 -0.34734216 0
1.35762 0.14624247 -0.34797353 0
1.4665332 0.1526209 -0.34794641 0
1.5438718 0.14836472 -0.35008457 0
1.6571661 0.14264283 -0.35050344 0
1.7714741 0.15511879 -0.3509472 0
1.8451108 0.14555602 -0.35257712 0
1.9646063 0.15499234 -0.35313514 0
2.0420928 0.14650427 -0.35294735 0
2.1371315 0.14384535 -0.35319251 0
2.2264678 0.14767525 -0.35457528 0
2.3368583 0.142234 -0.35463721 0
2.4515684 0.16688247 -0.35660958 0
2.5545366 0.15247922 -0.35729241 0
2.6662526 0.15291706 -0.35781005 0
2.753624 0.15792303 -0.35863391 0
2.8412602 0.14252804 -0.35913244 0
2.9244843 0.14666437 -0.35991669 0
-3.5232935 0.22729132 -0.30889645 0
-3.4688053 0.27365169 -0.30969524 0
-3.378511 0.26652914 -0.3103292 0
-3.2882166 0.25940663 -0.31096315 0
-3.152775 0.24872285 -0.31191406 0
-3.0173333 0.23803906 -0.31286496 0
-2.9228528 0.25160533 -0.31320941 0
-2.8326247 0.24383797 -0.31384483 0
-2.740957 0.25570497 -0.31446064 0
-2.6508076 0.24729371 -0.31512135 0
-2.5622303 0.25759909 -0.31620944 0
-2.2639129 0.29324973 -0.31824806 0
-2.1804483 0.28243837 -0.31935665 0
-2.0381932 0.273752 -0.32091084 0
-1.8759357 0.29781199 -0.32261279 0
-1.7480186 0.28596464 -0.3235468 0
-1.6377689 0.27805048 -0.32478917 0
-1.5517025 0.28449908 -0.32504499 0
-1.4353936 0.26189056 -0.32675785 0
-1.3574004 0.26218015 -0.3257505 0
-1.2534711 0.25159535 -0.32756177 0
-1.1908096 0.25625235 -0.3264789 0
1.2730281 0.24903505 -0.34764323 0
1.3501028 0.25106162 -0.34720981 0
1.4663342 0.24590039 -0.34749252 0
1.5596184 0.24759796 -0.34800333 0
1.6359565 0.24769804 -0.3489036 0
1.7645261 0.2505033 -0.35036612 0
1.870726 0.24225172 -0.35158399 0
1.9512551 0.25268397 -0.35223913 0
2.0360944 0.24892157 -0.35333952 0
2.1482821 0.26902255 -0.3544184 0
2.2231143 0.23554084 -0.35517991 0
2.3491876 0.26007605 -0.35603303 0
2.4496078 0.24650112 -0.35736516 0
2.5623202 0.23903468 -0.35846776 0
2.6692917 0.24900575 -0.35926235 0
2.7564337 0.25713709 -0.36005005 0
2.8492858 0.24530914 -0.36083665 0
2.9338543 0.24551491 -0.36151835 0
-3.5141807 0.32785398 -0.30879351 0
-3.4599905 0.37290537 -0.30948022 0
-3.3699651 0.36320421 -0.3101446 0
-3.2799397 0.35350305 -0.31080902 0
-3.1616449 0.34823608 -0.31195626 0
-3.0488765 0.33974969 -0.31233752 0
-2.9390781 0.36654091 -0.31339216 0
-2.8230853 0.34508726 -0.3142373 0
-2.7307882 0.3536818 -0.31479034 0
-2.6408703 0.34203398 -0.31532255 0
-2.5295014 0.35396385 -0.31572077 0
-2.4269276 0.3497833 -0.31720737 0
-2.3433406 0.33773506 -0.31806639 0
-2.2590277 0.35871151 -0.3198683 0
-2.1754599 0.34544441 -0.32061028 0
