# .PCD v0.7 - Point Cloud Data file format
VERSION 0.7
FIELDS x y z intensity
SIZE 4 4 4 4
TYPE F F F F
COUNT 1 1 1 1
WIDTH 1383
HEIGHT 1
VIEWPOINT 0 0 0 1 0 0 0
POINTS 1383
DATA ascii
-28.981617 -2.0828719 1.5247927 9
-28.994759 -1.6660461 1.5236453 9
-28.99999 -1.2491847 1.5224043 9
-29.016224 -0.4164528 1.5211878 9
-29.043877 8.0848549e-05 1.5220836 9
-29.03878 0.41678438 1.5215851 9
-29.052624 0.83406633 1.5223984 9
-29.058512 1.2517513 1.5231165 9
-29.075125 1.6707431 1.5247195 9
-29.092554 2.5110598 1.5280727 9
-29.102987 2.9332495 1.5303308 9
-29.114426 3.3570781 1.5329742 9
-29.130835 3.783294 1.5362118 9
-29.135981 4.2099504 1.539193 9
-29.140987 4.6385098 1.5425065 9
-29.155785 5.0708818 1.5466827 9
-29.172493 5.5062084 1.5513103 9
-29.172947 5.9410748 1.5554278 9
-29.178358 6.3795838 1.5601668 9
-28.868357 -5.8780131 2.5835664 10
-28.880714 -5.4502444 2.5769398 10
-28.894749 -5.0247135 2.5710285 10
-28.909328 -4.6009812 2.5657279 10
-28.912773 -4.1771483 2.5599949 10
-28.930475 -3.7568192 2.5560777 10
-28.932911 -3.3357801 2.551358 10
-28.95261 -2.917798 2.5487032 10
-28.956045 -2.4990544 2.545157 10
-28.974249 -2.0823007 2.5434437 10
-28.982325 -1.665297 2.5413737 10
-29.004202 -0.8326354 2.5393319 10
-29.002388 -0.41624409 2.5379899 10
-29.026157 8.2138737e-05 2.5394163 10
-29.043051 0.41683769 2.5407722 10
-29.04154 0.83373052 2.5410478 10
-29.052338 1.2514576 2.5429313 10
-29.060007 1.6698362 2.5450754 10
-29.081009 2.5100017 2.5514719 10
-29.088909 2.9317575 2.5552545 10
-29.099442 3.3552642 2.5598164 10
-29.102867 3.7795641 2.5643027 10
-29.115276 4.2068477 2.5701377 10
-29.131021 4.6367989 2.5768313 10
-29.143978 5.5006714 2.5902951 10
-29.150257 5.9362826 2.5978808 10
-29.175278 6.3787241 2.607734 10
-29.179096 6.8197227 2.6162958 10
-29.159073 -48.875977 3.0427177 9
-28.879126 -4.5960984 3.5951478 11
-28.899178 -4.1751127 3.5893657 11
-28.91684 -3.754982 3.584053 11
-28.937288 -3.3362238 3.5798469 11
-28.926596 -2.9151213 3.5725474 11
-28.954597 -2.080847 3.5663128 11
-28.966209 -1.664337 3.5640197 11
-28.975006 -1.2480552 3.5621228 11
-28.975826 -0.83180225 3.5599883 11
-28.990467 -0.41606271 3.5602915 11
-29.008728 8.3428145e-05 3.561779 11
-29.022013 0.83315229 3.5641246 11
-29.023834 1.2502018 3.5658181 11
-29.036806 1.6684645 3.5696259 11
-29.048 2.0876663 3.573967 11
-29.053104 2.5075331 3.5783105 11
-29.077692 2.9305542 3.5858142 11
-29.080206 3.3529618 3.591362 11
-29.089403 3.7777166 3.5985036 11
-28.861534 -5.8765354 3.6224992 11
-28.863405 -5.4468927 3.6120882 11
-28.866371 -5.0196972 3.6026132 11
-29.110813 4.2060909 3.6079373 11
-29.114758 5.063467 3.6243539 11
-29.139952 5.4997559 3.636657 11
-29.144066 5.9348497 3.64715 11
-29.16654 6.3766236 3.660774 11
-29.160261 6.8151159 3.671629 11
-29.18951 7.7116714 3.7011805 11
-29.192184 8.1622696 3.7157655 11
-28.84638 -5.8733611 4.6685576 12
-28.849062 -5.4440994 4.6554079 12
-28.868345 -5.019959 4.6459594 12
-28.87598 -4.59552 4.6356444 12
-28.877537 -4.1719141 4.62536 12
-28.891909 -3.7516773 4.6181221 12
-28.901388 -3.3320239 4.6110845 12
-28.915592 -2.9139574 4.6057739 12
-28.939964 -2.4975693 4.6030498 12
-28.951889 -1.6634793 4.5946283 12
-28.965176 -1.247605 4.5930176 12
-28.980202 -0.83190888 4.5926361 12
-28.979435 -0.41589415 4.590703 12
-28.991484 8.4757456e-05 4.5917535 12
-29.013531 0.41639823 4.5953407 12
-29.023809 1.2501727 4.6000233 12
-29.029776 1.6680218 4.6039319 12
-29.037479 2.0868602 4.6090798 12
-29.043276 2.5066228 4.6148934 12
-29.057392 2.9284344 4.623004 12
-29.089609 3.7776442 4.6428304 12
-29.086313 4.2024379 4.651144 12
-29.100807 4.6317358 4.663311 12
-29.113997 5.0631928 4.6762967 12
-29.118546 5.4955587 4.688931 12
-29.149672 6.3727479 4.720922 12
-29.153187 6.8132563 4.7365875 12
-29.151791 7.25561 4.7525458 12
-29.174568 7.70748 4.7735653 12
-29.165905 8.1546631 4.7905812 12
-29.172472 -48.900589 5.0416989 10
-29.195408 8.6164589 4.8150291 12
-29.197412 9.536025 4.8581157 12
-28.820557 -5.868012 5.723062 13
-28.84528 -5.4432988 5.7114148 13
-28.849947 -5.0166764 5.6970415 13
-28.859301 -4.5927877 5.6848383 13
-28.864748 -4.1699934 5.6730928 13
-28.880226 -3.7500923 5.664535 13
-28.897669 -3.3315327 5.6575632 13
-28.901117 -2.4941678 5.641048 13
-28.917475 -2.0780945 5.6374235 13
-28.928135 -1.6620795 5.6338606 13
-28.947519 -1.2468171 5.6331687 13
-28.944012 -0.83085102 5.6291895 13
-28.949467 -0.41545361 5.6281199 13
-28.969168 8.6007785e-05 5.6309867 13
-28.973019 0.41580877 5.6319408 13
-28.983807 0.83201963 5.6354084 13
-29.012808 1.6670078 5.6473074 13
-29.011295 2.084928 5.6519084 13
-29.040874 2.5063529 5.6637554 13
-29.044973 2.9271083 5.671833 13
-29.052282 3.3495691 5.6817398 13
-29.079224 4.2012992 5.7076211 13
-29.086617 4.6293492 5.7212267 13
-29.087219 5.0583935 5.7347445 13
-29.103428 5.4925475 5.7526073 13
-29.103146 5.9261708 5.7684975 13
-29.11319 6.3645811 5.7877364 13
-29.124874 6.8064303 5.8086271 13
-29.140425 7.2525544 5.8316445 13
-29.159122 7.703156 5.8566732 13
-29.163437 8.1537075 5.8802142 13
-29.174726 9.0671349 5.932117 13
-29.181725 9.5305719 5.9605455 13
-29.197336 10.001534 5.9922562 13
-28.826195 -5.4396095 6.7779989 14
-28.838293 -5.0145659 6.7627716 14
-28.844593 -4.5903687 6.7476568 14
-28.844385 -4.1669779 6.7324815 14
-28.855183 -3.7467721 6.7213211 14
-28.876431 -2.909898 6.7031903 14
-28.892239 -2.4933512 6.6974449 14
-28.90856 -2.0774109 6.693212 14
-28.907274 -1.6608454 6.6862984 14
-28.922897 -1.2457287 6.6846862 14
-28.953505 -0.415501 6.6854644 14
-28.956285 8.7402565e-05 6.6850338 14
-28.975174 0.41583136 6.6897092 14
-28.972225 0.83166891 6.6907268 14
-28.98242 1.248333 6.6961665 14
-28.986818 1.665475 6.7016606 14
-28.994204 2.083648 6.7092443 14
-29.006222 2.503299 6.7193069 14
-29.027243 3.3465934 6.7430015 14
-29.045259 3.7716832 6.7587509 14
-29.054377 4.1975946 6.7738862 14
-29.076519 4.6276107 6.7935338 14
-29.172813 -48.903332 7.0518909 11
-29.083296 5.0575647 6.8110857 14
-29.080811 5.4881182 6.8279657 14
-29.089729 5.9232612 6.8490419 14
-29.103882 6.3623524 6.8729043 14
-29.115431 6.8040123 6.8977284 14
-29.122313 7.693182 6.9483409 14
-29.138803 8.146554 6.9792295 14
-29.147629 8.6017847 7.0099769 14
-29.164692 9.0637054 7.0444345 14
-29.167143 9.5254803 7.0771265 14
-29.185394 9.9970894 7.1154528 14
-29.187138 10.467964 7.1515989 14
-28.804646 -5.0086312 7.8390212 15
-28.830404 -4.5880294 7.8268576 15
-28.831245 -4.1650038 7.8096089 15
-28.843262 -3.7451546 7.7970643 15
-28.867392 -2.9089293 7.7769475 15
-28.865471 -2.4909906 7.7655811 15
-28.887033 -2.0758204 7.7621517 15
-28.908155 -1.6608599 7.7602139 15
-28.913282 -1.2452867 7.7555923 15
-28.929653 -0.41514799 7.7528052 15
-28.947519 8.8807297e-05 7.7564111 15
-28.943659 0.41537085 7.7558002 15
-28.957687 0.8312332 7.7615886 15
-28.963188 1.2474753 7.7666984 15
-28.977736 1.6649127 7.7758522 15
-28.99349 2.5021367 7.7954545 15
-29.011229 2.9235556 7.8103709 15
-29.024485 3.3461859 7.8257399 15
-29.022572 3.7686346 7.838685 15
-29.052776 4.1972461 7.8619933 15
-29.065491 5.0543208 7.900856 15
-29.076658 5.4871697 7.9241996 15
-29.079161 5.9209294 7.9469485 15
-29.085062 6.3580413 7.9724154 15
-29.090197 6.7979012 7.9994874 15
-29.114752 7.6909332 8.0631552 15
-29.124998 8.1424198 8.0972958 15
-29.13652 8.5982122 8.1337538 15
-29.160666 9.0621376 8.1757517 15
-29.154888 9.5211401 8.2114029 15
-29.172749 10.462421 8.2972584 15
-29.18235 10.940906 8.3436279 15
-29.195427 11.426202 8.3932333 15
-29.180065 -48.917679 9.0818825 12
-28.402334 -24.774048 0.68833643 8
-28.432461 -24.091051 0.68007362 8
-28.431925 -23.398376 0.67141598 8
-28.460558 -22.745184 0.66376776 8
-28.465271 -22.087427 0.65586782 8
-28.496592 -21.46406 0.64887482 8
-28.506416 -20.837416 0.64167142 8
-28.521042 -20.226902 0.63484883 8
-28.537043 -19.629213 0.62831706 8
-28.577705 -18.472557 0.61618304 8
-28.589922 -17.904333 0.61029029 8
-28.612476 -17.35214 0.60484111 8
-28.616892 -16.798191 0.59922475 8
-28.631403 -16.259096 0.59403038 8
-28.672815 -15.211952 0.58449513 8
-28.675438 -14.690197 0.57964385 8
-28.685375 -14.179591 0.57512617 8
-28.703657 -13.679873 0.57095408 8
-28.71312 -13.182361 0.56677896 8
-28.736626 -12.207671 0.55902076 8
-28.766432 -11.736147 0.5557344 8
-28.763088 -11.256276 0.55196005 8
-28.783325 -10.790696 0.54879117 8
-28.783649 -10.322371 0.54539078 8
-28.794016 -9.4028778 1.5978165 9
-28.40309 -24.06636 1.980358 9
-28.418297 -23.387331 1.9572784 9
-28.435099 -22.724977 1.9352326 9
-28.450443 -22.07604 1.9139751 9
-28.470812 -21.444738 1.8939028 9
-28.482708 -20.820164 1.8740802 9
-28.495316 -20.208714 1.8550905 9
-28.531437 -19.625404 1.8383719 9
-28.53507 -19.0308 1.8202765 9
-28.54995 -18.454626 1.8035992 9
-28.575092 -17.329458 1.7719419 9
-28.597189 -16.786598 1.7576478 9
-28.617329 -16.251068 1.7438275 9
-28.625622 -15.717105 1.7298671 9
-28.651506 -15.200595 1.7175323 9
-28.667864 -14.686257 1.7051625 9
-28.673599 -14.173703 1.6926916 9
-28.688696 -13.171066 1.669505 9
-28.712688 -12.686627 1.6596024 9
-28.717127 -12.1993 1.6490396 9
-28.737387 -11.724205 1.639847 9
-28.751484 -11.25164 1.630744 9
-28.758915 -10.781447 1.6217006 9
-28.764313 -10.315339 1.6129718 9
-28.791862 -9.8614321 1.6059 9
-28.652348 -13.655263 2.7924893 10
-28.686478 -13.169966 2.7765808 10
-28.682533 -12.673219 2.7577834 10
-28.694225 -12.189482 2.7412806 10
-28.705624 -11.711154 2.7255135 10
-28.720804 -11.239539 2.7108414 10
-28.734306 -10.772122 2.6967299 10
-28.757023 -10.312624 2.6841826 10
-28.770119 -9.8538828 2.6714201 10
-28.782576 -9.3990383 2.6592712 10
-28.428497 -22.059132 3.1746614 10
-28.450251 -21.429348 3.1418839 10
-28.472029 -20.812437 3.1104438 10
-28.489737 -20.204821 3.0798435 10
-28.504076 -19.606627 3.0501204 10
-28.527065 -19.025488 3.0225134 10
-28.548054 -17.878103 2.9680562 10
-28.571312 -17.327152 2.9437785 10
-28.569511 -16.770325 2.9179547 10
-28.599617 -16.240971 2.8963878 10
-28.612434 -15.709819 2.8740191 10
-28.623604 -15.185735 2.8524227 10
-28.639362 -14.67159 2.8321834 10
-28.405024 -22.701084 3.2086341 10
-28.616371 -15.181842 3.9949868 11
-28.634604 -14.154289 3.9381244 11
-28.651093 -13.654593 3.9125113 11
-28.666031 -13.160498 3.8878343 11
-28.675985 -12.67024 3.8636019 11
-28.687767 -12.18665 3.8407092 11
-28.702808 -11.709912 3.819315 11
-28.709906 -11.235178 3.7978981 11
-28.73208 -10.771191 3.7794812 11
-28.742456 -10.307302 3.7604916 11
-28.769415 -9.8535414 3.744626 11
-28.773438 -9.3959541 3.7267113 11
-28.423901 -21.409595 4.3948865 11
-28.449722 -20.796207 4.351748 11
-28.459295 -20.183287 4.3079233 11
-28.487564 -19.59531 4.2686577 11
-28.50094 -19.008087 4.2288151 11
-28.509039 -18.428196 4.189806 11
-28.549206 -17.313728 4.1198945 11
-28.562029 -16.765909 4.0860653 11
-28.578478 -16.22893 4.0541463 11
-28.586535 -15.695552 4.0223866 11
-28.414076 -22.048063 4.442378 11
-28.739389 -9.3847332 4.7985358 12
-28.567562 -15.685088 5.1798749 12
-28.587055 -15.166235 5.1428881 12
-28.61389 -14.658418 5.1088138 12
-28.611633 -14.142863 5.0711241 12
-28.634739 -13.646722 5.0394635 12
-28.665335 -12.66545 4.9777651 12
-28.674742 -12.181028 4.9480152 12
-28.675131 -11.698526 4.9180927 12
-28.701199 -11.231676 4.8939018 12
-28.707485 -10.761872 4.8676271 12
-28.725203 -10.301014 4.8445587 12
-28.73147 -9.8404455 4.8207989 12
-28.441938 -20.17104 5.5465813 12
-28.461567 -19.577467 5.4945149 12
-28.471642 -18.988573 5.4427567 12
-28.503353 -18.424538 5.3971801 12
-28.508705 -17.853456 5.3485899 12
-28.528522 -17.301165 5.3046432 12
-28.559721 -16.218239 5.2206554 12
-28.414423 -21.402559 5.6598005 12
-28.434341 -20.785044 5.6032386 12
-28.694643 -10.756958 5.9685068 13
-28.703968 -10.293296 5.9386024 13
-28.71221 -9.833746 5.9099998 13
-28.715643 -9.3768749 5.8819022 13
-28.53931 -16.206614 6.398304 13
-28.55998 -15.151814 6.301765 13
-28.585669 -14.643896 6.2598906 13
-28.595539 -14.134838 6.2164636 13
-28.609875 -13.634798 6.1758814 13
-28.634251 -13.145742 6.1392632 13
-28.64465 -12.656225 6.1014032 13
-28.659519 -11.692065 6.0295634 13
-28.688332 -11.226539 6.0005984 13
-28.442703 -19.564533 6.7335453 13
-28.461876 -18.982088 6.6723709 13
-28.479263 -18.408976 6.6132917 13
-28.498091 -17.846807 6.5569754 13
-28.50988 -17.28985 6.5013924 13
-28.522337 -16.742559 6.4482408 13
-28.785168 -5.8607154 6.7878876 14
-28.404663 -20.763428 6.863925 13
-28.43557 -20.166588 6.8002195 13
-28.632675 -11.681014 7.1522689 14
-28.648701 -11.210933 7.1148372 14
-28.669834 -10.747555 7.0805435 14
-28.68898 -10.287817 7.0475774 14
-28.693359 -9.8271866 7.012785 14
-28.707596 -9.3741436 6.9821668 14
-28.522186 -16.196852 7.5913258 14
-28.531927 -15.66543 7.5327721 14
-28.569101 -14.635344 7.4275441 14
-28.580044 -14.12711 7.3763924 14
-28.591253 -13.625841 7.3275342 14
-28.613665 -13.136209 7.2836914 14
-28.626093 -12.647933 7.2393832 14
-28.416723 -19.546705 7.9859667 14
-28.44269 -18.96932 7.9154062 14
-28.480417 -17.835739 7.7791295 14
-28.48941 -17.27742 7.7125273 14
-28.509377 -16.734924 7.6515908 14
-28.786745 -5.8609447 7.8776126 15
-28.795496 -5.4337273 7.8573999 15
-28.403873 -20.144163 8.0633192 14
-28.599903 -12.636272 8.3922329 15
-28.611156 -12.153735 8.3429728 15
-28.635954 -11.682255 8.2999477 15
-28.645685 -11.209653 8.2547789 15
-28.67063 -10.747749 8.2161636 15
-28.68079 -10.284777 8.1754265 15
-28.674183 -9.8205128 8.1320286 15
-28.691214 -9.3686886 8.0973959 15
-28.522346 -15.66012 8.7369061 15
-28.534304 -15.13808 8.672596 15
-28.539782 -14.620259 8.6090679 15
-28.582941 -13.6218 8.4995632 15
-28.58676 -13.123772 8.4432993 15
-28.413731 -18.950033 9.1739321 15
-28.434969 -18.380373 9.0941429 15
-28.450842 -17.817211 9.0159674 15
-28.496922 -16.727585 8.8736553 15
-28.505281 -16.187214 8.802474 15
-28.406366 -19.539629 9.2616911 15
-28.178284 -32.777813 0.79518771 8
-28.200005 -31.866779 0.78230971 8
-28.225191 -30.987999 0.7700817 8
-28.235126 -30.119503 0.75796562 8
-28.270563 -29.30336 0.74703091 8
-28.293806 -28.497852 0.73624033 8
-28.308418 -27.706182 0.72567046 8
-28.346703 -26.958546 0.71612847 8
-28.361555 -26.20829 0.70639277 8
-28.390841 -25.490213 0.69740039 8
-28.201439 -48.847473 1.044595 8
-28.002651 -38.89325 0.88475883 8
-28.03677 -37.785496 0.86815363 8
-28.062214 -36.707474 0.8520723 8
-28.0959 -35.678944 0.83698446 8
-28.122448 -34.677471 0.82238293 8
-28.144615 -33.704834 0.80831093 8
-28.094439 -34.643761 2.3803494 9
-28.12524 -33.682377 2.341275 9
-28.145176 -32.739983 2.3030901 9
-28.166578 -31.829618 2.2667291 9
-28.195641 -30.95612 2.2325809 9
-28.224438 -30.108614 2.1999109 9
-28.245955 -29.278309 2.1680994 9
-28.279066 -28.483423 2.1385288 9
-28.306013 -27.704205 2.1097598 9
-28.319344 -26.93285 2.0812032 9
-28.337044 -26.185932 2.0541449 9
-28.365009 -25.467276 2.0289366 9
-28.380148 -24.754927 2.0038662 9
-28.00885 -37.748959 2.5100193 9
-28.038067 -36.676888 2.4647477 9
-28.069864 -35.646782 2.4218493 9
-28.210342 -48.865177 3.016907 9
-28.232832 -29.265175 3.5934768 10
-28.25388 -28.458467 3.5432942 10
-28.267292 -27.666674 3.4943025 10
-28.297335 -26.912252 3.4493947 10
-28.313206 -26.164202 3.4046803 10
-28.338343 -25.443592 3.3629186 10
-28.359699 -24.737312 3.3224511 10
-28.377718 -24.045061 3.2832634 10
-28.394882 -23.368231 3.2455814 10
-28.065416 -34.608803 3.9409289 10
-28.102509 -33.655918 3.8774285 10
-28.129469 -32.722401 3.8154683 10
-28.155058 -31.817226 3.7561193 10
-28.177582 -30.936863 3.6990077 10
-28.201994 -30.085182 3.64465 10
-28.001762 -36.630383 4.0789528 10
-28.03986 -35.609589 4.0091739 10
-28.307173 -26.158924 4.7643147 11
-28.307154 -25.415852 4.7019076 11
-28.334858 -24.715874 4.6465845 11
-28.364481 -24.034046 4.5938749 11
-28.372345 -23.349852 4.5398769 11
-28.394463 -22.692793 4.4903083 11
-28.217155 -48.879261 4.9976153 10
-28.161867 -30.920181 5.1731029 11
-28.182482 -30.064882 5.0965967 11
-28.204487 -29.236256 5.0236692 11
-28.222639 -28.427412 4.9532127 11
-28.256702 -27.656685 4.8885098 11
-28.268379 -26.885048 4.8227587 11
-28.055498 -34.597412 5.511755 11
-28.075178 -33.623947 5.4197702 11
-28.101999 -32.691139 5.3333364 11
-28.13204 -31.791842 5.2514062 11
-28.025221 -35.591904 5.6060672 11
-28.318975 -24.70225 5.9817915 12
-28.334627 -24.008942 5.9111743 12
-28.366858 -23.34551 5.8468709 12
-28.370993 -22.674177 5.77952 12
-28.395226 -22.03356 5.7189159 12
-28.211287 -28.416399 6.3767724 12
-28.227512 -27.628487 6.2896447 12
-28.249212 -26.867149 6.2074008 12
-28.262215 -26.117668 6.1267376 12
-28.286669 -25.397722 6.0518708 12
-28.113695 -31.771746 6.7583933 12
-28.127033 -30.8825 6.6538587 12
-28.152555 -30.033474 6.5567436 12
-28.175552 -29.206726 6.4632978 12
-28.221119 -48.88842 6.9910049 11
-28.021088 -34.555817 7.0889606 12
-28.039637 -33.582134 6.97051 12
-28.083767 -32.67062 6.863719 12
-28.332075 -23.317051 7.1605778 13
-28.348942 -22.6567 7.0813961 13
-28.372858 -22.016323 7.0071859 13
-28.388996 -21.383509 6.9341288 13
-28.257845 -26.113935 7.5109076 13
-28.276432 -25.388794 7.4177012 13
-28.296877 -24.683203 7.3288493 13
-28.308758 -23.987226 7.2414846 13
-28.15683 -29.187786 7.9190035 13
-28.182091 -28.387417 7.8102036 13
-28.208803 -27.610552 7.70647 13
-28.229136 -26.848392 7.6054463 13
-28.08905 -31.744534 8.2784796 13
-28.111528 -30.866055 8.1531925 13
-28.131964 -30.012028 8.0328503 13
-28.357672 -22.004667 8.3132572 14
-28.357386 -21.3598 8.2219152 14
-28.383606 -20.748116 8.1418037 14
-28.026733 -33.567463 8.5416632 13
-28.060204 -32.643909 8.4077082 13
-28.255493 -25.370264 8.7980003 14
-28.28385 -24.672075 8.6951437 14
-28.296688 -23.977203 8.5918741 14
-28.307945 -23.297369 8.4923592 14
-28.33102 -22.642532 8.4003868 14
-28.221075 -48.890656 9.0011358 12
-28.184883 -27.587524 9.1392431 14
-28.200226 -26.821236 9.0179358 14
-28.233364 -26.091614 8.9073353 14
-28.125473 -30.005644 9.5319271 14
-28.142443 -29.173353 9.3942833 14
-28.17979 -28.38553 9.2692795 14
-28.350666 -21.354845 9.5363035 15
-28.371496 -20.739346 9.4416723 15
-28.384037 -20.130159 9.3481922 15
-28.056772 -31.708694 9.8141985 14
-28.084057 -30.836481 9.6674156 14
-28.279385 -23.962751 9.9613514 15
-28.295519 -23.287323 9.8477497 15
-28.316381 -22.630981 9.7404203 15
-28.338211 -21.989689 9.6378317 15
-27.963947 -38.840656 2.55615 9
-27.947012 -38.81834 4.2325215 10
-27.976866 -37.70694 4.1542015 10
-27.921148 -38.783607 5.9154358 11
-27.95158 -37.673946 5.8062735 11
-27.98954 -36.615395 5.7039447 11
-27.924067 -37.637962 7.469182 12
-27.9629 -36.581558 7.3379092 12
-27.998125 -35.558418 7.212009 12
-27.902319 -38.758667 7.6118526 12
-27.992233 -34.521076 8.6817598 13
-27.908634 -37.618282 9.1514978 13
-27.931232 -36.541149 8.9855261 13
-27.969364 -35.522823 8.8323803 13
-27.867537 -38.711575 9.3197346 13
-27.271036 -48.84037 1.0363082 8
-27.269104 -48.839321 2.9911885 9
-27.269945 -48.843235 4.9537606 10
-27.280243 -48.864109 6.9311872 11
-27.279158 -48.86462 8.9237089 12
-26.344219 -48.812138 1.0278939 8
-26.339315 -48.805584 2.9659846 9
-26.344244 -48.817284 4.9126019 10
-26.354416 -48.838703 6.8735552 11
-26.355171 -48.842701 8.8500538 12
-25.430313 -48.779781 1.0197034 8
-25.436705 -48.794739 2.943126 9
-25.44145 -48.806545 4.8745718 10
-25.44141 -48.809193 6.8176117 11
-25.438911 -48.807137 8.7768593 12
-24.537611 -48.760796 1.0120978 8
-24.535322 -48.759094 2.9196999 9
-24.544292 -48.779781 4.8364882 10
-24.541342 -48.776798 6.7634678 11
-24.550203 -48.797318 8.7111139 12
-23.653379 -48.73177 1.0045749 8
-23.653999 -48.736057 2.8979304 9
-23.654879 -48.740906 4.7987208 10
-23.662123 -48.758884 6.7134514 11
-23.664974 -48.767838 8.6445799 12
-22.786972 -48.71294 0.99754423 8
-22.790907 -48.724548 2.8777094 9
-22.791122 -48.728233 4.7649932 10
-22.798151 -48.746502 6.6662278 11
-22.797417 -48.748196 8.5824404 12
-21.927206 -48.682014 0.99053848 8
-21.933334 -48.699013 2.8574965 9
-21.939568 -48.716282 4.7327332 10
-21.935507 -48.710682 6.6177874 11
-21.943064 -48.73093 8.5232735 12
-21.342291 -4.6656232 0.38624606 8
-21.374521 -4.6726017 1.151479 9
-21.401098 -4.6783433 1.9213299 10
-21.401573 -4.6783791 2.694531 11
-21.444324 -4.687655 3.4813006 12
-21.46484 -4.6920695 4.2754784 13
-21.500511 -4.6997957 5.0855856 14
-21.529083 -4.7059703 5.9094982 15
-20.942278 -6.1799755 0.38785508 8
-20.951967 -5.8574595 0.38607347 8
-20.966553 -5.3781838 0.38359061 8
-20.977211 -4.902154 0.38122147 8
-21.085787 -48.66592 0.98409915 8
-20.934956 -6.1777411 1.1505256 9
-20.939377 -5.853868 1.145676 9
-20.950121 -5.3739009 1.1391727 9
-20.954002 -4.8966613 1.132833 9
-20.914906 -6.1717515 1.9143091 10
-20.939598 -5.8538585 1.9083326 10
-20.940001 -5.3711691 1.8969223 10
-20.950899 -4.8958678 1.8873568 10
-20.906132 -6.1690907 2.6827734 11
-20.923693 -5.8493376 2.6736321 11
-20.92366 -5.3670135 2.6578119 11
-20.925772 -4.8899283 2.6435115 11
-21.092686 -48.685452 2.8387997 9
-20.898436 -6.1667438 3.457408 12
-20.908867 -5.84512 3.4445593 12
-20.917603 -5.365303 3.4257643 12
-20.923527 -4.8893347 3.4081092 12
-20.874632 -6.1596475 4.2368422 13
-20.887566 -5.8390918 4.2216864 13
-20.90309 -5.3615675 4.2001405 13
-20.923447 -4.8892446 4.1814938 13
-21.094078 -48.692284 4.7006674 10
-20.88451 -6.1624846 5.0333214 14
-20.873392 -5.8350544 5.0096078 14
-20.89086 -5.3583517 4.9846039 14
-20.912167 -4.8865385 4.9628019 14
-20.864803 -6.1565938 5.8352165 15
-20.861761 -5.831728 5.8100257 15
-20.862593 -5.5105619 5.7873025 15
-20.892658 -5.0404844 5.7638807 15
-21.091972 -48.691055 6.573483 11
-21.096243 -48.70459 8.4650078 12
-20.254663 -48.648495 0.97788715 8
-20.258581 -48.661724 2.820298 9
-20.256487 -48.66053 4.6691875 10
-20.260738 -48.67461 6.5314713 11
-20.259987 -48.676704 8.4088984 12
-16.004511 8.4969225 0.31158695 8
-16.0107 8.4991417 2.2214017 11
-15.994291 8.491147 0.94447988 9
-15.997841 8.4926748 1.5802187 10
-15.99112 8.4883928 2.8632975 12
-15.974881 8.4794121 3.5114837 13
-15.978071 8.4807367 4.1722822 14
-15.955729 8.4685097 4.8363142 15
-15.509501 8.5219288 0.30430937 8
-15.482069 8.5065031 0.9213686 9
-15.497689 8.514719 1.5427582 10
-15.468596 8.4983788 2.1629319 11
-15.478874 8.5036554 2.7931938 12
-15.46685 8.4966812 3.4263253 13
-15.441565 8.4824247 4.0636325 14
-15.456397 8.4901838 4.7214885 15
-15.011892 8.5315323 0.29693776 8
-15.007103 8.5284443 0.90032369 9
-14.994493 8.5209131 1.5047275 10
-14.982627 8.5138044 2.1118991 11
-14.977968 8.5107832 2.7246273 12
-14.968246 8.5048847 3.3426387 13
-14.968878 8.504859 3.9710298 14
-14.953419 8.4956913 4.6047049 15
-14.534579 8.5388269 0.28991866 8
-14.531216 8.5364742 0.87907255 9
-14.517899 8.5282803 1.4690821 10
-14.515123 8.5262718 2.063098 11
-14.516802 8.5268745 2.6627934 12
-14.510896 8.5230217 3.2675629 13
-14.485568 8.5077629 3.8748982 14
-14.500689 8.516242 4.502563 15
-14.083878 8.5485744 0.28338256 8
-14.083489 8.5479536 0.85936737 9
-14.074367 8.542038 1.4365159 10
-14.069784 8.5388689 2.0170784 11
-14.068181 8.537508 2.6027899 12
-14.060986 8.5327492 3.1935878 13
-14.056143 8.5294132 3.7924764 14
-14.044475 8.5219326 4.3985367 15
-13.646692 8.5539131 0.27707165 8
-13.654252 8.5582571 0.84063864 9
-13.645239 8.5522194 1.405165 10
-13.64509 8.5517321 1.9736612 11
-13.637132 8.5463505 2.5455573 12
-13.629492 8.5411625 3.1232016 13
-13.63641 8.5450869 3.7120397 14
-13.615675 8.5316896 4.3022623 15
-13.243567 8.5687151 0.27140653 8
-13.234628 8.5625381 0.82234812 9
-13.241661 8.5666838 1.3761972 10
-13.239848 8.5651073 1.9327105 11
-13.224489 8.5547714 2.4912879 12
-13.223498 8.5537233 3.0580871 13
-13.215477 8.5481215 3.6305919 14
-13.224046 8.553237 4.2169895 15
-12.855914 8.5824432 0.26601705 8
-12.849201 8.5775566 0.80603456 9
-12.847375 8.5759287 1.3479527 10
-12.851156 8.5780411 1.8938376 11
-12.841111 8.5709267 2.4420874 12
-12.829399 8.5626965 2.9951706 13
-12.813264 8.5515127 3.5535691 14
-12.816074 8.5529547 4.1257453 15
-12.470901 8.5857706 1.8558668 11
-12.457202 8.5754986 2.936826 13
-12.454963 8.5735235 3.4880908 14
-12.112651 8.5995216 0.25577706 8
-12.110385 8.5974884 0.77501124 9
-12.107862 8.595274 1.2958999 10
-12.102536 8.5910711 1.8193161 11
-12.094804 8.5851517 2.3462873 12
-12.089132 8.5802546 3.4199097 14
-12.088626 8.5794449 3.9694998 15
-11.750453 8.5990124 0.25078812 8
-11.755579 8.6023235 0.76021832 9
-11.764217 8.6082048 1.2723122 10
-11.753426 8.5998802 1.7853181 11
-11.752306 8.5986204 2.3036697 12
-11.740088 8.5892448 2.8249922 13
-11.742181 8.5903225 3.3564332 14
-11.735252 8.5848007 3.8936737 15
-11.431861 8.6208391 0.2466874 8
-11.42555 8.6156435 0.74689108 9
-11.414931 8.6072025 1.2478775 10
-11.422425 8.6123991 1.7537522 11
-11.407303 8.6005602 2.2601361 12
-11.407222 8.6000433 2.7744484 13
-11.401011 8.5944386 3.8234661 15
-11.101472 8.624753 0.24229547 8
-11.08983 8.6152678 0.73305589 9
-11.088793 8.6140089 1.2257267 10
-11.087587 8.6126194 1.7212702 11
-11.086718 8.6114855 2.2210116 12
-11.076041 8.6027365 2.7237949 13
-11.081699 8.606657 3.2372372 14
-11.07379 8.6000414 3.7549014 15
-10.469509 -5.7473187 -0.20181584 7
-10.534442 -4.8358541 -0.19684042 7
-10.547103 -3.9538345 -0.19223122 7
-10.51731 -3.1036425 -0.18806538 7
-10.457554 -2.2862582 -0.18446763 7
-10.78926 8.6336975 0.23825802 8
-10.628497 8.6295481 0.71482545 9
-10.473672 8.6300745 1.1848752 10
-10.773722 8.6203575 1.2045712 10
-10.474607 8.6303673 1.6641531 11
-10.620865 8.6219473 2.1645398 12
-10.616057 8.6176357 2.6558669 13
-10.617973 8.6186676 3.1554267 14
-10.614161 8.6150751 3.6612775 15
-10.071647 -8.7814255 -0.22266966 7
-10.243447 -7.7129765 -0.21462105 7
-10.380334 -6.7081151 -0.20783409 7
-10.393781 -1.5018882 -0.18180467 7
-10.291335 -0.73978847 -0.17939542 7
-10.178926 2.659008e-05 -0.177687 7
-10.030117 0.72115248 -0.17617445 7
-10.180875 8.6384201 0.23041502 8
-10.188053 8.6440239 0.69775081 9
-10.216256 -48.384884 0.91669953 8
-10.178762 8.6356688 1.1655455 10
-10.185458 8.6408567 1.6378907 11
-10.214601 -48.386665 2.6450667 9
-10.17629 8.6321077 2.5920372 13
-10.171782 8.6277857 3.0776458 14
-10.176453 8.6312323 3.5739174 15
-10.215064 -48.398537 4.3809204 10
-10.179399 -25.467033 5.3600993 13
-10.216128 -48.413319 6.1287365 11
-10.17355 -25.454597 6.3577461 14
-10.17914 -25.470865 7.3790464 15
-10.212941 -48.408016 7.8895011 12
-9.8471098 -9.913146 -0.23189172 7
-9.8390522 1.422296 -0.17471482 7
-9.6621609 2.1136341 -0.17428645 7
-9.76717 8.6555309 0.22538522 8
-9.7401304 -25.408192 0.50439864 8
-9.6236601 8.6530466 0.67608756 9
-9.9001236 8.6470299 1.1478674 10
-9.7424507 -25.416512 1.4556861 9
-9.6216536 8.6502361 1.586809 11
-9.8999472 8.6463795 1.6119158 11
-9.7535629 8.6414537 2.0622113 12
-9.7428074 -25.419708 2.4106529 10
-9.8913641 8.6378908 2.5509472 13
-9.8864822 8.6331234 3.0286808 14
-9.7435522 -25.423939 3.3719046 11
-9.6080179 8.6359186 3.4603217 15
-9.7446671 -25.429153 4.3419762 12
-9.7510557 -25.448181 5.326179 13
-9.7482767 -25.443283 6.3193789 14
-9.7490234 -25.447636 7.3310823 15
-9.5533648 -11.10601 -0.2422339 7
-9.4430037 2.7888672 -0.17386992 7
-9.3564291 8.65973 0.22034644 8
-9.3251152 -25.409451 0.50172698 8
-9.3584938 8.6611242 0.66625905 9
-9.4878759 -48.355812 0.91321224 8
-9.3770885 8.6777954 1.1159354 10
-9.3190632 -25.395336 1.4466813 9
-9.3533392 8.6553278 1.5630438 11
-9.3233109 -25.409348 2.3967574 10
-9.3434992 8.6457148 2.0146971 12
-9.4867945 -48.360828 2.6356843 9
-9.3447313 8.6463289 2.4733279 13
-9.3520126 8.652523 2.9402096 14
-9.3240795 -25.413881 3.352505 11
-9.3406982 8.6415234 3.4085643 15
-9.4893894 -48.384674 4.3666377 10
-9.3287878 -25.429192 4.3187089 12
-9.3288641 -25.431881 5.2942352 13
-9.4896679 -48.396778 6.1085253 11
-9.3262434 -25.42724 6.2815423 14
-9.3332186 -25.448843 7.2921329 15
-9.4882936 -48.400513 7.8650289 12
-9.1898613 -12.376233 -0.25407997 7
-9.1896572 3.4484899 -0.17358935 7
-8.9226952 4.1010938 -0.17382796 7
-8.9833117 8.6805668 0.21610053 8
-8.9050417 -25.383963 0.49864551 8
-8.9775953 8.6745996 0.65248865 9
-8.9697571 8.6664124 1.0896244 10
-8.9072237 -25.392757 1.4391077 9
-8.9762268 8.6720238 1.5310755 11
-8.9702444 8.6658669 1.9742117 12
-8.9078407 -25.397104 2.383307 10
-8.9653578 8.6605005 2.4219263 13
-8.9682274 8.6627312 2.8777487 14
-8.9094267 -25.404222 3.3340347 11
-8.9561281 8.6504955 3.3356535 15
-8.9075804 -25.401567 4.291882 12
-8.9129486 -25.419546 5.2645183 13
-8.9160595 -25.431122 6.2502704 14
-8.9131851 -25.425646 7.2481103 15
-8.747716 -13.737258 -0.26772833 7
-8.6268501 4.7428141 -0.17430507 7
-8.4947586 -25.373011 0.49596757 8
-8.5992775 8.6761322 0.63865745 9
-8.7668352 -48.340073 0.91015345 8
-8.5993223 8.6756277 1.0673344 10
-8.4983835 -25.386604 1.4316893 9
-8.6006746 8.6764374 1.4988364 11
-8.4966125 -25.384058 2.3703899 10
-8.5878258 8.6623774 2.3701284 13
-8.765027 -48.341705 2.6272304 9
-8.591671 8.665679 2.8165159 14
-8.4987354 -25.393181 3.3162348 11
-8.5882015 8.6616058 3.2677267 15
-8.7642965 -48.349339 4.351367 10
-8.4991388 -25.397182 4.2700958 12
-8.4986858 -25.398657 5.2344003 13
-8.765379 -48.367073 6.0879936 11
-8.500227 -25.406137 6.2135191 14
-8.5026817 -25.416405 7.2099614 15
-8.7646875 -48.375111 7.8393774 12
-8.2106228 -15.197145 -0.28338641 7
-8.3119993 5.3808289 -0.17523776 7
-8.2530956 8.6938133 0.20777114 8
-8.0906687 -25.368229 0.49352279 8
-8.253871 8.6940699 0.6269812 9
-8.0491953 -48.319633 0.90718317 8
-8.3725309 8.6932812 1.0547274 10
-8.0895281 -25.367579 1.4238967 9
-8.2495728 8.6883602 1.4701419 11
-8.2430716 8.6810236 1.895281 12
-8.0902929 -25.372929 2.3582461 10
-8.2407236 8.6779833 2.3256154 13
-8.0498915 -48.336716 2.620101 9
-8.3601475 8.6781492 2.7813711 14
-8.1299477 8.6850643 3.1873698 15
-8.0941334 -25.387964 3.30003 11
-8.3591032 8.6764736 3.2278247 15
-8.0489655 -48.344082 4.3397465 10
-8.0963745 -25.397995 4.2502494 12
-8.0956106 -25.398621 5.2099047 13
-8.0471888 -48.346413 6.0699291 11
-8.092617 -25.392282 6.1810846 14
-8.09482 -25.402327 7.1722713 15
-8.047863 -48.363621 7.8176951 12
-7.9720039 6.0147314 -0.17653768 7
-7.6010017 6.6425982 -0.17811623 7
-7.7984929 8.7030334 0.2028376 8
-7.6866431 -25.351051 0.49094659 8
-7.9122577 8.7034521 0.61538196 9
-7.7922029 8.694829 1.0206947 10
-7.6876507 -25.357519 1.4169543 9
-7.6878943 8.7036924 1.4253068 11
-7.7973428 8.6993914 1.8498609 12
-7.6906219 -25.370499 2.3474874 10
-7.7890787 8.6896067 2.2680559 13
-7.7911706 8.6911917 2.6946094 14
-7.6781373 8.6901779 3.1072443 15
-7.6913271 -25.376013 3.2837615 11
-7.6899543 -25.374674 4.2274179 12
-7.6900864 -25.378353 5.1825542 13
-7.5674114 -16.780685 -0.30159864 7
-7.2093678 7.2768936 -0.18027805 7
-7.3708811 8.7178135 0.19846521 8
-7.2904067 -25.347099 0.48873332 8
-7.3636131 8.7086248 0.59705645 9
-7.2189417 22.730713 0.42607519 8
-7.3377032 -48.313377 0.90465099 8
-7.3691993 8.7144442 0.99801141 10
-7.2884545 -25.343674 1.4101357 9
-7.3593416 8.7022629 1.3990753 11
-7.2225256 22.738016 1.2601396 9
-7.467382 8.7024775 1.8159629 12
-7.2874131 -25.343433 2.3350158 10
-7.251935 8.7008381 2.2017605 13
-7.3367548 -48.321503 2.6129613 9
-7.3605781 8.7018509 2.6314933 14
-7.3548698 8.694499 3.0517876 15
-7.2916451 -25.361601 3.2679749 11
-7.3350034 -48.32439 4.3277497 10
-7.2913766 -25.364105 4.2077508 12
-7.2936168 -25.375397 5.1600065 13
-7.3336515 -48.330009 6.0537028 11
-7.3340149 -48.347099 7.7968812 12
-6.9564881 8.7246342 0.19430898 8
-6.8931966 -25.327183 0.48631808 8
-6.9575777 8.725297 0.58456117 9
-6.8688474 22.755861 0.42525935 8
-7.0499659 8.712101 0.98027468 10
-6.8961496 -25.34169 1.4043076 9
-6.9503479 8.714962 1.368732 11
-6.8605604 22.724327 1.2543917 9
-6.9511342 8.7153511 1.7658558 12
-6.8962207 -25.345606 2.3257971 10
-6.9461427 8.7085791 2.1656616 13
-6.9428344 8.7037659 2.5709329 14
-6.9427357 8.7027721 2.9837134 15
-6.8931623 -25.338011 3.2517953 11
-6.896337 -25.353415 4.1890745 12
-6.895083 -25.352545 5.1346598 13
-6.7894917 -18.487917 -0.322492 7
-6.7583847 7.8805704 -0.1821039 7
-6.6616216 8.7356577 0.19155087 8
-6.6506596 8.7206364 0.57471967 9
-6.5483942 22.876221 0.42631763 8
-6.6248918 -48.273571 0.90165973 8
-6.5626655 8.7334433 0.95596933 10
-6.55795 8.7264299 1.3406792 11
-6.5507011 22.879854 1.258257 9
-6.5647755 8.7348137 1.731153 12
-6.5573378 8.7242384 2.1221173 13
-6.6254044 -48.293537 2.6056728 9
-6.5490851 8.7125959 2.5172036 14
-6.5484371 8.7109871 2.921077 15
-6.623569 -48.296394 4.3159223 10
-6.6219788 -48.301151 6.0372052 11
-6.6218438 -48.316711 7.7754974 12
-6.3029652 8.5178003 -0.18511842 7
-6.1880164 8.7492943 0.18729711 8
-6.3396044 15.91736 0.30436456 8
-6.1521602 16.11586 0.30683595 8
-6.3201203 -27.91284 0.53005356 8
-6.3670244 -26.355911 0.50221437 8
-6.1851788 8.7444391 0.56172895 9
-6.2650971 23.136364 0.43006033 8
-6.1853776 8.7439375 0.93760419 10
-6.3440223 15.926195 0.90380603 9
-6.1523676 16.114056 0.90975147 9
-6.304841 -27.850262 1.5266942 9
-6.348609 -26.283894 1.4456997 9
-6.1786566 8.7338915 1.3143144 11
-6.3382683 15.909563 1.5037386 10
-6.1465168 16.096428 1.5132895 10
-6.2656336 23.13364 1.2677459 9
-6.1811805 8.7367344 1.69593 12
-6.3353896 -26.233442 2.3894839 10
-6.0786624 8.7240572 2.0678823 13
-6.2898235 -27.788843 2.522666 10
-6.1727977 8.7232943 2.4683256 14
-6.1775856 8.729351 2.8668082 15
-6.2777009 -27.740252 3.5220213 11
-6.3252344 -26.195726 3.3370979 11
-6.3108621 -26.140524 4.2873392 12
-6.2640123 -27.684752 4.5254216 12
-6.2477927 -27.618071 5.5338087 13
-6.2963257 -26.084665 5.244091 13
-5.8542914 -20.340683 -0.34664303 7
-5.8238025 8.75811 0.18419117 8
-5.8222246 8.7551479 0.55178672 9
-5.9208884 -48.273609 0.89958161 8
-5.9013443 8.7369757 0.92320955 10
-5.8196077 8.7495384 1.2912973 11
-5.8163018 8.7437496 1.6644838 12
-5.8097591 8.7332497 2.0402429 13
-5.918581 -48.273212 2.5993323 9
-5.7290435 8.7473936 2.4156005 14
-5.9084644 8.7436028 2.8290999 15
-5.9179115 -48.286282 4.3065987 10
-5.9167771 -48.314529 7.7603006 12
-5.5551734 8.7596397 -0.18031155 7
-5.3408341 8.7638035 0.18026587 8
-5.3845816 8.76266 0.54025638 9
-5.5517292 30.770494 0.5657087 8
-5.3433833 8.7661543 0.89961964 10
-5.3354998 8.7525034 1.2601987 11
-5.3134036 8.7508183 1.807343 12.5
-5.5533862 30.770313 1.6585678 9
-5.4056463 8.746768 2.2498605 13.666667
-5.4565182 8.7354212 2.7617435 15
-5.5537472 30.762943 2.7548444 10
-5.551065 30.738731 3.8552716 11
-5.5531802 30.740915 4.9677849 12
-5.2119064 -48.268864 6.0111942 11
-5.5499926 30.713747 6.08708 13
-5.5517306 30.713617 7.2261662 14
-5.5528302 30.70982 8.3828325 15
-5.2099795 -48.294773 9.4927387 13
-4.8416529 -1.8148158 -0.26893339 6
-4.8991113 -1.4457324 -0.26611069 6
-4.936307 -1.0793144 -0.26366505 6
-4.9524045 -0.7157743 -0.26150933 6
-4.9495583 -0.35591188 -0.25971901 6
-4.9241509 0.17619631 -0.2585592 6
-4.8302617 0.69868147 -0.25637051 6
-4.9638839 8.7728863 0.17749065 8
-4.9656048 8.7752256 0.53008747 9
-5.1003308 30.79163 0.56558055 8
-4.9624376 8.7686863 0.88329297 10
-4.9312191 8.761199 1.3555046 11.333333
-4.9873028 8.7612419 1.840432 12.666667
-5.0982533 30.768978 1.6552603 9
-4.9600286 8.7608652 2.3266039 14
-5.0390835 8.7513847 2.708389 15
-5.0990067 30.763325 2.748914 10
-5.0998883 30.758375 3.8490252 11
-5.1009574 30.754465 4.9584966 12
-5.0985513 30.729578 6.0759535 13
-5.101974 30.739553 7.2151642 14
-5.0987949 30.709742 8.3628445 15
-4.7336569 -22.371685 -0.37486768 7
-4.5373392 -2.930675 -0.2795946 6
-4.6604252 -2.557445 -0.2755996 6
-4.7636418 -2.1862557 -0.27216825 6
-4.7553196 1.0410078 -0.25593686 6
-4.647542 1.3737587 -0.25497797 6
-4.551959 1.7098042 -0.2559523 6
-4.4067206 2.0276675 -0.25540367 6
-4.7193017 8.7787275 -0.1722469 7
-4.5990844 8.7783022 0.17497437 8
-4.5240049 8.7874327 0.52019823 9
-4.6457152 30.781382 0.5650062 8
-4.514008 -48.209641 0.89472276 8
-4.5971193 8.772913 0.86878026 10
-4.578702 8.7742882 1.3939213 11.5
-4.5942554 8.7645702 1.9262027 13
-4.6460323 30.772341 1.6525708 9
-4.5955524 8.7659206 2.2878389 14
-4.5134525 -48.228756 2.5880253 9
-4.5940056 8.7620783 2.6538954 15
-4.6481385 30.775059 2.7445991 10
-4.6476169 30.760378 3.8414092 11
-4.5126543 -48.245392 4.2887707 10
-4.64884 30.757109 4.9485297 12
-4.5112557 -48.255764 6.000442 11
-4.6478424 30.739088 6.0648942 13
-4.650156 30.742733 7.2003798 14
-4.5087295 -48.25423 7.7257919 12
-4.6504064 30.732603 8.3509178 15
-4.5074787 -48.266724 9.4730959 13
-4.0063124 -4.0287261 -0.29289109 6
-4.214067 -3.6710155 -0.28846344 6
-4.3880591 -3.3018146 -0.28383383 6
-4.2737689 2.3525054 -0.25686213 6
-4.0797019 2.6447496 -0.25593039 6
-4.291573 9.5718651 -0.18019265 7
-4.0153461 11.006717 -0.19998355 7
-4.2785244 9.1869488 0.17959586 8
-4.293189 9.5742626 0.18613821 8
-4.2951574 9.9581995 0.19259228 8
-4.3045592 10.386369 0.19987547 8
-4.2742391 9.1766815 0.53332317 9
-4.2845316 9.5538406 0.55180359 9
-4.2900491 9.945117 0.5709911 9
-4.2973914 10.367753 0.59186929 9
-4.1963205 30.792719 0.56495434 8
-4.2637024 9.1530428 0.88627988 10
-4.2779794 9.5380945 0.91771221 10
-4.2810254 9.9229898 0.94893676 10
-4.2943196 10.358974 0.98484588 10
-4.2585645 9.030014 1.3484124 11.333333
-4.2629204 9.5034561 1.2821264 11
-4.2777314 9.914094 1.3293033 11
-4.2885542 10.34372 1.3787234 11
-4.2498827 9.1201353 1.9589702 13
-4.2689714 9.5156832 1.6551841 12
-4.2759824 9.9087505 1.712901 12
-4.2783213 10.317725 1.7730119 12
-4.1960135 30.778141 1.6503729 9
-4.2499018 9.11903 2.3259828 14
-4.258945 9.4922075 2.0257354 13
-4.2657528 9.8838243 2.0962248 13
-4.2753978 10.30928 2.1734293 13
-4.2419562 9.1008921 2.6938536 15
-4.2510166 9.4727468 2.5930548 14.5
-4.2630281 9.8762026 2.4872584 14
-4.2625356 10.276951 2.5727215 14
-4.1979766 30.780106 2.7402821 10
-4.250834 9.8467178 2.8776968 15
-4.2555485 10.258712 2.980155 15
-4.1981535 30.768961 3.8354454 11
-4.1995425 30.76655 4.9407239 12
-4.1992569 30.751797 6.0557661 13
-4.1991124 30.737915 7.1852794 14
-4.2003102 30.73361 8.3348398 15
-3.7835956 -4.3924785 -0.29853028 6
-3.8946226 2.9431086 -0.25683492 6
-3.6883276 3.2291038 -0.25771672 6
-3.7474258 30.796377 0.56488806 8
-3.7484808 30.791204 1.6489208 9
-3.7503896 30.792953 2.7372472 10
-3.7509868 30.783905 3.8310933 11
-3.7511008 30.770805 4.9331412 12
-3.7530539 30.772554 6.0495119 13
-3.7522004 30.751232 7.1759553 14
-3.7538137 30.749796 8.3246555 15
-3.2512786 -5.0949435 -0.31072342 6
-3.5337553 -4.7509079 -0.30462018 6
-3.2012122 -0.94468814 -0.29085425 5
-3.2444887 -0.58862627 -0.28798532 5
-3.2621062 -0.23464635 -0.28587791 5
-3.243834 0.11628468 -0.28428537 5
-3.2271667 0.46708468 -0.28572839 5
-3.4812198 3.5210176 -0.26003897 6
-3.2453938 3.7930989 -0.2618289 6
-3.3247232 11.648436 -0.20523162 7
-2.9485409 -5.443068 -0.31809554 6
-2.945334 -1.7559237 -0.29790819 5
-3.0773537 -1.4120148 -0.29441959 5
-3.1636488 -1.1857187 -0.29409939 5
-3.144388 0.68886107 -0.2822336 5
-3.0446653 1.0209392 -0.28192124 5
-2.86901 1.4490283 -0.282269 5
-2.9827542 4.0417953 -0.26305002 6
-2.6149216 -5.7791333 -0.32586536 6
-2.5209637 -2.5322831 -0.30929929 5
-2.7278123 -2.2086291 -0.30436561 5
-2.4194894 -0.26196995 -0.29864937 4
-2.4140711 0.086683691 -0.29690304 4
-2.6479235 1.8581454 -0.28398329 5
-2.4331431 2.1340568 -0.28372949 5
-2.7094581 4.2853923 -0.26501432 6
-2.4255247 4.5271349 -0.26789722 6
-2.5703506 12.284005 -0.21092191 7
-2.2339728 -6.0563841 -0.33162767 6
-2.1905327 -2.9400313 -0.31700411 5
-2.3608623 -2.7370269 -0.31268135 5
-2.1306994 -1.3759472 -0.30985236 4
-2.3042328 -0.95912069 -0.30521554 4
-2.3899813 -0.61366636 -0.30228293 4
-2.3809235 0.34482834 -0.2957899 4
-2.3161612 0.59586674 -0.2944552 4
-2.1995142 0.96630555 -0.29630294 4
-2.030705 1.3201238 -0.29818177 4
-2.2948205 2.3257949 -0.28623089 5
-2.1248615 2.4893243 -0.28644902 5
-2.1215758 4.7517142 -0.27080333 6
-1.8373187 -6.3457479 -0.33948481 6
-1.7856262 -3.2874293 -0.32328409 5
-1.9904513 -3.1124849 -0.31932437 5
-1.8342012 -1.8412663 -0.31687737 4
-1.7518901 -0.96098721 -0.31523383 3
-1.8620414 -0.58583522 -0.30865541 3
-1.9152559 -0.27699828 -0.30602869 3
-1.8993089 0.27525023 -0.30436453 3
-1.8066576 0.60713774 -0.30357555 3
-1.6412756 0.98582023 -0.3042796 3
-1.8650467 1.523458 -0.2965126 4
-1.6987804 1.7253206 -0.29767722 4
-1.9515482 2.651619 -0.28783107 5
-1.7658032 2.8016992 -0.28914675 5
-1.8005953 4.9632125 -0.27404833 6
-1.7504132 12.933391 -0.21747184 7
-1.4136719 -6.6239095 -0.34824449 6
-1.3387408 -3.6133935 -0.33303043 5
-1.5683017 -3.4541595 -0.32780564 5
-1.4397308 -2.2482171 -0.32516873 4
-1.2322378 -1.6480988 -0.32305598 3
-1.4809425 -1.3845906 -0.31960028 3
-1.3098601 -1.0201645 -0.32095197 2
-1.3203532 -0.66350925 -0.31961253 1.3333334
-1.4666929 -0.32085696 -0.31608561 1.5
-1.4335924 0.31488419 -0.31055379 1.5
-1.3502623 0.66643137 -0.31021851 1.6666666
-1.4112933 1.0365568 -0.30683884 2.5
-1.3464767 1.3707796 -0.30530879 3
-1.5138392 1.9142239 -0.29985875 4
-1.3084238 2.0825698 -0.30151492 4
-1.4725746 3.0164299 -0.2925843 5
-1.459679 5.1510878 -0.27712339 6
-0.96258187 -3.8103459 -0.34007397 5
-1.0423141 -2.5239611 -0.33226648 4
-1.0331074 -1.8163764 -0.3285805 3
-0.9702093 -1.3970318 -0.32876369 2
-1.0049973 -1.0185173 -0.32532889 1
-1.0480133 -0.68777436 -0.32128286 0.25
-1.1748558 -0.25706154 -0.32136214 0
-1.1513048 0.25317696 -0.31657892 0
-1.0381349 0.65901726 -0.314843 0.33333334
-0.96322477 0.96809357 -0.3141619 1
-1.024013 1.3688662 -0.30972904 2.3333333
-0.94687921 1.7122215 -0.30981874 3
-1.0050023 2.2732317 -0.30439371 4
-1.0441979 3.2588696 -0.29720062 5
-1.1068065 5.3423948 -0.28156096 6
-0.68718266 -2.6992955 -0.33918193 4
-0.53630114 -2.0909984 -0.33943295 3
-0.620121 -1.7726208 -0.3368471 2.3333333
-0.59800637 -1.3943093 -0.3326616 1.25
-0.68028289 -1.0938565 -0.32991689 0.25
-0.63052332 1.0709366 -0.31760228 0.33333334
-0.58447218 1.3788278 -0.3160156 1.5
-0.56333131 1.9008287 -0.312567 3
-0.5889799 2.4477513 -0.30671287 4
-0.57787734 3.445102 -0.30210108 5
-0.73060697 5.4841094 -0.28461331 6
-0.37877154 -1.7150466 -0.33893424 2
-0.32134184 -1.3344989 -0.33794335 0.5
-0.27340791 1.1765174 -0.32171798 0
-0.13747902 1.3612373 -0.32608035 0.80000001
-0.0774066 1.8059095 -0.23294611 3.7777777
-0.25432721 2.0050845 -0.31683269 3
-0.33039591 2.5607553 -0.31347483 4
-0.03554891 1.8807871 0.20115061 10.5
-0.040424924 1.8790246 0.47087386 14.5
0.27772266 -4.1639853 -0.36243132 5
0.18578394 -2.8897319 -0.35383797 4
0.22531629 -2.2207179 -0.35277417 3
0.20957313 -1.7905173 -0.35040995 2
0.18840687 -1.3860126 -0.34755942 0.5
0.23890631 1.1861826 -0.34157854 0
0.19579105 1.3184162 -0.34054878 0.66666669
0.13959067 1.845273 -0.18011358 4.9000001
0.12282503 1.8665754 0.18960649 10.5
0.1239818 1.8664796 0.46242002 14.5
0.51243353 -7.4181161 -0.38424364 6
0.61227947 -4.1864486 -0.36805576 5
0.52460259 -2.9045684 -0.36172137 4
0.55226207 -2.1884599 -0.3578071 3
0.59556603 -1.719144 -0.3554436 2
0.52795601 -1.3504239 -0.35340956 0.66666669
0.61254096 -1.1540666 -0.35465735 0
0.52082247 1.1002038 -0.34816337 0
0.66027921 1.3627272 -0.34923738 1.3333334
0.51633251 1.837538 -0.21276854 4.5
0.52557176 1.8805526 0.19778609 10.5
0.52666962 1.8809842 0.48390254 14.5
1.1232388 -7.5468793 -0.39515159 6
0.92328781 -4.1925592 -0.37409806 5
0.94409281 -2.8341875 -0.36738014 4
0.98610365 -2.0731151 -0.36625719 3
0.86698842 -1.6102589 -0.35835198 2
0.95486975 -1.3958845 -0.36131999 1.5
0.96848541 -0.97132248 -0.36149055 0.25
1.1246042 -0.67953926 -0.36331323 0
1.1189404 0.55533576 -0.35844541 0
0.99913418 0.98206359 -0.35611919 0.80000001
0.97877675 1.4115901 -0.35532659 2
0.93885344 1.8912928 -0.20186332 5
0.93412274 1.8929361 0.19441038 10.25
0.97018224 1.8938583 0.51462591 14.333333
1.3909407 -4.1373076 -0.38174438 5
1.3557336 -2.7057104 -0.37370798 4
1.4139495 -1.8271354 -0.37112764 3
1.3099666 -1.321714 -0.36882401 2
1.3962266 -0.97859794 -0.36911041 1.5
1.3524162 -0.59634131 -0.36668658 0.75
1.3963591 -0.20823218 -0.3672609 0.5
1.3735555 0.20118022 -0.36463684 0.5
1.3526124 0.60849309 -0.3645491 1
1.4374871 1.0235974 -0.36532921 2
1.3549476 1.4034567 -0.36132777 2.5
1.3173633 1.864701 -0.21587817 5
1.3492666 1.9102179 0.21093307 10.181818
1.3332317 1.9067222 0.53345752 14
1.7870828 -25.093128 -0.41779843 7
1.7012061 -7.628849 -0.4057436 6
1.8612119 -4.0418668 -0.39022258 5
1.7540987 -2.5215869 -0.38104993 4
1.6455749 -1.6503685 -0.37533763 3
1.8448536 -1.4348722 -0.37879944 3
1.6305403 -0.89407128 -0.37194723 2
1.7480565 -0.61537802 -0.37363607 2
1.8246093 -0.22000793 -0.37349203 2
1.7987745 0.21943447 -0.37113816 2
1.688133 0.601542 -0.36903879 2
1.9492661 1.0834789 -0.37423971 3
1.7114367 1.363023 -0.36848181 3
1.6745379 1.9227889 -0.1811808 5.6666665
1.9979438 2.0519464 -0.37430319 4
1.660853 1.9194028 0.18034275 9.666667
1.788658 -25.094158 0.46029764 8
1.6660655 1.9166505 0.56233394 13.8
1.7903889 -25.097254 1.3397108 9
1.7914748 -25.090778 2.2217813 10
1.7933862 -25.097519 3.1105061 11
1.7961794 -25.114349 4.0090356 12
1.6157883 -25.100058 4.9103889 13
1.7998631 -25.12384 5.8366599 14
1.8019902 -25.130171 6.7726693 15
2.2887228 -7.6398015 -0.41509444 6
2.1640363 -3.9314301 -0.39451659 5
2.1541729 -2.2245789 -0.38679537 4
2.1245434 -0.96551967 -0.3815771 3
2.2523537 -0.56396937 -0.3818368 3
2.3044138 -0.23112562 -0.38281927 3
2.2826033 0.23894212 -0.38185781 3
2.1701543 0.64031523 -0.37873271 3
2.0294056 0.94027758 -0.37491518 3
2.2268343 1.8332524 -0.377067 4
2.3317521 -25.091484 0.46040368 8
2.332443 -25.082426 1.340619 9
2.3348217 -25.091282 2.2250798 10
2.3353658 -25.080509 3.1132114 11
2.3369431 -25.080595 4.0100374 12
2.3398499 -25.094614 4.9196439 13
2.3435662 -25.116972 5.8446875 14
2.3452647 -25.117619 6.7805562 15
2.7520185 -3.6456964 -0.40372705 5
2.4601009 -3.797255 -0.39880165 5
2.5690494 -1.7728003 -0.39238298 4
2.7552249 -1.4901294 -0.39518815 4
2.6303229 1.3345952 -0.38447985 4
2.4468663 1.6005691 -0.38154057 4
2.6921132 -25.063349 0.46009561 8
2.6940515 -25.066753 1.341265 9
2.6971874 -25.081152 2.2269478 10
2.698307 -25.076868 3.1168149 11
2.6999121 -25.076918 4.0148063 12
2.7014232 -25.075947 4.922657 13
2.7057428 -25.100611 5.8488955 14
2.7066417 -25.093544 6.7834277 15
2.8901839 -7.6146803 -0.42515209 6
3.0232775 -3.4584043 -0.40718719 5
3.0225415 -0.8661046 -0.40005299 4
2.8614023 -1.2902445 -0.39712951 4
2.9512753 -1.0819013 -0.39882284 4
3.0637808 -0.5276801 -0.39752442 4
3.1005325 -0.19178732 -0.39852917 4
3.064312 0.21150956 -0.39587036 4
2.9982991 0.53921479 -0.39422163 4
2.8565371 0.95821303 -0.39143971 4
3.132231 2.7648695 -0.39229405 5
2.8749776 2.9364645 -0.38607296 5
3.0542865 -25.047441 0.46009222 8
3.0577083 -25.062284 1.3427757 9
3.0605285 -25.072178 2.2293675 10
3.0612526 -25.064936 3.1200247 11
3.0639508 -25.073627 4.0204649 12
3.0638447 -25.059397 4.9270949 13
3.0682318 -25.081455 5.8536549 14
3.0692611 -25.076033 6.7894711 15
3.501096 -7.5448618 -0.435559 6
3.2985816 -3.2670467 -0.41276515 5
3.5416615 -3.0364709 -0.41605729 5
3.5957265 2.3441477 -0.40225688 5
3.3639395 2.5596483 -0.39659783 5
3.4336185 -25.090334 4.9419112 13
3.870069 -2.6526728 -0.4207364 5
3.990339 1.8418397 -0.41059685 5
3.7966478 2.0991569 -0.4060044 5
3.9974952 -3.416553 1.2112035 14
3.9970555 -2.2177148 1.2217814 15
3.8858809 2.5995064 1.2408081 15
3.825644 3.8367305 1.3332496 14.5
4.1189604 -7.4299097 -0.4463883 6
4.147119 -2.2278016 -0.42395678 5
4.3026304 -1.9262708 -0.42595398 5
4.2151427 1.4128473 -0.41437724 5
4.3220129 -11.34778 -0.20843454 7
4.1554317 -7.2453008 0.43690911 9
4.2262111 -7.1863279 0.5811336 9.5
4.0731087 -6.0566969 0.63670552 10
4.2229867 -5.9508843 0.63615453 10
4.126924 -4.9792094 0.79118204 11
4.0782971 -6.0631804 0.89565098 11
4.0708113 -5.8696432 0.87529784 11
4.1631079 -4.9240646 0.94108385 11.666667
4.0998015 -4.1378818 1.0028043 12.4
4.1902332 -3.3600881 1.0403929 13
4.0716867 -2.0710869 1.2208872 15
4.1919069 -1.7889174 1.217712 15
4.3506575 -1.3575639 1.2169517 15
4.3492007 1.5129976 1.2237779 15
4.2452569 1.8311675 1.2285112 15
4.0906587 2.1974897 1.2329729 15
4.39574 3.1412611 1.23002 14
4.1643295 3.4739351 1.2344323 14
4.7261486 -7.2461705 -0.45625427 6
4.4194918 -1.6076511 -0.4263562 5
4.5266852 -1.2858276 -0.4280256 5
4.5941582 -0.95335788 -0.42817482 5
4.6351008 -0.61733413 -0.42808184 5
4.6544023 -0.28030455 -0.42819464 5
4.5838366 0.32145718 -0.42425016 5
4.5019026 0.64543128 -0.42107603 5
