# .PCD v0.7 - Point Cloud Data file format
VERSION 0.7
FIELDS x y z intensity
SIZE 4 4 4 4
TYPE F F F F
COUNT 1 1 1 1
WIDTH 1384
HEIGHT 1
VIEWPOINT 0 0 0 1 0 0 0
POINTS 1384
DATA ascii
-29.357761 5.1093779 5.7888627 13
-29.377586 5.5485859 5.807642 13
-29.371653 5.9855084 5.8226271 13
-29.380249 6.4280019 5.8417997 13
-29.391977 6.8742728 5.862936 13
-29.405727 7.324399 5.8858399 13
-29.429422 8.234705 5.9350786 13
-29.444511 8.6967506 5.9625053 13
-29.461843 9.1638689 5.9918652 13
-29.472015 9.6333351 6.021277 13
-29.475548 10.105255 6.0508571 13
-29.488613 10.585373 6.083962 13
-29.515787 11.076141 6.1216073 13
-29.529015 12.059506 6.1933813 13
-29.530602 12.557944 6.2307782 13
-29.556036 13.073095 6.2749996 13
-29.576578 13.593329 6.3200555 13
-29.587009 14.116249 6.3648572 13
-29.20628 1.2589246 6.7480884 14
-29.230328 2.1022098 6.7642198 14
-29.259329 2.5270634 6.7783446 14
-29.251484 2.9500928 6.7853632 14
-29.596319 14.646136 6.4113684 13
-29.229843 -49.09679 7.0620718 11
-29.274782 3.3777151 6.8010464 14
-29.283421 3.8055308 6.8147812 14
-29.302975 4.2367759 6.8325243 14
-29.331476 5.1046977 6.870028 14
-29.323153 5.5381875 6.8857574 14
-29.347519 5.9804611 6.9107013 14
-29.341299 6.4193373 6.9300046 14
-29.35955 6.8665323 6.9566679 14
-29.38644 7.3194237 6.9870157 14
-29.38777 7.769588 7.0129342 14
-29.410213 8.686408 7.0745358 14
-29.43577 9.1555262 7.1113968 14
-29.430332 9.619462 7.1425524 14
-29.455965 10.098275 7.183064 14
-29.45985 10.574763 7.2201457 14
-29.496267 11.554399 7.3071256 14
-29.509212 12.051072 7.3523202 14
-29.537228 12.560392 7.4033618 14
-29.532516 13.062304 7.4483232 14
-29.544415 13.578135 7.4996338 14
-29.572432 14.108858 7.5573106 14
-29.204971 2.1003499 7.8441 15
-29.231224 2.5245912 7.8597951 15
-29.231808 2.9480548 7.8702455 15
-29.252329 3.3750606 7.8877358 15
-29.282042 4.2336659 7.9247484 15
-29.288725 4.6649027 7.9436145 15
-29.291531 5.0976386 7.9631634 15
-29.301695 5.5340171 7.9864702 15
-29.571976 14.633628 7.6100383 14
-29.313538 5.9734044 8.0120211 15
-29.336615 6.8610115 8.0684309 15
-29.356392 7.3117695 8.1017056 15
-29.361622 7.7624903 8.1328716 15
-29.37191 8.2182131 8.1673765 15
-29.401653 8.6836605 8.2092905 15
-29.407003 9.1463451 8.2464266 15
-29.415331 9.6143074 8.286459 15
-29.431187 10.089513 8.3307209 15
-29.443932 10.568763 8.3762741 15
-29.475925 11.546104 8.4759598 15
-29.481005 12.039207 8.5261326 15
-29.495153 12.542134 8.581316 15
-29.486481 13.041553 8.632287 15
-29.518215 13.565679 8.6976156 15
-29.538576 14.092262 8.7622547 15
-29.22839 -49.096386 9.096323 12
-29.547916 14.621253 8.8263264 15
-28.817234 -15.83655 0.58898079 8
-28.835949 -15.312044 0.58438516 8
-28.83481 -14.78475 0.57957363 8
-28.863243 -14.279832 0.57553864 8
-28.878946 -13.775148 0.57142329 8
-28.894613 -13.276865 0.56747729 8
-28.928419 -12.29928 0.56012625 8
-28.951225 -11.821179 0.55680293 8
-28.938831 -11.334201 0.55295587 8
-28.979713 -10.873013 0.55027699 8
-28.993166 -10.405753 0.54722011 8
-28.998108 -9.9399738 0.54414612 8
-29.013334 -9.4819756 0.5414058 8
-29.145458 -5.9389896 0.52437627 8
-29.144009 -5.504137 0.5224824 8
-29.158159 -5.0743852 0.5209859 8
-29.164518 -4.6451244 0.51946712 8
-29.179243 -4.2188444 0.51821351 8
-29.19722 -3.7943263 0.51713198 8
-29.110992 -5.931911 1.5620973 9
-29.107285 -5.4971476 1.5571153 9
-29.134951 -5.0702944 1.5541556 9
-29.152685 -4.6431899 1.5510035 9
-29.154696 -4.2152476 1.5473522 9
-29.169258 -3.7906487 1.5447029 9
-29.192261 -3.3681841 1.54283 9
-28.805876 -15.296077 1.7236148 9
-28.816719 -14.775471 1.7109692 9
-28.836231 -14.266456 1.6993666 9
-28.873587 -13.267181 1.6775761 9
-28.891109 -12.77616 1.6673425 9
-28.897886 -12.286262 1.6569613 9
-28.929646 -11.812327 1.6484703 9
-28.918705 -11.326273 1.6379927 9
-28.950998 -10.862192 1.6304035 9
-28.962645 -10.394745 1.6220716 9
-28.977678 -9.9329185 1.6143465 9
-29.000093 -9.4775944 1.6074368 9
-28.84186 -13.252576 2.7891216 10
-28.865273 -12.764703 2.7729559 10
-28.904787 -11.802137 2.7422249 10
-28.912542 -11.323816 2.7268384 10
-28.920597 -10.850738 2.7122099 10
-28.937981 -10.385843 2.6991653 10
-28.937189 -9.9189854 2.6851196 10
-28.972792 -9.4686174 2.6751242 10
-29.08301 -5.9261527 2.601754 10
-29.105583 -5.4967732 2.5960622 10
-29.111307 -5.0661268 2.5894365 10
-29.133337 -4.6400585 2.5848265 10
-29.135513 -4.2124271 2.5790129 10
-29.150345 -3.7881465 2.5748758 10
-29.168526 -3.3654051 2.5715816 10
-29.197205 -2.5217032 2.565948 10
-28.805048 -14.251014 2.8248312 10
-28.821489 -13.747705 2.8063748 10
-29.187706 -2.0991373 3.5946913 11
-29.191231 -1.6784947 3.5914421 11
-29.196623 -1.2585207 3.5891716 11
-28.825607 -13.245085 3.9071639 11
-28.858086 -12.269272 3.8613718 11
-28.870405 -11.788056 3.8395619 11
-28.881739 -11.311706 3.8186607 11
-28.909269 -10.84644 3.8009057 11
-28.922176 -10.38012 3.7822068 11
-28.929497 -9.916297 3.7637472 11
-28.94804 -9.4604721 3.747695 11
-29.056684 -5.9207325 3.6460035 11
-29.074694 -5.4908843 3.6376154 11
-29.078615 -5.0603852 3.6282637 11
-29.098267 -4.6344223 3.6216662 11
-29.115892 -4.2095437 3.6155934 11
-29.127094 -3.7850809 3.6094964 11
-29.131186 -3.3610556 3.6032896 11
-29.153307 -2.9401298 3.6000741 11
-29.035553 -5.9163709 4.6982155 12
-29.042755 -5.4847975 4.6857767 12
-29.052162 -5.0557289 4.6747251 12
-29.085205 -4.6322918 4.6684875 12
-29.1029 -4.2076168 4.6607809 12
-29.092756 -3.7805746 4.649621 12
-29.116425 -3.3593116 4.644855 12
-29.137438 -2.9384925 4.6406431 12
-29.16118 -2.0972011 4.6322231 12
-29.162754 -1.676833 4.6278291 12
-29.172689 -1.2574705 4.6257262 12
-29.186678 -0.83845401 4.6252246 12
-28.800037 -13.233309 5.0319829 12
-28.820147 -12.744686 5.0025883 12
-28.831577 -12.257964 4.9730911 12
-28.851114 -11.78014 4.9463611 12
-28.860184 -11.303222 4.9191699 12
-28.872929 -10.832756 4.8939137 12
-28.894705 -10.37021 4.8714547 12
-28.899166 -9.9058456 4.8473186 12
-28.914694 -9.4495192 4.826262 12
-28.846344 -10.822734 5.9984074 13
-28.861286 -10.358164 5.9695625 13
-28.883146 -9.9003 5.9436588 13
-28.890314 -9.4414959 5.9162202 13
-29.023722 -5.9139037 5.7624755 13
-29.037733 -5.4837942 5.7486558 13
-29.043949 -5.0542479 5.7345543 13
-29.072548 -4.6302242 5.7261133 13
-29.080616 -4.2043476 5.7148566 13
-29.0732 -3.7779877 5.7017884 13
-29.110067 -2.9356937 5.6894236 13
-29.128136 -2.5156374 5.6849618 13
-29.136042 -2.0953639 5.6797023 13
-29.152168 -1.6761998 5.6772294 13
-29.158751 -1.2568502 5.6740766 13
-29.177055 -0.83816385 5.6743803 13
-29.195601 8.7265726e-05 5.6750011 13
-28.818701 -11.766865 6.0612755 13
-28.82778 -11.290483 6.0280504 13
-29.0497 -4.6265335 6.7949185 14
-29.045494 -4.1992197 6.7787685 14
-29.056009 -3.7757082 6.7675114 14
-29.071486 -3.3540428 6.7588444 14
-29.085382 -2.9331665 6.7512355 14
-29.102037 -2.5133491 6.7456818 14
-29.117178 -2.0939772 6.7411828 14
-29.124405 -1.6745793 6.7362576 14
-29.1462 -0.83726382 6.7322955 14
-29.163204 -0.41882437 6.7338166 14
-29.168367 8.8624234e-05 6.7339973 14
-29.187218 0.4191891 6.7387314 14
-29.187943 0.83849233 6.7406764 14
-28.812277 -11.284365 7.1538653 14
-28.822567 -10.813762 7.1167192 14
-28.851824 -10.354716 7.0860915 14
-28.867321 -9.8948193 7.0538635 14
-28.863346 -9.4326239 7.0186663 14
-28.986046 -5.9061675 6.834353 14
-29.006617 -5.4778609 6.8195786 14
-29.012379 -5.0486979 6.802815 14
-28.969082 -5.9026518 7.9266276 15
-28.965048 -5.4699535 7.9028425 15
-29.00325 -5.0470557 7.8923054 15
-29.000978 -4.6187215 7.8724585 15
-29.017883 -4.195179 7.8595185 15
-29.033989 -3.7728007 7.8480396 15
-29.050697 -3.3516014 7.8383818 15
-29.069569 -2.9315326 7.830956 15
-29.084558 -2.0916016 7.814898 15
-29.095612 -1.6728984 7.8102708 15
-29.119814 -1.2551329 7.8107905 15
-29.119482 -0.83648235 7.8063464 15
-29.139126 -0.41847068 7.8088746 15
-29.150845 8.9907764e-05 7.8108926 15
-29.181139 0.41909653 7.8195043 15
-29.18453 1.2579669 7.8262596 15
-29.19475 1.6786627 7.8343625 15
-28.812504 -10.80994 8.2553797 15
-28.823999 -10.344676 8.2148523 15
-28.841255 -9.8858318 8.1780605 15
-28.856998 -9.4304914 8.1428785 15
-28.411436 -27.84161 0.72129846 8
-28.425175 -27.066103 0.71131968 8
-28.458891 -26.329618 0.70223892 8
-28.484669 -25.604364 0.69333595 8
-28.503172 -24.890511 0.68461716 8
-28.537458 -24.207218 0.67661983 8
-28.558573 -23.528542 0.66863734 8
-28.576391 -22.862501 0.66089153 8
-28.600359 -22.215866 0.65358973 8
-28.625378 -21.583611 0.64659882 8
-28.63575 -20.953465 0.63955498 8
-28.646477 -20.33639 0.63278979 8
-28.682449 -19.748856 0.62683666 8
-28.710896 -19.166779 0.62096065 8
-28.712753 -18.577734 0.61474544 8
-28.738472 -18.014442 0.60927165 8
-28.781837 -16.910593 0.59880006 8
-28.786362 -16.361956 0.59351933 8
-28.508316 -24.182739 1.9824274 9
-28.526976 -23.502729 1.9596505 9
-28.544117 -22.836878 1.9376926 9
-28.562489 -22.186625 1.9167041 9
-28.59478 -21.560694 1.8974866 9
-28.604864 -20.930998 1.8776027 9
-28.630083 -20.324871 1.8594927 9
-28.65172 -19.727795 1.8418913 9
-28.671122 -19.140308 1.8248647 9
-28.713728 -17.998985 1.7930911 9
-28.737019 -17.444019 1.7782981 9
-28.742493 -16.887505 1.7630261 9
-28.770105 -16.352734 1.7497131 9
-28.796055 -15.824924 1.7368697 9
-28.419161 -26.293196 2.0543575 9
-28.448198 -25.571884 2.0293069 9
-28.480194 -24.870724 2.0055072 9
-28.542091 -22.170956 3.1831052 10
-28.551203 -21.527983 3.1489067 10
-28.59136 -20.921259 3.1194654 10
-28.611311 -20.311666 3.0890839 10
-28.625769 -19.710026 3.0593534 10
-28.646212 -19.123764 3.0314603 10
-28.686054 -17.981695 2.9789488 10
-28.704632 -17.424402 2.9541695 10
-28.720087 -16.874376 2.930099 10
-28.749916 -16.341282 2.9084806 10
-28.764706 -15.807708 2.8862939 10
-28.79417 -14.763905 2.8446848 10
-28.404087 -26.279591 3.4106898 10
-28.421295 -25.548002 3.3679557 10
-28.45118 -24.845655 3.3284731 10
-28.478115 -24.157368 3.2902966 10
-28.498386 -23.479395 3.252943 10
-28.518721 -22.816761 3.2171237 10
-28.760347 -14.746554 3.9820485 11
-28.786057 -14.241605 3.956466 11
-28.799397 -13.737146 3.9303634 11
-28.559967 -20.898424 4.3650889 11
-28.573362 -20.28484 4.3217525 11
-28.609812 -19.699141 4.2836199 11
-28.630989 -19.113691 4.2448401 11
-28.649397 -18.536953 4.2072492 11
-28.6712 -17.972443 4.171699 11
-28.680353 -17.409708 4.135807 11
-28.703394 -16.864603 4.1033635 11
-28.728235 -16.328983 4.0725522 11
-28.749859 -15.266338 4.0109591 11
-28.400723 -25.529821 4.7134042 11
-28.425039 -24.823107 4.6573944 11
-28.446321 -24.130646 4.6032209 11
-28.470444 -23.456598 4.5517397 11
-28.495319 -22.798235 4.5024986 11
-28.512297 -22.147984 4.4540524 11
-28.537876 -21.518095 4.4089079 11
-28.746628 -15.264627 5.1691761 12
-28.737293 -14.734732 5.1285005 12
-28.765339 -14.231346 5.0960898 12
-28.547396 -20.266527 5.5641637 12
-28.580946 -19.679365 5.5146317 12
-28.593927 -19.089029 5.4632626 12
-28.6096 -18.511271 5.4144855 12
-28.637405 -17.951313 5.369987 12
-28.656326 -17.395172 5.3257217 12
-28.68903 -16.306719 5.2417383 12
-28.710272 -15.777818 5.2032652 12
-28.407476 -24.097942 5.9231286 12
-28.432095 -23.42522 5.8571043 12
-28.462593 -22.772249 5.7950072 12
-28.484203 -22.126341 5.733705 12
-28.511749 -21.49855 5.6761012 12
-28.522833 -20.871387 5.61764 12
-28.688221 -15.765713 6.3775907 13
-28.706692 -15.243425 6.3319616 13
-28.722542 -14.727166 6.2877388 13
-28.744417 -14.220983 6.246758 13
-28.749191 -13.713161 6.2039394 13
-28.774382 -13.221497 6.1673512 13
-28.791861 -12.241041 6.0923858 13
-28.550945 -19.658815 6.7566614 13
-28.571779 -19.074333 6.6956573 13
-28.586782 -18.49658 6.6358137 13
-28.621984 -17.94171 6.5830765 13
-28.632601 -17.380814 6.5270114 13
-28.663834 -16.292421 6.4239459 13
-28.405937 -23.403904 7.1766524 13
-28.437706 -22.752546 7.1009765 13
-28.452742 -22.102083 7.0243258 13
-28.489033 -21.481585 6.9559875 13
-28.506998 -20.859941 6.886096 13
-28.519222 -20.246647 6.8176875 13
-28.785639 -11.753321 7.1888318 14
-28.679459 -15.228971 7.5108275 14
-28.69742 -14.714279 7.4589992 14
-28.713692 -14.205769 7.4090171 14
-28.73377 -13.705785 7.3622308 14
-28.759651 -13.214701 7.319066 14
-28.763092 -12.719391 7.2722878 14
-28.56353 -18.481615 7.8718576 14
-28.579636 -17.915226 7.8041596 14
-28.602476 -17.362576 7.7410851 14
-28.621136 -16.816374 7.6795568 14
-28.637009 -16.277199 7.6198826 14
-28.432487 -22.086529 8.3331356 14
-28.442739 -21.446833 8.2445908 14
-28.478752 -20.839409 8.1670113 14
-28.497593 -20.231413 8.0878286 14
-28.516672 -19.635319 8.01196 14
-28.76021 -12.22751 8.3848839 15
-28.775547 -11.749159 8.3388901 15
-28.793867 -11.277109 8.2959995 15
-28.401865 -22.724066 8.4193726 14
-28.632088 -15.734893 8.768795 15
-28.663498 -15.220498 8.7101498 15
-28.664509 -14.697397 8.6449986 15
-28.694807 -14.196411 8.5913382 15
-28.703564 -13.691358 8.5337868 15
-28.721792 -13.197276 8.4815636 15
-28.550493 -18.473255 9.1293631 15
-28.573036 -17.344748 8.9726725 15
-28.594248 -16.80061 8.9022169 15
-28.605865 -16.259518 8.8317976 15
-28.421715 -21.431137 9.5586252 15
-28.450268 -20.818708 9.4662657 15
-28.470032 -20.211969 9.3748579 15
-28.493605 -19.619543 9.2884464 15
-28.518526 -19.038961 9.2060604 15
-28.231167 -32.886189 0.78823221 8
-28.270626 -31.991074 0.77607363 8
-28.295471 -31.107424 0.76405388 8
-28.324827 -30.255369 0.75267088 8
-28.343094 -29.416719 0.74148279 8
-28.384338 -28.625389 0.73135811 8
-28.247961 -49.029266 1.033583 8
-28.012342 -38.971615 0.87494022 8
-28.062851 -37.882038 0.85913217 8
-28.084045 -36.794071 0.84320229 8
-28.1255 -35.771481 0.82861465 8
-28.158882 -34.774479 0.81447244 8
-28.198626 -33.818905 0.80115306 8
-28.127354 -34.736351 2.3756988 9
-28.171276 -33.786854 2.3378425 9
-28.191475 -32.840637 2.2997913 9
-28.232393 -31.948444 2.2651114 9
-28.260662 -31.069738 2.2309883 9
-28.293652 -30.222601 2.1987343 9
-28.321772 -29.395077 2.1675174 9
-28.350222 -28.591427 2.137675 9
-28.378952 -27.810186 2.1091278 9
-28.399477 -27.042007 2.0811892 9
-28.017452 -37.821785 2.5028183 9
-28.052771 -36.754059 2.4582469 9
-28.090044 -35.72728 2.4159741 9
-28.253872 -49.041649 3.0120275 9
-28.288399 -29.360929 3.5951958 10
-28.311451 -28.552773 3.5452676 10
-28.341763 -27.774147 3.4983695 10
-28.375235 -27.019297 3.45386 10
-28.107054 -34.712112 3.9408481 10
-28.137342 -33.74691 3.8763931 10
-28.167421 -32.813309 3.8148651 10
-28.204874 -31.917934 3.757107 10
-28.227552 -31.03392 3.7000103 10
-28.266424 -30.194056 3.6475198 10
-28.029518 -36.724579 4.0769176 10
-28.061543 -35.691921 4.0062685 10
-28.376276 -26.254204 4.7718349 11
-28.252855 -49.042 4.9975729 10
-28.199284 -31.003429 5.1755848 11
-28.232105 -30.157934 5.101213 11
-28.260759 -29.332739 5.0293727 11
-28.286432 -28.527988 4.960134 11
-28.303122 -27.736687 4.8923163 11
-28.34605 -26.991879 4.831841 11
-28.061382 -34.656521 5.5084777 11
-28.094662 -33.696472 5.419096 11
-28.140961 -32.783176 5.3362985 11
-28.157822 -31.865322 5.2518034 11
-28.030495 -35.653324 5.6027069 11
-28.398355 -24.800089 5.995286 12
-28.258556 -28.50033 6.3841419 12
-28.289095 -27.723358 6.300046 12
-28.31531 -26.962982 6.218606 12
-28.343584 -26.224291 6.141068 12
-28.364698 -25.497744 6.0652719 12
-28.129349 -31.833746 6.7589669 12
-28.169752 -30.971546 6.6607285 12
-28.195841 -30.119732 6.5635524 12
-28.226902 -29.298088 6.4717784 12
-28.268652 -49.071568 6.9995561 11
-28.033199 -34.622551 7.0890718 12
-28.068291 -33.665611 6.9745903 12
-28.107334 -32.744709 6.8663535 12
-28.312746 -26.196098 7.5229793 13
-28.338161 -25.474203 7.4313455 13
-28.363813 -24.770203 7.3436136 13
-28.386978 -24.080807 7.2589064 13
-28.197136 -29.267691 7.9280519 13
-28.217567 -28.459442 7.8176708 13
-28.249569 -27.685036 7.7151794 13
-28.280575 -26.930279 7.6168256 13
-28.103527 -31.805174 8.2807722 13
-28.126411 -30.924494 8.1554155 13
-28.167488 -30.089989 8.0407963 13
-28.02969 -33.620079 8.5408926 13
-28.072012 -32.704262 8.4094124 13
-28.341461 -24.750965 8.7109699 14
-28.365324 -24.062696 8.6107769 14
-28.384546 -23.386507 8.5133562 14
-28.273914 -49.082855 9.0178909 12
-28.23254 -27.668774 9.1531553 14
-28.243465 -26.895323 9.0301161 14
-28.282545 -26.168505 8.9211111 14
-28.309805 -25.449026 8.8130932 14
-28.129347 -30.049793 9.5321045 14
-28.151949 -29.221291 9.3961658 14
-28.189266 -28.431362 9.2709703 14
-28.025852 -32.651199 9.9660196 14
-28.066706 -31.76416 9.816905 14
-28.100159 -30.896231 9.671998 14
-28.330702 -24.033579 9.9781322 15
-28.349468 -23.357838 9.8651428 15
-28.381519 -22.708 9.7613697 15
-28.390316 -22.053949 9.6540289 15
-28.303989 -24.718531 10.093153 15
-27.977196 -38.923855 2.5492127 9
-27.945597 -38.881039 4.2261062 10
-27.984106 -37.777828 4.1491327 10
-27.90411 -38.824455 5.9075489 11
-27.952023 -37.735573 5.8020263 11
-27.990408 -36.674301 5.6997361 11
-27.918928 -37.691963 7.4652562 12
-27.955391 -36.629395 7.3332295 12
-27.999538 -35.614849 7.2095318 12
-27.877794 -38.789013 7.6027889 12
-27.992947 -34.573669 8.6804934 13
-27.887506 -37.650612 9.1437883 13
-27.926191 -36.592129 8.9828596 13
-27.963711 -35.57019 8.8293161 13
-27.84219 -38.740631 9.3107758 13
-27.299751 -48.996181 1.0246993 8
-27.312593 -49.021461 2.9865825 9
-27.311047 -49.020931 4.9551458 10
-27.316626 -49.033195 6.9376159 11
-27.318882 -49.039513 8.9371347 12
-26.371124 -48.969772 1.0162835 8
-26.376509 -48.982121 2.9609723 9
-26.37705 -48.985485 4.9129448 10
-26.385857 -49.004211 6.8793764 11
-26.391693 -49.017448 8.8633175 12
-25.457434 -48.943214 1.0081773 8
-25.459824 -48.950283 2.9367871 9
-25.468607 -48.969662 4.8743243 10
-25.468891 -48.972698 6.823061 11
-25.469553 -48.976498 8.7890329 12
-24.562963 -48.926483 1.0005797 8
-24.563528 -48.930214 2.9142442 9
-24.567667 -48.94109 4.8359952 10
-24.562593 -48.933601 6.767909 11
-24.568108 -48.94725 8.7197113 12
-23.670591 -48.88665 0.99280429 8
-23.676907 -48.902458 2.8921428 9
-23.679638 -48.910862 4.7990193 10
-23.67972 -48.913799 6.7175584 11
-23.685726 -48.929028 8.655097 12
-22.800529 -48.868717 2.8705659 9
-22.805328 -48.881927 4.7636418 10
-22.806396 -48.887146 6.6683254 11
-22.807211 -48.891857 8.589797 12
-22.797386 -48.85907 0.98556501 8
-22.00411 -4.8134756 1.9746529 10
-22.03451 -4.8200836 2.7734358 11
-22.061594 -4.8259659 3.5807521 12
-22.081358 -4.8302474 4.3975487 13
-22.101667 -4.8346462 5.2270732 14
-22.143476 -4.843749 6.0774593 15
-21.963234 -4.8046169 0.39660543 8
-21.933949 -48.825615 0.97848415 8
-21.975828 -4.8073287 1.1830271 9
-21.948683 -48.861507 2.8513911 9
-21.94277 -48.851421 4.729537 10
-21.946476 -48.862766 6.6213965 11
-21.944601 -48.861717 8.5283318 12
-21.158417 -6.2480917 0.39064419 8
-21.168072 -5.921948 0.3889176 8
-21.184082 -5.4377198 0.38654321 8
-21.197754 -4.9570231 0.38430923 8
-21.08783 -48.804451 0.97191727 8
-21.150475 -6.2457042 1.1612141 9
-21.148439 -5.9164138 1.1560291 9
-21.173729 -5.4349189 1.150347 9
-21.183306 -4.9536028 1.1443459 9
-21.141489 -6.2430105 1.9339486 10
-21.116312 -5.907382 1.9234017 10
-21.159594 -5.4313116 1.9158746 10
-21.179869 -4.9527574 1.9071338 10
-21.106285 -6.2325697 2.7074118 11
-21.116199 -5.9073076 2.6972425 11
-21.146189 -5.4278684 2.6851771 11
-21.154081 -4.9466829 2.6715367 11
-21.089346 -48.811203 2.8305235 9
-21.088911 -6.2273965 3.4879258 12
-21.098267 -5.9022484 3.4748185 12
-21.123722 -5.4220457 3.4586604 12
-21.145258 -4.9445772 3.443439 12
-21.081453 -6.2251515 4.2778754 13
-21.087368 -5.8991547 4.261169 13
-21.110758 -5.4186945 4.2410407 13
-21.121895 -4.9390693 4.2203965 13
-21.094103 -48.825481 4.6972556 10
-21.048809 -6.215467 5.0720201 14
-21.079493 -5.8969078 5.0582128 14
-21.082691 -5.4113903 5.0295787 14
-21.096676 -4.9331288 5.0058579 14
-21.039528 -6.2126818 5.8832264 15
-21.063168 -5.8922958 5.8652964 15
-21.074059 -5.4092159 5.8342977 15
-21.095001 -4.9326935 5.8087583 15
-21.094446 -48.829544 6.5752139 11
-21.100548 -48.846989 8.4720516 12
-20.253897 -48.786041 0.96566325 8
-20.245598 -48.769459 2.8109655 9
-20.258154 -48.803181 4.6666603 10
-20.257185 -48.804317 6.5319963 11
-20.261543 -48.818329 8.4157743 12
-16.391905 8.4092703 0.31717557 8
-16.387075 8.4065285 0.96101969 9
-16.379541 8.4024067 1.6065603 10
-16.37154 8.3980389 2.255379 11
-16.369032 8.3964911 2.9101107 12
-16.353262 8.3881378 3.5690134 13
-16.346327 8.3843088 4.2379422 14
-16.333765 8.377594 4.915484 15
-15.860559 8.4267673 0.30918345 8
-15.857093 8.4246597 0.93693101 9
-15.847419 8.4192553 1.5660725 10
-15.846621 8.4185648 2.1995132 11
-15.8247 8.4066515 2.8345439 12
-15.832704 8.4106293 3.4814496 13
-15.824684 8.4060936 4.1336298 14
-15.807484 8.396677 4.7929668 15
-15.355172 8.4434338 0.30165115 8
-15.350243 8.4404526 0.91405225 9
-15.338428 8.4336843 1.5275991 10
-15.332996 8.4304266 2.1448345 11
-15.328986 8.4279451 2.767185 12
-15.322523 8.4241152 3.3955722 13
-15.318357 8.4215412 4.0326118 14
-15.311805 8.4176531 4.6789207 15
-14.878259 8.4619246 0.29463387 8
-14.85224 8.4468536 0.89153916 9
-14.864767 8.4536972 1.4923855 10
-14.852346 8.4463568 2.0943866 11
-14.839446 8.4387388 2.7004616 12
-14.83898 8.4381895 3.3149905 13
-14.824252 8.4295273 3.9340765 14
-14.829196 8.432045 4.5680656 15
-14.41115 8.4726791 0.28776523 8
-14.387686 8.4586048 0.87087107 9
-14.385067 8.4567823 1.4562985 10
-14.391407 8.4602222 2.0463529 11
-14.380116 8.4532986 2.6387498 12
-14.369114 8.4465437 3.2368588 13
-14.369328 8.446373 3.8452237 14
-14.375198 8.4495211 4.4652262 15
-13.963611 8.4819775 0.2812407 8
-13.947825 8.4721022 0.85154635 9
-13.951818 8.4742365 1.4246478 10
-13.955851 8.4763908 2.0015726 11
-13.948218 8.4714613 2.5816176 12
-13.925013 8.4570751 3.163929 13
-13.940928 8.4664373 3.762821 14
-13.936628 8.4635172 4.3664036 15
-13.55092 8.5003271 0.27537346 8
-13.545333 8.4965277 0.83436501 9
-13.537928 8.4915857 1.3947357 10
-13.536808 8.4905853 1.9588158 11
-13.531843 8.4871712 2.5269208 12
-13.524733 8.4824085 3.1004202 13
-13.51333 8.4749508 3.6799762 14
-13.513472 8.4747267 4.2716289 15
-13.141336 8.5090647 0.26952705 8
-13.131362 8.502306 0.81633872 9
-13.12604 8.498559 1.3647856 10
-13.125425 8.4978552 1.9168141 11
-13.11981 8.4939146 2.4725819 12
-13.113772 8.4896955 3.0339406 13
-13.115252 8.4903374 3.6045074 14
-13.109468 8.4862719 4.1821322 15
-12.75033 8.5181952 0.80021513 9
-12.736822 8.5085526 1.8777848 11
-12.725267 8.5002031 2.9720912 13
-12.720738 8.4968586 3.5293667 14
-12.721369 8.4969511 4.0969524 15
-12.197254 8.5338764 0.25635985 8
-12.012839 8.5349989 0.76910257 9
-12.198614 8.5341492 1.2995137 10
-12.376942 8.5279751 1.8426691 11
-12.186655 8.5251637 2.3530834 12
-12.354355 8.5117722 2.9138155 13
-12.364738 8.5185947 3.4642951 14
-12.346717 8.5058498 4.0153542 15
-11.677404 8.5522804 0.24931704 8
-11.673188 8.5488653 0.7551986 9
-11.678789 8.5526304 1.2636071 10
-11.653975 8.5341368 1.7709774 11
-11.660301 8.5384283 2.2866373 12
-11.659871 8.537776 2.8069344 13
-11.988275 8.5159092 3.3928623 14
-11.819146 8.5227308 3.9027214 15
-11.345682 8.5626678 0.2448846 8
-11.33323 8.5529366 0.74114072 9
-11.345341 8.5617313 1.240785 10
-11.334076 8.5528936 1.7409438 11
-11.319934 8.5418854 2.2438257 12
-11.329276 8.5485821 2.756742 13
-11.326722 8.5463028 3.2740302 14
-11.018173 8.5669279 0.24050176 8
-11.021049 8.5688181 0.72876745 9
-11.016876 8.5652266 1.2182758 10
-11.003985 8.554862 1.7090377 11
-11.007147 8.5569677 2.2060704 12
-11.007455 8.5568504 2.7081859 13
-11.003766 8.5536242 3.2159994 14
-10.994421 8.5459986 3.729795 15
-10.416578 8.5910282 0.23278514 8
-10.557525 8.5790348 0.71027374 9
-10.412268 8.586751 1.1783942 10
-10.550413 8.5726318 1.6670195 11
-10.406416 8.5811949 2.1344416 12
-10.696716 8.5648336 2.6618576 13
-10.546128 8.5680637 3.1356406 14
-10.698081 8.5651817 3.6707742 15
-10.117109 8.5914803 0.22889698 8
-10.12038 8.5938845 0.6933012 9
-10.168407 -48.445263 0.90300053 8
-10.114154 8.5882311 1.158597 10
-10.113213 8.58706 1.6269963 11
-10.109567 8.5835886 2.0987558 12
-10.169067 -48.456772 2.6338527 9
-10.392149 8.5690651 2.6165633 13
-10.102521 8.5768442 3.0582719 14
-10.107632 8.5807886 3.5516386 15
-10.384686 8.5621595 3.6052363 15
-10.166217 -48.451576 4.37044 10
-10.169191 -25.513014 5.3610969 13
-10.169544 -48.475929 6.1211038 11
-10.171515 -25.520842 6.3653421 14
-10.171859 -25.523724 7.3851171 15
-10.169024 -48.481979 7.8856888 12
-9.8357344 8.5990419 0.22537646 8
-9.736414 -25.474461 0.49808222 8
-9.8313837 8.5944843 1.1403333 10
-9.7390718 -25.483446 1.451731 9
-9.8368626 8.5985031 2.0676999 12
-9.7347393 -25.474115 2.4078548 10
-9.8317022 8.5936041 2.5368583 13
-9.8242521 8.5867043 3.0112209 14
-9.7393723 -25.488297 3.3722885 11
-9.8320026 8.5930719 3.4979701 15
-9.7386761 -25.488533 4.3437543 12
-9.7428217 -25.501478 5.3287373 13
-9.7434139 -25.50514 6.3258982 14
-9.7431822 -25.506683 7.3389726 15
-9.4400816 8.6185102 0.22062871 8
-9.3149614 -25.46139 0.4951233 8
-9.433136 8.6117048 0.66719651 9
-9.4405699 -48.425396 0.89970905 8
-9.4389 8.6167526 1.1162304 10
-9.3153362 -25.464556 1.4428575 9
-9.4258213 8.6043653 1.5653995 11
-9.3174639 -25.472532 2.3947923 10
-9.4281483 8.6059723 2.0204568 12
-9.441679 -48.440254 2.6250212 9
-9.4279795 8.6054239 2.4801245 13
-9.5563622 8.5980616 2.9668226 14
-9.3222675 -25.487854 3.3541605 11
-9.2923069 8.6050549 3.39289 15
-9.4417133 -48.449635 4.3573012 10
-9.3204126 -25.484962 4.3198853 12
-9.3179016 -25.480295 5.2958074 13
-9.4378195 -48.438873 6.0984039 11
-9.3218689 -25.493401 6.2891426 14
-9.3234682 -25.500059 7.2978058 15
-9.4377708 -48.44796 7.8570275 12
-9.4395237 -48.466427 9.6378012 13
-8.842968 -4.8564601 -0.17161952 7
-8.9007425 -4.0874486 -0.16723973 7
-8.9223032 -3.3458951 -0.16333368 7
-8.9214287 -2.6335497 -0.16005793 7
-8.8949795 -1.9452397 -0.1572689 7
-8.8687258 -1.2819024 -0.15535109 7
-8.8035631 -0.63302839 -0.15356153 7
-9.0475836 8.6263018 0.21588361 8
-8.8964758 -25.443132 0.49218473 8
-9.0460911 8.6244726 0.65298331 9
-9.0453682 8.6233788 1.0916077 10
-8.9016428 -25.46022 1.4351816 9
-9.0567846 8.6338406 1.5348768 11
-8.8959646 -25.44623 2.3800325 10
-9.0374622 8.6146069 2.4259696 13
-9.039875 8.6164818 2.8824954 14
-8.8996792 -25.459177 3.3332009 11
-9.0343409 8.6107817 3.343708 15
-8.9038153 -25.47336 4.2957888 12
-8.9053116 -25.480001 5.2686157 13
-8.9030323 -25.475849 6.2526264 14
-8.9079361 -25.492331 7.2582397 15
-8.4982128 -7.4142337 -0.1898964 7
-8.6525946 -6.5186734 -0.18298987 7
-8.7672033 -5.6683555 -0.1769523 7
-8.7383947 2.2812468e-05 -0.15254055 7
-8.6344404 0.62100011 -0.15158065 7
-8.5082207 1.2303227 -0.15094578 7
-8.675992 8.6361876 0.21154346 8
-8.4849911 -25.431807 0.48949841 8
-8.6710882 8.6308279 0.63933927 9
-8.7168207 -48.402493 0.89654028 8
-8.6766672 8.6360512 1.0694889 10
-8.4864559 -25.438635 1.4268974 9
-8.6703606 8.629262 1.5007319 11
-8.6686106 8.6270666 1.9360555 12
-8.4820633 -25.427874 2.366637 10
-8.672637 8.6306295 2.3776016 13
-8.7143908 -48.399052 2.6154211 9
-8.6672001 8.6247559 2.8224707 14
-8.4847765 -25.438475 3.3141625 11
-8.6647224 8.6219263 3.2751369 15
-8.7155762 -48.415752 4.3422399 10
-8.4914713 -25.461067 4.2726836 12
-8.4883146 -25.454084 5.2374921 13
-8.7136908 -48.41544 6.0787706 11
-8.4896936 -25.460764 6.2183471 14
-8.4888573 -25.460831 7.2138095 15
-8.713973 -48.427288 7.8322759 12
-8.7159977 -48.448959 9.6081562 13
-8.0757113 -9.3964605 -0.20750804 7
-8.3105249 -8.3724508 -0.19806558 7
-8.3780394 1.8333817 -0.15095009 7
-8.2317247 2.4320765 -0.15138032 7
-8.0385494 3.0178194 -0.1516684 7
-8.3165951 8.6444378 0.20742582 8
-8.0803175 -25.428572 0.48708189 8
-8.0854168 8.6494064 0.61896938 9
-8.2002935 8.6455097 1.0412199 10
-8.0750284 -25.41448 1.4188302 9
-8.0862799 8.6494312 1.4528764 11
-8.2036314 8.6481256 1.8872529 12
-8.0800829 -25.433023 2.3560214 10
-8.084239 8.6463356 2.3004591 13
-8.1874905 8.6302996 2.7462897 14
-8.07829 -25.429985 3.2975583 11
-8.3108978 8.6354046 3.2113628 15
-8.077322 -25.429573 4.247458 12
-8.0808229 -25.443285 5.2108254 13
-8.0806208 -25.445356 6.1855812 14
-8.0836945 -25.457813 7.179307 15
-7.7916951 -10.504397 -0.21859095 7
-7.8658838 3.6170764 -0.15309684 7
-7.6337366 4.1990743 -0.15415615 7
-7.754456 8.6624327 0.20129696 8
-7.6714883 -25.399076 0.48427394 8
-7.7590675 8.6671934 0.60831714 9
-7.9960489 -48.371147 0.89339519 8
-7.6467614 8.6666565 1.0101867 10
-7.6750546 -25.413675 1.4124134 9
-7.7456007 8.6511889 1.4250355 11
-7.8585792 8.6516294 1.8506318 12
-7.6753793 -25.417534 2.3440697 10
-7.7431688 8.6475048 2.2561381 13
-7.9974432 -48.390747 2.6081612 9
-7.744112 8.6480942 2.6802089 14
-7.7486386 8.6526947 3.1126816 15
-7.6751747 -25.419657 3.2815328 11
-7.9961219 -48.393936 4.3292098 10
-7.6774058 -25.429886 4.2286105 12
-7.675704 -25.427095 5.1843576 13
-7.9937019 -48.390511 6.0602803 11
-7.9935403 -48.400894 7.8083191 12
-7.9947591 -48.419804 9.5783072 13
-7.4426537 -11.70291 -0.23142993 7
-7.4081588 4.7986269 -0.15618658 7
-7.3259463 8.6735783 0.19679138 8
-7.2727947 -25.389734 0.48196036 8
-7.3250036 8.6720028 0.59383893 9
-7.5418806 22.695518 0.42249963 8
-7.2815747 -48.353046 0.89067072 8
-7.3227062 8.6688623 0.99203014 10
-7.2718868 -25.389523 1.4050373 9
-7.3215399 8.6670218 1.3925955 11
-7.5412951 22.690687 1.2584449 9
-7.3194585 8.664032 1.7962215 12
-7.2729902 -25.396368 2.3321688 10
-7.3254681 8.6704931 2.2064922 13
-7.2819133 -48.367729 2.6006582 9
-7.3197646 8.6632633 2.6188295 14
-7.3166881 8.6592388 3.0383246 15
-7.2749619 -25.406267 3.2659121 11
-7.2814846 -48.377365 4.3175774 10
-7.2744117 -25.407362 4.2069998 12
-7.2757559 -25.415129 5.1600304 13
-7.2800393 -48.38031 6.0449433 11
-7.2800317 -48.392944 7.7890301 12
-7.2792358 -48.400478 9.5524836 13
-7.0168271 -13.008344 -0.24636616 7
-7.1405826 5.3911724 -0.15824592 7
-6.8644376 6.0036769 -0.16112453 7
-7.0219007 8.6880417 0.19379461 8
-6.879849 -25.388634 0.47991005 8
-6.9251976 8.6945333 0.58172369 9
-7.1933179 22.7334 0.42169476 8
-6.8710766 22.851744 0.42247719 8
-6.9162092 8.6826448 0.97067052 10
-6.8781362 -25.385487 1.3991082 9
-6.814218 8.6822319 1.3550061 11
-7.1836605 22.699728 1.253546 9
-6.87743 22.869402 1.2577845 9
-6.9128327 8.6773472 1.757272 12
-6.8777409 -25.38722 2.3219326 10
-6.9199829 8.685853 2.1590793 13
-7.0143743 8.6756506 2.5762591 14
-6.9056411 8.6667538 2.970299 15
-6.8790588 -25.395323 3.2513926 11
-6.8795481 -25.400379 4.188983 12
-6.8784676 -25.399668 5.1362433 13
-6.4992414 -14.441272 -0.26383293 7
-6.5367908 6.6041303 -0.16390863 7
-6.5311046 8.7028542 0.18907239 8
-6.6022635 15.949609 0.30367717 8
-6.4177976 16.157185 0.30613825 8
-6.4336638 -26.766123 0.50203973 8
-6.5290389 8.699502 0.56949914 9
-6.5969276 23.140491 0.42648575 8
-6.5708375 -48.335991 0.888138 8
-6.5306058 8.7010336 0.95157415 10
-6.600492 15.943604 0.90699345 9
-6.4129829 16.143261 0.91330636 9
-6.4111781 -26.676207 1.4592975 9
-6.5239124 8.691534 1.3344485 11
-6.5898581 15.916235 1.5100647 10
-6.4052725 16.122061 1.5209899 10
-6.5917139 23.118599 1.2666129 9
-6.5244422 8.6917553 1.7217171 12
-6.5221386 8.6882143 2.1124094 13
-6.5699677 -48.343578 2.5936384 9
-6.5156703 8.6790304 2.5065234 14
-6.4226289 8.6845694 2.8955472 15
-6.5680447 -48.343452 4.305316 10
-6.5674148 -48.352943 6.0287519 11
-6.5651169 -48.35025 7.765821 12
-6.5662956 -48.373405 9.5271921 13
-6.1982021 7.2351494 -0.16768232 7
-6.153708 8.7113552 0.18558834 8
-6.3785849 -28.324205 0.5293898 8
-6.2423062 8.703311 0.56096137 9
-6.1486902 8.7031794 0.93233073 10
-6.3585382 -28.239412 1.5395604 9
-6.1465178 8.6994534 1.3082291 11
-6.1497283 8.7035961 1.6885685 12
-6.2354217 8.6914425 2.0800979 13
-6.33777 -28.151394 2.5471051 10
-6.3950582 -26.61285 2.4160471 10
-6.1490541 8.7012529 2.4611142 14
-6.1459808 8.6962891 2.8549511 15
-6.3213987 -28.082962 3.5570285 11
-6.3736119 -26.527273 3.3713117 11
-6.3614836 -26.480593 4.3350391 12
-6.2983727 -27.984894 4.565938 12
-6.2800002 -27.907583 5.5832076 13
-6.340785 -26.398155 5.2989802 13
-5.8714552 -16.030424 -0.28443518 7
-5.8139668 7.8669982 -0.17169215 7
-5.8787627 8.7162037 0.18313628 8
-5.7947516 8.7251081 0.54893655 9
-5.7874718 8.7136774 0.91550547 10
-5.7895689 8.7161283 1.2854241 11
-5.7829762 8.7056866 1.6562895 12
-5.7880507 8.7126951 2.0344875 13
-5.86374 -48.338116 2.5881593 9
-5.7577829 8.711566 2.5412664 14.333333
-5.8643241 8.6905727 2.8109503 15
-5.8571124 -48.348099 9.504282 13
-5.3890796 8.5097294 -0.17619182 7
-5.3984919 8.7289686 0.17917925 8
-5.4415703 8.7287531 0.5393647 9
-5.4024973 8.7340574 0.89918655 10
-5.3981209 8.7263832 1.2609168 11
-5.3540292 8.7244091 1.7450244 12.333333
-5.4377222 8.7185574 2.2484546 13.666667
-5.3906522 8.7119236 2.7474415 15
-5.105001 -17.801235 -0.30875471 7
-4.9410954 8.7462635 0.1757708 8
-5.01653 8.7306309 0.52839333 9
-5.1571064 -48.285927 0.88328809 8
-5.0164595 8.7315626 0.88196373 10
-4.935936 8.7348528 1.4120569 11.5
-4.9364762 8.7345591 1.9522083 13
-4.9368253 8.734479 2.3186331 14
-4.9317751 8.7247763 2.6880641 15
-5.1553912 -48.30669 4.2862759 10
-5.154109 -48.313236 6.0020685 11
-5.1518278 -48.310543 7.7316976 12
-4.4120646 -2.0243986 -0.25250044 6
-4.4816856 -1.6794246 -0.24926151 6
-4.5405645 -1.3395317 -0.24687196 6
-4.5676513 -0.99840081 -0.24413469 6
-4.5888758 -0.66302514 -0.24240936 6
-4.5952296 -0.33032933 -0.24116848 6
-4.5648332 0.16394788 -0.23967862 6
-4.4944263 0.64992118 -0.2384977 6
-4.4217215 0.96772856 -0.23792945 6
-4.6964321 8.750494 -0.17300105 7
-4.4178762 9.873208 -0.18760735 7
-4.6964102 8.7497177 0.17398471 8
-4.5706968 9.1362896 0.17927319 8
-4.5852633 9.5038109 0.18531169 8
-4.5908246 9.8749456 0.19139084 8
-4.5989032 10.27545 0.19800854 8
-4.6141176 10.719193 0.20542522 8
-4.69312 8.7428684 0.52098316 9
-4.5690947 9.1322699 0.53641462 9
-4.5768785 9.4855967 0.55338055 9
-4.5835662 9.8584251 0.57136965 9
-4.5882807 10.250754 0.59037459 9
-4.6025472 10.691279 0.61202937 9
-4.4544835 -48.258572 0.88107145 8
-4.6206026 8.7573423 0.86762071 10
-4.5587392 9.1108065 0.89285672 10
-4.5656419 9.4614878 0.92082363 10
-4.5713377 9.8312435 0.95045078 10
-4.5790806 10.229227 0.98260397 10
-4.5930967 10.668274 1.0184807 10
-4.6924372 8.7397327 1.3963904 11.5
-4.5494905 9.0915432 1.2501167 11
-4.5530505 9.4345827 1.2882743 11
-4.5610943 9.8083181 1.3303452 11
-4.5727696 10.214135 1.376465 11
-4.5830026 10.643775 1.4254829 11
-4.6849456 8.7246828 1.9271024 13
-4.5402627 9.0718956 1.7915522 12.5
-4.5429597 9.4128351 1.6577148 12
-4.5554981 9.7953529 1.7134925 12
-4.5648937 10.195551 1.7719667 12
-4.5758677 10.626125 1.8353157 12
-4.6875277 8.7287054 2.28985 14
-4.5204291 9.0311117 2.3343685 14
-4.5372753 9.4001865 2.0315471 13
-4.5493197 9.7811317 2.0996418 13
-4.5556927 10.17401 2.1698213 13
-4.5614367 10.591576 2.2447939 13
-4.4533758 -48.26815 2.5756314 9
-4.6950898 8.7419624 2.6616404 15
-4.5162106 9.021843 2.7064471 15
-4.5276895 9.3790035 2.6002605 14.5
-4.5430818 9.7667675 2.4899442 14
-4.5519991 10.164718 2.5745702 14
-4.5580111 10.582491 2.6636446 14
-4.5272841 9.7319088 2.8794298 15
-4.5372467 10.130792 2.9779594 15
-4.5472541 10.556419 3.0836635 15
-4.4535737 -48.292057 4.2784243 10
-4.4497905 -48.272713 5.9880471 11
-4.4510665 -48.308731 7.719955 12
-4.4487848 -48.306198 9.4661951 13
-4.1741385 -19.831148 -0.33832985 7
-4.0777969 -3.0680387 -0.26453447 6
-4.202652 -2.7140436 -0.25961232 6
-4.3177705 -2.3689065 -0.25586179 6
-4.2937627 1.438352 -0.23842871 6
-4.1329422 1.9014007 -0.23955315 6
-4.0083742 2.2062109 -0.240982 6
-3.7549245 -3.7762463 -0.27557072 6
-3.9257667 -3.4197836 -0.26963574 6
-3.7768197 2.6469772 -0.243057 6
-3.8585901 10.608102 -0.19479711 7
-3.3109689 -4.4529681 -0.28680399 6
-3.544369 -4.1155825 -0.28087115 6
-3.5070674 3.0707901 -0.24538933 6
-3.3194408 3.3582063 -0.248422 6
-3.2249565 11.343355 -0.20237316 7
-3.057265 -4.7936459 -0.29376426 6
-2.8932884 -1.4543678 -0.28195634 5
-3.0212984 -1.010114 -0.27782643 5
-3.088119 -0.56013578 -0.27418312 5
-3.1190052 -0.22414672 -0.27335918 5
-3.0865829 0.11093143 -0.27049923 5
-3.0284929 0.54939556 -0.26995498 5
-2.9143014 0.97657001 -0.26987571 5
-2.9865487 3.759774 -0.25244075 6
-2.4634299 -5.4510355 -0.30904055 6
-2.7751989 -5.127419 -0.30119544 6
-2.4226813 -2.4321287 -0.29792124 5
-2.5978479 -2.1018782 -0.29039067 5
-2.7650259 -1.7835701 -0.2860029 5
-2.7439184 1.384745 -0.27005991 5
-2.5439565 1.7840794 -0.27306479 5
-2.628834 4.1610909 -0.25814089 6
-2.1307988 -5.7874827 -0.31870192 6
-2.1010962 -2.8189778 -0.30496845 5
-2.2562566 -2.6144018 -0.29960641 5
-2.0572195 -1.3254569 -0.29885817 4
-2.201582 -0.96265006 -0.29433742 4
-2.2980781 -0.58877575 -0.2907185 4
-2.3336344 -0.2521798 -0.28807119 4
-2.3190906 0.20885704 -0.28665879 4
-2.2517002 0.57832503 -0.28627929 4
-2.1049676 1.0163232 -0.28849861 4
-2.2916923 2.1601491 -0.27665177 5
-2.0657277 2.4192824 -0.27907979 5
-2.2153611 4.5278783 -0.26393011 6
-1.7588365 -6.0916185 -0.32780749 6
-1.8265544 -3.0957265 -0.31197527 5
-1.7793986 -1.7849951 -0.30799651 4
-1.9792409 -1.4851602 -0.30204985 4
-1.6869823 -0.96310514 -0.30674964 3
-1.8457291 -0.47235334 -0.30119255 3
-1.8656396 -0.26923829 -0.29811746 3
-1.8408489 0.33397588 -0.29702091 3
-1.7549113 0.62401348 -0.29640535 3
-1.6438038 0.90640593 -0.29845771 3
-1.8699256 1.4158933 -0.28958336 4
-1.6672159 1.6913091 -0.29261756 4
-1.8177222 2.6667995 -0.28300202 5
-1.7645441 4.8743258 -0.27050763 6
-1.3563958 -6.3832712 -0.33762598 6
-1.4138628 -3.4403181 -0.32297629 5
-1.3671305 -2.2204952 -0.31864253 4
-1.2109685 -1.6168189 -0.31804639 3
-1.4056809 -1.4074333 -0.31373271 3
-1.377414 -1.0557996 -0.31245884 2.3333333
-1.3659451 -0.66612053 -0.31083092 1.6666666
-1.4272507 -0.31126684 -0.30772611 1.5
-1.409086 0.30855575 -0.30535525 1.5
-1.3284156 0.65376818 -0.30543253 1.6666666
-1.4042678 0.98658782 -0.30116576 2.5
-1.3252723 1.3470881 -0.30101889 3
-1.4780712 1.867324 -0.29344264 4
-1.2936286 2.057539 -0.2989943 4
-1.4437059 2.9594479 -0.28816539 5
-1.4376332 5.0891242 -0.27538106 6
-0.94016868 -3.7342525 -0.33472404 5
-1.0207762 -2.4714432 -0.32661572 4
-1.0157894 -1.7837167 -0.32389334 3
-0.996454 -1.3276918 -0.32139355 2
-0.99856496 -0.99631906 -0.32152134 1
-1.0567127 -0.65929329 -0.31592795 0.33333334
-1.1562569 -0.25197238 -0.31627706 0
-1.1230114 0.2459615 -0.30885005 0
-1.031167 0.65224636 -0.31302691 0.33333334
-0.94070423 0.95857722 -0.30974579 1
-1.0109578 1.4295062 -0.30730066 2.5
-0.93830591 1.6958705 -0.30820045 3
-0.99706244 2.2555618 -0.30337098 4
-1.1390505 3.1616421 -0.29335272 5
-0.92296565 3.2881961 -0.29769868 5
-0.67661828 -2.6619434 -0.33588979 4
-0.52474612 -2.0502577 -0.33428216 3
-0.64045095 -1.7965283 -0.33191201 2.5
-0.65509617 -1.375072 -0.33044061 1.3333334
-0.6843937 -1.0771253 -0.32843685 0.25
-0.63808459 1.0452142 -0.318526 0.25
-0.58168495 1.3702627 -0.31599775 1.5
-0.55646747 1.8719594 -0.30966878 3
-0.67304927 2.4136803 -0.30702159 4
-0.37940729 -1.7205023 -0.34171027 2
-0.29864451 -1.3350712 -0.33864045 0.5
-0.35972548 -1.195556 -0.33368242 0
-0.27034125 1.1653632 -0.32121241 0
-0.13717592 1.3629791 -0.32678142 0.80000001
-0.16633101 1.8293647 -0.19645077 4.4000001
-0.18301502 1.8664155 0.18766572 10.307693
-0.16660678 1.8635529 0.47065735 14.5
0.28355074 -4.1499667 -0.36295396 5
0.1899175 -2.8790455 -0.3542262 4
0.22958851 -2.2160192 -0.35392115 3
0.21235169 -1.7770123 -0.34992489 2
0.19268997 -1.387229 -0.35052162 0.5
0.19222341 1.3345559 -0.34311524 0.5
0.1370797 1.8733823 -0.17749001 4.9000001
0.11408835 1.891453 0.19223009 10.5
0.11537332 1.8947437 0.46564841 14.5
0.51952237 -7.3544006 -0.38332385 6
0.62310505 -4.2036862 -0.37137213 5
0.53146064 -2.9058948 -0.36370197 4
0.56039643 -2.1935434 -0.36073187 3
0.60691935 -1.7289038 -0.36003971 2
0.58547717 -1.356688 -0.35873133 0.75
0.66573679 -1.1355848 -0.35937029 0
0.52415311 1.1422255 -0.35060537 0
0.61062771 1.3305606 -0.35196307 1
0.54122466 1.8567616 -0.23037502 4.2142859
0.51752317 1.9085509 0.20092648 10.5
0.51931924 1.9111609 0.48767105 14.5
1.1370829 -7.5487738 -0.39768925 6
0.93509799 -4.2026901 -0.3768518 5
0.96659189 -2.871973 -0.3742601 4
1.0000919 -2.0812929 -0.37010649 3
0.87933803 -1.6131804 -0.36195853 2
0.97136998 -1.4004261 -0.36589509 1.5
0.97064382 -0.97231936 -0.36430752 0.25
1.1440904 -0.6717732 -0.36816096 0
1.1258457 0.62820989 -0.36511117 0
0.98224026 1.0316726 -0.36105165 0.66666669
0.99381036 1.4683074 -0.35970333 2
0.95867699 1.9258776 -0.2012444 5
0.92275995 1.9265534 0.19791448 10.25
0.96486729 1.9271251 0.5192908 14.333333
1.4210446 -4.189507 -0.38848701 5
1.3903999 -2.7491879 -0.3818658 4
1.3860521 -1.9084747 -0.37985101 3
1.3384765 -1.3299446 -0.37538925 2
1.4103074 -1.0097883 -0.37627608 1.5
1.3757824 -0.55521566 -0.37312052 0.66666669
1.4293709 -0.19127345 -0.37421757 0.5
1.4162956 0.23194969 -0.37412319 0.5
1.382866 0.64806324 -0.37087518 1
1.3491817 0.99219596 -0.36999577 1.5
1.2814587 1.267283 -0.3661854 2
1.3411791 1.8872479 -0.22966763 4.818182
1.3125621 1.9414879 0.19657932 10
1.3129083 1.9422176 0.53635323 14
1.6435348 -25.081783 -0.42457351 7
1.7337602 -7.7041426 -0.41222349 6
1.9188266 -4.1337166 -0.40107396 5
1.8063514 -2.5716839 -0.3910419 4
1.6957099 -1.6784564 -0.38529456 3
1.8772594 -1.4920772 -0.38868693 3
1.6412749 -0.95740259 -0.38036388 2
1.7980658 -0.62258708 -0.38375166 2
1.8948472 -0.16961548 -0.38490772 2
1.8701694 0.25376475 -0.38371882 2
1.7527159 0.65037489 -0.38086426 2
1.6078491 0.92419893 -0.3772462 2
1.7667756 1.4382128 -0.37796131 3
1.888683 2.2862251 -0.38095447 4
1.6451991 -25.088207 0.45318517 8
1.645744 -25.077761 1.3316114 9
1.6482263 -25.096375 2.2151361 10
1.6496127 -25.098391 3.1033735 11
1.6505761 -25.093887 3.998409 12
1.6538326 -25.123573 4.9098115 13
1.6549879 -25.121464 5.828433 14
1.6562654 -25.120865 6.7622933 15
2.0047846 -25.072586 -0.42525414 7
2.359659 -7.8154087 -0.42712262 6
2.2392225 -4.0360575 -0.4070434 5
2.1903806 -2.3205047 -0.39868352 4
2.0458882 -1.2907423 -0.39301682 3
2.208302 -0.97951353 -0.39476672 3
2.3611133 -0.56656474 -0.39817119 3
2.3786027 0.27517134 -0.39549956 3
2.2957568 0.61520153 -0.39334586 3
2.1094224 1.0054272 -0.38771552 3
2.1446128 2.0823784 -0.38471326 4
2.1872566 -25.071537 0.45306402 8
2.1874602 -25.059053 1.3322847 9
2.1893513 -25.066654 2.2156725 10
2.1921763 -25.083784 3.106235 11
2.1928103 -25.076199 4.0017743 12
2.1952302 -25.089617 4.9108968 13
2.3772833 -25.079788 5.8315349 14
2.1983089 -25.093287 6.7657366 15
2.5624869 -3.9239295 -0.41418594 5
2.4653449 -2.101603 -0.40573964 4
2.6862273 -1.8276705 -0.40851882 4
2.4298391 -0.12871604 -0.40033865 3
2.7093897 1.5345695 -0.40054172 4
2.4008477 -0.30402446 -0.3976087 3
2.4839797 1.7908481 -0.39427873 4
2.7685986 3.318733 -0.39865062 5
2.7287226 -25.038322 0.4528068 8
2.7327166 -25.062811 1.3346852 9
2.7326765 -25.050547 2.2183106 10
2.7349205 -25.058983 3.1091015 11
2.7357662 -25.054609 4.0061569 12
2.7374504 -25.057714 4.9143963 13
2.7393339 -25.062454 5.8356991 14
2.7436187 -25.088781 6.7781954 15
3.0052726 -7.8623528 -0.44145775 6
3.0346608 -3.7009645 -0.42469388 5
2.9435613 -1.4313132 -0.41329107 4
3.1393321 -0.99714184 -0.4176057 4
3.1605327 0.59808081 -0.41252184 4
3.0106187 1.040163 -0.40933728 4
2.8330319 1.3419294 -0.40307039 4
3.0566227 3.1651766 -0.40607873 5
3.0940599 -25.04611 0.45328733 8
3.0942726 -25.037169 1.3351409 9
3.0958254 -25.038965 2.2205968 10
3.0979714 -25.045448 3.1122344 11
3.0990574 -25.043327 4.0106778 12
3.1018584 -25.054852 4.9216938 13
3.1033232 -25.055496 5.8434901 14
3.1049905 -25.057583 6.7807574 15
3.4734724 -3.4096935 -0.43315729 5
3.2410212 -0.53072649 -0.4180001 4
3.2634804 -0.17385964 -0.4168103 4
3.2484975 0.2531814 -0.41672516 4
3.5888069 2.7710729 -0.41854268 5
3.3114564 2.9648316 -0.41033301 5
3.533726 2.9803755 1.2279322 15
3.479203 4.0892358 1.3232224 14.5
3.4676371 -25.042887 5.8511853 14
3.6807935 -7.8797035 -0.45733905 6
3.7616022 -3.1941779 -0.44021443 5
3.8310149 2.5367591 -0.42401662 5
3.9460311 -5.923842 0.62127733 10
3.8862913 -4.9780517 0.77404821 11
3.8689041 -5.8990493 0.8654955 11
3.8386846 -4.9541593 0.99202693 12
3.8511314 -3.4350338 1.0961698 13.5
3.8359318 -2.8471613 1.1027075 14
3.7694407 -2.8400764 1.2655182 15
3.754637 -2.5236144 1.2130778 15
3.8820224 -2.2515788 1.2033798 15
3.9239533 2.33986 1.2150733 15
3.7495618 2.6416979 1.2194185 15
3.984663 3.5551298 1.2181779 14
3.7233622 3.868078 1.2245994 14
4.3671913 -7.8273931 -0.47267112 6
4.0198593 -2.9423575 -0.44548368 5
4.240046 -2.6564102 -0.44855976 5
4.1758137 2.1507838 -0.43331397 5
4.2986917 -11.217002 -0.20886341 7
4.2819314 -5.8033366 0.62890154 10
4.0857601 -4.8978276 0.78131193 11
4.302938 -4.7958579 0.78884882 11
4.0775266 -3.3077805 1.0192996 13
4.3424487 -2.8039637 1.1922036 14
4.3764868 -2.737299 1.1904664 14
4.1069741 -1.7728851 1.1986692 15
4.2365417 -1.4189905 1.1968268 15
4.367445 -0.94102037 1.1957088 15
4.3948388 0.92736375 1.1979322 15
4.0098233 -2.0134964 1.2023764 15
4.3660841 1.1215572 1.2018011 15
4.2974033 1.3969631 1.2045768 15
4.1397629 1.8756716 1.2101909 15
4.0039573 2.1763554 1.2124385 15
4.3031611 3.0727339 1.2074444 14
4.0992174 3.3745964 1.2115662 14
4.2828302 4.6690912 1.2118434 13
4.0619488 4.9037504 1.2174791 13
4.5431571 -2.2017736 -0.45458594 5
4.7765422 -1.7055024 -0.45807904 5
4.7868724 1.079855 -0.45048156 5
4.6599355 1.4129919 -0.44766 5
4.4725609 1.7193378 -0.44109482 5
4.5861874 -5.6987591 0.63724047 10
4.4764261 -4.7088909 0.79506862 11
4.7011766 -4.6010809 0.80453098 11
4.4726853 -2.5564487 1.1880078 14
4.6388378 -2.2172666 1.1851226 14
4.7663774 -1.935101 1.1848066 14
4.4404712 -0.5269953 1.195943 15
4.466908 -0.13922018 1.1944938 15
4.4692521 0.24942064 1.1955855 15
4.4415355 0.63835222 1.1976676 15
4.72857 2.2352808 1.1960214 14
4.578527 2.5702183 1.1997472 14
4.7375474 4.0967741 1.1984789 13
4.4798436 2.7770712 1.2039217 14
4.6098351 4.2868333 1.204464 13
4.4686928 4.466763 1.2085243 13
5.0711679 -7.7259359 -0.48879695 6
4.8901658 -1.3567789 -0.45945889 5
4.9730625 -0.99931687 -0.4603197 5
5.0263095 -0.63635945 -0.46081191 5
5.0566325 -0.27097726 -0.46156529 5
4.984621 0.38389102 -0.45735118 5
4.9052544 0.73809856 -0.45461532 5
5.0657864 6.0142875 -0.44394371 6
5.1822143 -11.070472 -0.21414444 7
4.9855137 -5.5517378 0.64922851 10
4.9368162 -4.4952703 0.81606323 11
5.1201491 -4.3989859 0.82463241 11
4.82795 -1.7402512 1.181875 14
4.9408913 -1.3676578 1.1798177 14
5.0255814 -1.0321686 1.1802964 14
5.1046171 -0.53131825 1.1795453 14
5.1316195 -0.14230579 1.1789432 14
5.1404138 0.26686618 1.1812191 14
5.1123385 0.63846576 1.18151 14
5.0770369 0.97952324 1.1851584 14
4.9788508 1.4506919 1.1875073 14
4.8890839 1.7841027 1.1911579 14
5.1350846 3.4935822 1.1893861 13
4.9585266 3.77316 1.1932479 13
5.0406599 5.8387332 1.1960648 12
5.4229813 -5.3804488 0.66372913 10
5.4027886 -4.249177 0.83911163 11
5.452002 -2.5401702 1.1644062 13
5.5514426 -2.2994943 1.1626186 13
5.5570769 2.6298919 1.1789557 13
5.4147024 2.9657457 1.1834664 13
5.2486944 3.3001986 1.1877991 13
5.5937552 5.1904449 1.1835983 12
5.4170284 5.4028673 1.1865578 12
5.2424092 5.6200247 1.1917334 12
5.6305885 -36.793598 -0.63185543 7
5.7656083 -7.5405445 -0.50362635 6
5.6785021 5.8283682 -0.45957062 6
5.6235547 -2.1181877 1.1623435 13
5.7404552 -1.7459184 1.159917 13
5.851295 -1.327098 1.1589545 13
5.9207625 -0.94335836 1.1572556 13
5.9780736 -0.56455308 1.1580927 13
5.9940071 0.76836193 1.1624985 13
5.9662428 0.98530376 1.1628646 13
5.9097223 1.3761148 1.1663188 13
5.7972169 1.8690249 1.1696743 13
5.6895456 2.2445412 1.1738024 13
5.9635143 4.6421962 1.1727513 12
5.7802129 4.9159398 1.1773252 12
6.2734385 5.5700884 -0.47380522 6
6.1225362 -10.953616 -0.22160812 7
6.0095057 -0.12432267 1.1584213 13
6.0116954 0.2669715 1.1588947 13
6.0015864 0.59364378 1.1605301 13
6.3362708 3.9762211 1.1616869 12
6.1863875 4.26652 1.1667587 12
6.0448513 4.4987984 1.1694537 12
6.2939367 7.5613408 1.1739029 11
6.4562097 -7.2910848 -0.5183897 6
6.7317147 3.0912676 1.1518351 12
6.5728846 3.4606495 1.1543833 12
6.4648657 3.7077084 1.1577922 12
6.7407756 7.0047097 1.1600503 11
6.4941278 7.3068738 1.1665272 11
7.1334968 -6.9739366 -0.5328145 6
6.87711 5.2688012 -0.48907629 6
7.1100564 -10.814786 -0.23049799 7
7.1704874 1.1811932 1.1333902 12
7.1381993 1.4423147 1.1354011 12
7.0675454 1.8586153 1.1385412 12
6.9805236 2.2740464 1.1430113 12
6.8637376 2.683712 1.1466526 12
