# .PCD v0.7 - Point Cloud Data file format
VERSION 0.7
FIELDS x y z intensity
SIZE 4 4 4 4
TYPE F F F F
COUNT 1 1 1 1
WIDTH 171
HEIGHT 1
VIEWPOINT 0 0 0 1 0 0 0
POINTS 171
DATA ascii
-29.850153 10.681915 0.54524231 8
-29.802294 9.2415829 1.6281543 9
-29.859838 11.659989 2.7957015 10
-29.805225 10.186457 4.9809709 12
-29.802887 11.637376 6.2101669 13
-29.651567 2.5537465 0.5174436 8
-29.767113 7.3925142 0.5296151 8
-29.634346 1.6991948 1.5542575 9
-29.674686 4.2783284 1.5679028 9
-29.607826 1.697674 2.5932477 10
-29.700706 5.1541295 2.6332908 10
-29.775694 8.7679558 2.7089002 10
-29.605865 2.1232417 3.6427965 11
-29.682762 5.1509943 3.6950419 11
-29.792973 9.2385359 3.8228757 11
-29.665836 4.7115321 4.7538147 12
-29.722355 7.3812075 4.8448319 12
-29.639328 3.8408298 5.8064523 13
-29.698879 6.9254456 5.9223561 13
-29.655062 5.5846305 6.9623513 14
-29.735752 9.220562 7.1803093 14
-29.613398 4.2694049 8.0135183 15
-29.694304 7.3740926 8.1923809 15
-29.76626 11.134385 8.5068398 15
-29.557859 -1.694762 0.51806837 8
-29.524296 -2.5426846 1.554955 9
-29.560209 -0.84679759 2.587853 10
-29.49572 -2.9662311 3.6420991 11
-29.560165 -0.42334884 3.6301835 11
-29.487097 -2.9653723 4.6960568 12
-29.553123 8.4918327e-05 4.680707 12
-29.482986 -2.9649677 5.7620177 13
-29.520412 -0.42277759 5.7390494 13
-29.487148 -1.6907206 6.8200688 14
-29.585541 2.1217778 6.8462048 14
-29.490253 -1.6909007 7.9161162 15
-29.542982 0.8463251 7.9185505 15
-29.246769 -14.945704 0.58399421 8
-29.329967 -11.937879 0.56152332 8
-29.271875 -12.903012 1.6857787 9
-29.252684 -13.907979 2.8435972 10
-29.269251 -12.404899 3.9120274 11
-29.284895 -11.920112 5.0162005 12
-29.262926 -12.402538 6.1866093 13
-29.259758 -11.910177 7.3016949 14
-29.155365 -18.795372 0.61839503 8
-29.166431 -17.642088 1.7985053 9
-29.160925 -17.63908 2.9936011 10
-29.191896 -15.988269 4.0975938 11
-29.100317 -19.356169 4.3039794 11
-29.198483 -15.452995 5.242826 12
-29.113867 -18.770098 5.4987292 12
-29.144033 -17.064857 6.5760484 13
-29.183109 -14.914561 7.5764747 14
-29.088913 -18.754768 8.002697 14
-29.188787 -13.878614 8.6697435 15
-29.122885 -17.053102 9.054143 15
-21.498859 -6.3304625 0.3959085 8
-21.49444 -6.3292155 1.1789205 9
-21.4834 -6.3260207 1.9638896 10
-21.481367 -6.3254757 2.7540317 11
-21.484041 -6.3263197 3.5516224 12
-21.452271 -6.3170228 4.3513064 13
-21.453281 -6.3173771 5.1675034 14
-21.449867 -6.3164296 5.9958186 15
-12.524073 8.5977812 2.4001999 12
-12.525393 8.5985098 2.9472604 13
-11.806874 8.6137285 1.7887455 11
-11.797004 8.6069088 0.75960332 9
-11.797479 8.6070681 1.27192 10
-11.447704 8.6063967 0.24433096 8
-11.475778 8.6263037 3.3085313 14
-10.651423 -25.390528 0.48948938 8
-10.647059 -25.382307 1.450948 9
-10.650804 -25.393425 2.41715 10
-10.642883 -25.376738 3.386404 11
-10.639272 -25.370342 4.3645077 12
-10.540359 8.6564054 3.6487205 15
-10.237036 8.6564035 2.6002221 13
-9.9433851 8.6560278 1.6131699 11
-9.6593752 8.6557693 0.67434639 9
-9.6638937 8.6586103 2.9898825 14
-9.3852749 8.6561651 0.21754916 8
-9.3974886 8.6664333 2.0192018 12
-8.9020596 8.6939402 3.3283315 15
-8.6326761 8.6774797 1.0656328 10
-8.6306133 8.6745853 2.3730671 13
-8.1684399 8.6960669 0.62018746 9
-8.1712198 8.6975489 2.7495768 14
-7.7268076 8.7126179 1.8391886 12
-7.5037632 8.7084846 3.0745556 15
-7.2846093 8.7057228 0.19337416 8
-7.2873054 8.7079449 1.3891671 11
-7.2966518 8.7184162 2.2045991 13
-7.3463216 -25.302967 6.0865698 14
-7.3424373 -25.293081 7.0603466 15
-7.0429873 -25.600086 0.46952352 8
-7.0334458 -25.56892 1.3953651 9
-7.0335927 -25.573025 2.3255491 10
-7.0254865 -25.547106 3.2579002 11
-7.0160723 -25.516449 4.1956153 12
-7.0123639 -25.506601 5.1457281 13
-6.885879 8.7254019 0.57779926 9
-6.7825294 -48.273266 0.85695559 8
-6.7786555 -48.259682 2.5595813 9
-6.6911345 8.7313318 2.5342886 14
-6.7742929 -48.242672 4.2671852 10
-6.7713571 -48.235905 5.985322 11
-6.7679057 -48.225582 7.717206 12
-6.7645197 -48.21587 9.467742 13
-6.4940734 8.7313585 1.7185025 12
-5.7554479 8.744626 0.54432207 9
-5.0792656 8.772831 1.2402991 11
-5.0863056 8.7844362 1.6031282 12
-5.086421 8.7841082 1.968259 13
-5.085567 8.7821016 2.3379068 14
-5.0865259 8.7832108 2.7143624 15
-4.8554463 8.9707499 0.17425737 8
-4.8417101 8.9448786 0.5290941 9
-4.9114542 8.7710285 0.87535298 10
-0.67785627 1.8706913 -0.24341755 4
-0.68278986 1.8837612 -0.13955919 5.5
-0.46989158 1.8630396 -0.3026453 3
-0.58954579 1.874444 0.10301886 9
0.40898058 1.8396906 -0.31008554 3
1.2427408 1.866948 -0.24746825 4.5
1.2430929 1.8668689 -0.12657601 6
1.2523196 1.8794408 0.11426782 9
1.2468501 1.8702599 0.31644386 11.5
1.249841 1.8738943 0.48254049 13.5
2.6010225 -25.074778 0.43488348 8
2.6024618 -25.077187 1.3156521 9
2.6022599 -25.063831 2.1984353 10
2.6042016 -25.07094 3.0882096 11
2.9681263 -25.068264 3.9904082 12
2.9683495 -25.059761 4.8968725 13
2.9705508 -25.067736 5.818953 14
2.9717894 -25.06745 6.7543597 15
3.4296656 -3.4292705 1.1108384 14
3.4280012 -3.4272921 1.2897866 15
3.6025734 -7.8411345 0.44453996 9
3.6693113 -4.6106524 0.92422754 12
3.897542 -6.4353323 0.64944333 10
3.8212867 -5.4034548 0.80355424 11
4.2224398 -2.8851686 1.170701 14
5.5855904 -4.6838694 0.88232899 11
5.4314427 -3.7014341 1.0285106 12
5.8486423 -5.8221831 0.70906639 10
5.8245444 -2.8513958 1.2473404 13
6.1697431 -7.2902584 0.4874422 9
7.7916751 0.1408743 1.2160338 12
9.8919296 0.044748437 1.1902664 11
9.8939705 -47.852398 4.2577844 10
9.9022837 -47.880638 5.9855151 11
10.084487 9.1488743 1.1616051 10
10.60558 -47.854202 0.83813536 8
11.320013 -47.817329 2.5561674 9
13.284528 2.3799207 1.145725 10
13.503935 -47.763744 7.8370094 12
13.510954 -47.779175 9.6262312 13
14.237972 -47.74876 6.0927262 11
14.97795 -47.750874 0.84867972 8
14.980346 -47.741695 4.3517747 10
18.787859 -47.639423 6.254458 11
19.575544 -47.62122 8.1192894 12
22.491859 -5.4384284 0.34959283 8
22.479288 -5.4349756 1.1581647 9
44.462685 16.25547 0.7001968 8
44.460552 16.252924 2.3557236 9
47.446575 12.127379 2.4364862 9
47.86726 11.50864 0.72783959 8
