# .PCD v0.7 - Point Cloud Data file format
VERSION 0.7
FIELDS x y z intensity
SIZE 4 4 4 4
TYPE F F F F
COUNT 1 1 1 1
WIDTH 166
HEIGHT 1
VIEWPOINT 0 0 0 1 0 0 0
POINTS 166
DATA ascii
-30.013302 7.9142313 0.53533816 8
-30.103472 11.759791 0.55453789 8
-30.007845 7.9127846 1.6200193 9
-30.090677 11.754739 1.683544 9
-30.026827 9.7881212 2.755214 10
-30.061563 11.249677 3.9321003 11
-30.031847 10.267842 5.0187335 12
-30.010149 11.230289 7.3886337 14
-29.800592 -2.5671716 0.52401888 8
-29.893017 2.1444666 0.52138507 8
-29.959251 4.7596736 0.52563632 8
-29.865698 0.85581172 1.5651327 9
-29.928726 4.316298 1.5812689 9
-29.860767 1.7126917 2.6154091 10
-29.949602 5.1990051 2.6553051 10
-29.856134 2.1418517 3.6736081 11
-29.939978 6.085546 3.7465236 11
-29.896982 4.3117533 4.7808328 12
-29.94935 6.9863458 4.8653455 12
-29.846815 2.5713737 5.8211203 13
-29.899239 5.1902895 5.8946753 13
-29.985352 9.3015623 6.0951648 13
-29.87808 4.7468371 6.9806933 14
-29.932024 7.4359069 7.1145163 14
-29.80138 2.1379669 8.0041046 15
-29.872267 4.7459226 8.1009073 15
-29.918264 7.8891144 8.2843132 15
-29.999319 11.226185 8.5736494 15
-29.796535 -2.1374469 1.5671548 9
-29.783262 -2.1365108 2.6139405 10
-29.776264 -1.7077889 3.6632919 11
-29.795654 -0.42684913 4.7199211 12
-29.73609 -2.5617199 5.8033199 13
-29.71929 -2.9896536 6.8979549 14
-29.782902 8.8676497e-05 6.8758702 14
-29.705744 -2.9883187 8.0018864 15
-29.553947 -13.539538 0.57626843 8
-29.43392 -18.981123 0.62253928 8
-29.506508 -15.620044 1.759321 9
-29.568508 -12.03856 1.6810422 9
-29.422428 -18.974195 1.845769 9
-29.46944 -16.145102 2.9495058 10
-29.554743 -13.031738 2.8341861 10
-29.541645 -12.524105 3.9476652 11
-29.413561 -18.378567 4.2689633 11
-29.501686 -14.031174 5.1826763 12
-29.424467 -17.234529 5.4107866 12
-29.470955 -14.537894 6.3963041 13
-29.467716 -14.015601 7.5418191 14
-29.402315 -17.222399 7.8764834 14
-29.465773 -14.014974 8.7512293 15
-29.394512 -18.367601 6.7476101 13
-29.366718 -18.351196 9.2888126 15
-21.763163 -6.4096293 0.40046436 8
-21.755009 -6.4073205 1.1928892 9
-21.748751 -6.40557 1.9878117 10
-21.749475 -6.4058771 2.788058 11
-21.731659 -6.4007244 3.5921984 12
-21.728579 -6.3999128 4.406981 13
-21.722719 -6.3982825 5.2320204 14
-21.703146 -6.3926172 6.0662212 15
-12.532571 8.6080256 0.7903161 9
-12.164865 8.6149397 0.25360206 8
-12.165053 8.6148214 1.2977815 10
-12.165598 8.615078 1.8240781 11
-12.156372 8.6082935 2.8892632 13
-12.169698 8.6174564 3.9894929 15
-11.812261 8.6217165 2.3100357 12
-11.059472 -25.359097 0.48725373 8
-11.074747 -25.396421 1.4559944 9
-11.074869 -25.398979 2.4277964 10
-11.154963 8.6427088 3.2517939 14
-11.062967 -25.373947 3.4020336 11
-11.069139 -25.390427 4.3899102 12
-10.532132 8.6555367 0.70810056 9
-10.235328 8.6607246 0.2276026 8
-10.241601 8.6655283 1.6411046 11
-9.9415092 8.659523 1.1472776 10
-9.9493465 8.6659908 2.0837247 12
-9.6722794 8.6712017 3.4747562 15
-9.39674 8.6708698 2.4794147 13
-9.1383734 8.6782303 2.9036143 14
-8.8899517 8.6892443 0.64533508 9
-8.640337 8.6913424 0.20769723 8
-8.4077196 8.7031612 1.0527021 10
-8.4010801 8.6958494 1.9091783 12
-8.1689072 8.7021952 1.4596174 11
-7.7423158 -25.336521 6.1156235 14
-7.7412076 -25.336403 7.097537 15
-7.463954 -48.260662 0.8480019 8
-7.5002294 8.7120934 2.2288411 13
-7.4620838 -48.261566 2.5545697 9
-7.5092421 8.72227 2.6514378 14
-7.5022664 8.7139044 3.0752981 15
-7.4578104 -48.273376 7.730547 12
-7.2925825 8.7222366 0.19248119 8
-7.3436732 -25.301558 0.460884 8
-7.3432636 -25.303644 1.3814662 9
-7.3434043 -25.307646 2.3057358 10
-7.3431239 -25.310211 3.2357624 11
-7.3393331 -25.300688 4.171977 12
-7.3363771 -25.294081 5.1184831 13
-7.0895638 8.7304335 0.9781599 10
-6.882421 8.7277536 1.7547793 12
-6.6802468 8.7269421 0.57022989 9
-6.752224 -48.246929 4.2562103 10
-6.7513819 -48.255501 5.9763694 11
-5.7648625 8.7682714 0.91259581 10
-5.5869589 8.7700415 0.17600031 8
-5.5878253 8.7710028 0.53956658 9
-5.4060326 8.7597675 1.2585396 11
-5.4183083 8.7791815 1.6286117 12
-5.4165878 8.7759771 1.9992435 13
-5.4084516 8.7624044 2.3718619 14
-5.4118242 8.7674141 2.7552509 15
-0.9288795 1.8683497 -0.25686261 4
-0.92631781 1.8631108 -0.14605069 5.5
-0.76158446 1.8567603 0.2458593 11
-0.1075696 1.8690304 -0.29525548 3
0.27275598 1.8425205 -0.3021175 3
0.99302518 1.8752216 -0.27011234 4
0.95951355 1.8767052 -0.11778299 6
0.99555594 1.877471 0.071425237 8.5
0.99886501 1.8821741 0.26257288 11
1.0014254 1.8894647 -0.118619 6
1.0036012 1.8913171 0.1867573 10
1.0001035 1.8838923 0.34026477 12
1.0022796 1.8870331 0.45899326 13.5
1.5378888 -25.130695 4.8821578 13
2.6144645 -25.092428 0.42845047 8
2.6145699 -25.082388 1.3094604 9
2.6155407 -25.080545 2.1936939 10
2.6177499 -25.090418 3.0846407 11
2.6194441 -25.095289 3.9831429 12
2.6239612 -25.10364 6.7487226 15
3.159873 -3.438328 1.0712746 14
3.1575501 -3.4355536 1.2436767 15
3.258368 -7.6564522 0.4271256 9
3.2672522 -6.3784614 0.61825639 10
3.3922687 -3.9057739 0.99782342 13
3.5496256 -5.3317351 0.77750975 11
3.4294012 -4.5668592 0.8962099 12
4.1014895 -3.5415754 1.0446235 13
4.5120101 -2.8859408 1.2280147 14
4.7269878 -3.9601636 0.96620721 12
5.5520134 -7.1527362 0.46085459 9
5.657351 -2.8589571 1.2207636 13
6.0931826 -4.2646785 0.89929289 11
7.6958537 0.049924638 1.2030429 12
9.7980051 0.3498441 1.1814332 11
9.9245405 -47.874893 0.82332128 8
10.605003 9.1359491 1.1997298 10
11.369047 -47.859673 7.7570763 12
12.974953 3.7336352 1.1493852 10
12.805991 -47.8083 2.5583541 9
12.810173 -47.814907 4.2949758 10
13.548018 -47.81081 6.0640068 11
14.274763 -47.782639 0.83246124 8
18.075838 -47.728275 6.2203269 11
18.076151 -47.722275 8.0358467 12
22.190065 -5.3296638 0.34265739 8
22.212524 -5.3349938 1.1423585 9
44.191505 16.245756 0.70636111 8
44.202328 16.247028 2.3538465 9
47.60397 11.528386 2.4443562 9
48.471294 10.279735 0.73909861 8
