# .PCD v0.7 - Point Cloud Data file format
VERSION 0.7
FIELDS x y z intensity
SIZE 4 4 4 4
TYPE F F F F
COUNT 1 1 1 1
WIDTH 144
HEIGHT 1
VIEWPOINT 0 0 0 1 0 0 0
POINTS 144
DATA ascii
-31.105131 -16.983986 0.63442153 8
-31.073343 -13.657475 0.60574311 8
-31.017586 -11.067042 1.736993 9
-31.063932 -14.725941 1.8157465 9
-31.004082 -11.564126 2.9065344 10
-31.085764 -17.555178 3.1395516 10
-31.068537 -17.545946 4.3972611 11
-31.044994 -16.953022 5.6182942 12
-31.036003 -17.528587 6.9448848 13
-30.912788 -0.88320082 0.54072797 8
-30.891359 1.7665588 0.53809988 8
-30.858789 4.8878269 0.53988951 8
-30.817633 8.5733776 0.54880971 8
-30.915367 -1.7679131 1.624728 9
-30.886566 1.3241072 1.6186839 9
-30.859003 3.9881947 1.6262465 9
-30.822355 6.7053704 1.6456429 9
-30.869236 8.3820967e-05 2.7006626 10
-30.856451 2.6504328 2.7065592 10
-30.826895 5.3350873 2.7311387 10
-30.865835 -1.3232169 3.7947247 11
-30.829525 3.0922072 3.8009093 11
-30.995123 -12.067953 4.0959601 11
-30.848377 -0.88137615 4.8888154 12
-30.819107 2.6472354 4.8962464 12
-30.802555 5.3308578 4.9451628 12
-30.974003 -12.059984 5.2765474 12
-30.826582 8.8128567e-05 5.9920287 13
-30.971315 -12.059194 6.4725647 13
-30.837059 -1.3220054 7.1272578 14
-30.971338 -12.571734 7.7295837 14
-30.986559 -15.79033 8.0444031 14
-30.802593 9.1083872e-05 8.2534742 15
-30.942656 -13.078168 9.0144768 15
-30.984276 -16.921322 9.4759817 15
-30.788095 11.484225 0.56090152 8
-30.782417 10.490751 1.6927563 9
-30.785307 8.5642815 2.7861264 10
-30.758448 11.976015 2.8746164 10
-30.788063 7.624824 3.8859861 11
-30.747171 10.971066 3.9962525 11
-30.773285 8.0892162 5.0305099 12
-30.737396 10.967474 5.1567259 12
-30.78248 3.978308 6.028748 13
-30.742382 8.5521832 6.1929612 13
-30.714754 11.958615 6.3935046 13
-30.793413 1.7609943 7.1187911 14
-30.764395 4.8728423 7.1854649 14
-30.729679 8.0776644 7.3262715 14
-30.70121 11.451123 7.551919 14
-30.757298 3.9750538 8.3053017 15
-30.717457 7.1432619 8.4420395 15
-30.677891 12.451294 8.8570929 15
-23.02084 -5.7008667 0.41980901 8
-23.020771 -5.7009339 1.2487261 9
-23.004519 -5.6969919 2.0792315 10
-22.99777 -5.6954055 2.9148755 11
-22.973902 -5.6895785 3.7544465 12
-22.954849 -5.6849451 4.6026125 13
-22.964193 -5.6873455 5.4677715 14
-22.947884 -5.6833954 6.3406014 15
-13.164577 -24.9419 0.50347126 8
-13.160019 -24.935696 1.4887756 9
-13.154356 -24.927404 2.4769835 10
-13.145235 -24.912571 3.4696665 11
-13.150228 -24.924526 4.4745212 12
-12.396789 9.0089207 0.79420984 9
-12.394161 9.0067806 1.3315502 10
-12.3905 9.0036573 2.4169996 12
-12.029168 9.0066776 1.836329 11
-12.027236 9.0047436 2.9116549 13
-12.034022 9.0095739 3.4617279 14
-12.032834 9.0084324 4.0186415 15
-11.657413 8.9918051 0.24814871 8
-10.126996 -24.959763 6.2268128 14
-10.124393 -24.956802 7.2247114 15
-9.3237438 -24.985289 0.47274375 8
-9.3269129 -24.997368 1.4054694 9
-9.3201256 -24.982759 2.3400047 10
-9.3180399 -24.980774 3.2808216 11
-9.3077393 -24.956795 4.2258549 12
-9.305747 -24.955135 5.1842279 13
-2.5207145 -25.074278 0.43735895 8
-2.5186462 -25.068403 1.3178377 9
-2.5185113 -25.081879 2.2028191 10
-2.5153205 -25.064924 3.0904067 11
-2.5132306 -25.05908 3.9861977 12
-2.5130391 -25.072395 4.8952689 13
-1.8928249 1.8969573 -0.235838 5
-1.8448325 1.902535 -0.14015114 6
-1.9023373 1.9062139 0.093189865 8.5
-1.8995037 1.9032333 0.28170621 10.5
-1.9088728 1.9124517 0.47585303 12.5
-1.9014254 1.9048523 0.67068928 14.5
-1.3671331 1.8885365 -0.28741711 4
-0.4041895 1.8906312 -0.30611295 3
-0.045905851 1.8875124 -0.2980656 3
-0.046879318 1.8960223 0.10036805 9
-0.01975406 1.8802898 0.26534352 11.5
0.029838657 1.8838528 -0.23468655 4
0.030536138 1.8898816 -0.13550232 5.5
0.033381995 1.8965546 0.36566702 13
0.033427089 1.8795211 0.46585006 14.5
1.9938365 -5.1404834 0.86597973 12
1.9823732 -4.527319 0.95356137 13
1.9759417 -4.0342941 1.0301276 14
2.0044453 -8.1254911 0.43074042 9
2.0059865 -6.8577414 0.61747396 10
2.1216862 4.1918354 1.2494539 15
2.3084061 4.8997922 1.2401685 14
2.315623 5.9855809 1.2372755 13
2.4682214 8.9301176 1.1277059 11
2.4045959 7.4472194 1.229291 12
2.6781707 10.254168 0.91694349 10
2.9552081 12.009178 0.63744766 9
3.3438246 14.469886 0.24801734 8
3.6408012 -2.9844825 1.2495685 15
4.0858798 -3.6521475 1.0517441 13
4.3355064 8.8479996 1.1916112 11
4.5253015 -3.0067601 1.2393422 14
4.6601906 -4.1644607 0.97443658 12
5.5041494 14.189424 0.24407278 8
5.5635142 -3.043432 1.2139062 13
5.98491 -5.8258367 0.71103281 10
6.2209363 -48.13224 4.2206273 10
6.2236247 -48.128075 5.9330158 11
6.4923859 -7.2909613 0.49051091 9
6.9277277 -48.132957 7.6746945 12
7.5843387 -0.00060147338 1.1731468 12
7.6246676 -48.176815 0.82290936 8
7.6323023 -48.121166 9.4414377 13
8.3061047 8.8097467 1.0247072 10
9.5582733 -0.00051941455 1.1381453 11
10.384637 13.491521 0.25431034 8
10.644715 10.360182 0.73452383 9
12.68321 -48.235367 6.0829363 11
20.931173 -6.1493979 0.30831474 8
20.934437 -6.1499562 1.0712944 9
43.525318 14.838517 0.63704216 8
43.55965 14.847243 2.2462516 9
43.600262 14.85809 3.8639874 10
46.613747 10.1442 0.65847015 8
47.451847 8.9130869 2.353992 9
47.917839 8.2919884 4.0766544 10
