# .PCD v0.7 - Point Cloud Data file format
VERSION 0.7
FIELDS x y z intensity
SIZE 4 4 4 4
TYPE F F F F
COUNT 1 1 1 1
WIDTH 1368
HEIGHT 1
VIEWPOINT 0 0 0 1 0 0 0
POINTS 1368
DATA ascii
2.4558313 0.44416735 -0.38278106 0
2.5434766 0.46001613 -0.3843675 0
2.6309435 0.45636046 -0.38563323 0
2.7208812 0.45194456 -0.38689032 0
2.8402655 0.45799854 -0.38886857 0
2.9584897 0.46258631 -0.39045176 0
3.0553687 0.43299702 -0.39175808 0
3.1717653 0.4570666 -0.39358845 0
-2.8871431 0.5863874 -0.30037412 0
-2.7485271 0.54999775 -0.30239615 0
-2.6293411 0.55372119 -0.30506855 0
-2.5369246 0.55321425 -0.30645278 0
-2.434823 0.56283182 -0.30763179 0
-2.3431442 0.54616767 -0.30863228 0
-2.2536774 0.55947214 -0.30968845 0
-2.1664639 0.55425739 -0.31083918 0
-2.0535598 0.53489077 -0.31283355 0
-1.9328122 0.54657209 -0.314587 0
-1.8706169 0.52161717 -0.31374753 0
-1.7958481 0.50076807 -0.31459323 0
-1.2480166 0.58206809 -0.32521948 0
-1.1382189 0.55720997 -0.32862046 0
-1.079439 0.5711062 -0.32724378 0
1.250245 0.55081409 -0.36618182 0
1.339223 0.5559904 -0.3677237 0
1.4719653 0.55873549 -0.36914581 0
1.5481687 0.53593236 -0.36923015 0
1.6653519 0.54235107 -0.37155163 0
1.7494864 0.54217017 -0.37290928 0
1.8402801 0.54556799 -0.37382686 0
1.9266542 0.55212778 -0.37516126 0
2.0474093 0.56154037 -0.377873 0
2.1597953 0.54612553 -0.38044995 0
2.2807734 0.54886842 -0.38256693 0
2.3570638 0.56720197 -0.38403741 0
2.450887 0.5528546 -0.38519439 0
2.5397499 0.55380571 -0.38621873 0
2.628212 0.55345023 -0.38722798 0
2.7168951 0.55181777 -0.38825068 0
2.8391273 0.54697585 -0.39005375 0
2.9796786 0.56092888 -0.39244625 0
3.0701709 0.53255033 -0.39407414 0
3.1684959 0.54962212 -0.39596516 0
-2.8611567 0.63829851 -0.3016955 0
-2.7504778 0.6550439 -0.30249837 0
-2.6300676 0.65290284 -0.30440497 0
-2.5507574 0.65236509 -0.3051638 0
-2.4408333 0.65374088 -0.30722508 0
-2.3367043 0.65161157 -0.30916789 0
-2.2322371 0.65713388 -0.31110632 0
-2.1479805 0.66578019 -0.31327 0
-2.0676813 0.64088923 -0.31426334 0
-1.9821438 0.64564568 -0.31580567 0
-1.8915862 0.64620668 -0.31661892 0
-1.5078137 0.69037873 -0.32235011 0
-1.4377348 0.67081559 -0.32280821 0
-1.3417505 0.66154319 -0.32532778 0
-1.2502047 0.64788872 -0.32696038 0
-1.1478748 0.65203238 -0.32823208 0
-1.0520154 0.64654809 -0.33096543 0
1.1745433 0.67621976 -0.36317441 0
1.2550961 0.64489615 -0.36649162 0
1.3577896 0.6452828 -0.36766648 0
1.4513779 0.64431095 -0.36874527 0
1.5416529 0.65313309 -0.37036529 0
1.6270816 0.64848042 -0.37192681 0
1.7569851 0.65540302 -0.3739129 0
1.8365737 0.64234847 -0.37541679 0
1.9642467 0.63978153 -0.37724766 0
2.0741208 0.65920895 -0.37939215 0
2.1604283 0.65277481 -0.3805182 0
2.2474651 0.64406133 -0.38226306 0
2.3343332 0.65088409 -0.38400137 0
2.4246013 0.65741777 -0.38530955 0
2.5226519 0.6454106 -0.38704479 0
2.6378472 0.66160154 -0.38861215 0
2.7521029 0.64149559 -0.39004952 0
2.8842659 0.65060467 -0.3917236 0
2.973892 0.64846903 -0.39284667 0
3.0630496 0.64500982 -0.39395142 0
3.152833 0.6403538 -0.39507574 0
-2.9498496 0.77723396 -0.30111828 0
-2.8515761 0.75143319 -0.30161726 0
-2.7668967 0.75021398 -0.30341744 0
-2.6792037 0.74713707 -0.30504587 0
-2.5643783 0.7548461 -0.30695111 0
-2.4230187 0.75108612 -0.30974621 0
-2.3694301 0.73442304 -0.31039393 0
-2.2569036 0.75304854 -0.31232581 0
-2.1405075 0.76561695 -0.31320786 0
-2.0416102 0.74685127 -0.31536824 0
-1.9515882 0.74575502 -0.31655803 0
-1.8646245 0.74317014 -0.31796026 0
-1.7201953 0.78762132 -0.31970978 0
-1.6425056 0.76630282 -0.32066244 0
-1.5651532 0.75775802 -0.32221672 0
-1.4748605 0.74903268 -0.32432833 0
-1.3573222 0.74314994 -0.32615429 0
-1.2339917 0.74978352 -0.32813054 0
-1.154111 0.75871867 -0.3294124 0
-1.0540729 0.74278641 -0.33145487 0
-0.97235703 0.7633841 -0.33134189 0
1.1372447 0.7563017 -0.36606455 0
1.2360382 0.75607377 -0.36569431 0
1.35914 0.76201069 -0.36893526 0
1.4351944 0.74439609 -0.37013268 0
1.5623322 0.74256349 -0.37235233 0
1.6725916 0.73705864 -0.37354663 0
1.7644491 0.7565096 -0.37505323 0
1.8434018 0.7450521 -0.37673092 0
1.9612621 0.74938124 -0.37878942 0
2.0459318 0.74834222 -0.37952957 0
2.1356304 0.74671692 -0.38093504 0
2.2462907 0.76403069 -0.38247228 0
2.3278842 0.74362844 -0.38464308 0
2.469465 0.74610782 -0.3865591 0
2.5803416 0.75950468 -0.3882013 0
2.6534097 0.73318499 -0.3896378 0
2.7683799 0.75063372 -0.39131978 0
2.8616595 0.75402236 -0.3928304 0
2.9534991 0.75564146 -0.39398441 0
3.0433776 0.75543809 -0.39517236 0
3.1334543 0.75405025 -0.39627925 0
-3.0197358 0.86544919 -0.30082527 0
-2.933321 0.84068513 -0.30191439 0
-2.8421478 0.85868382 -0.30350032 0
-2.7546985 0.85389996 -0.30514824 0
-2.6647589 0.84696531 -0.30651602 0
-2.5695236 0.8572728 -0.30812272 0
-2.4741139 0.84511161 -0.30888417 0
-2.3722277 0.8485595 -0.31027463 0
-2.2719064 0.84960061 -0.31186309 0
-2.1669261 0.84577537 -0.31428576 0
-2.0449767 0.84920645 -0.31532493 0
-1.9365308 0.85338926 -0.31736261 0
-1.8258868 0.85878807 -0.31961703 0
-1.7508793 0.83823746 -0.32049003 0
-1.6448091 0.85527349 -0.32290855 0
-1.5339198 0.85420203 -0.32520628 0
-1.4402696 0.84076387 -0.32569492 0
-1.3531178 0.85253179 -0.32682484 0
-1.2448398 0.85371542 -0.32864484 0
-1.1448065 0.84886926 -0.3303006 0
-1.0555031 0.84430355 -0.33141455 0
-0.95122093 0.8508234 -0.33318922 0
-0.88124782 0.88440937 -0.33455959 0
1.055752 0.85343802 -0.36383095 0
1.1512693 0.84056604 -0.36671886 0
1.2426455 0.8522405 -0.36788705 0
1.3412472 0.85484946 -0.3687318 0
1.4476566 0.86124533 -0.37021318 0
1.5418406 0.84412861 -0.37308103 0
1.6384224 0.84675831 -0.3742843 0
1.732558 0.8526783 -0.37662393 0
1.8315377 0.85453707 -0.37820733 0
1.9438343 0.85663015 -0.37878788 0
2.0541735 0.85326189 -0.38029999 0
2.1485317 0.83863944 -0.38275084 0
2.2611268 0.85946447 -0.3845908 0
2.3622646 0.84496003 -0.38488072 0
2.4551208 0.85835248 -0.38692221 0
2.5519197 0.85139441 -0.38847771 0
2.6517751 0.84278512 -0.39031652 0
2.7417326 0.84980178 -0.39156035 0
2.8310754 0.85536605 -0.39296758 0
2.922009 0.86006558 -0.3941713 0
3.0466797 0.85750484 -0.39647874 0
3.1231256 0.84684283 -0.3974517 0
-3.1082134 0.91485888 -0.30023935 0
-3.0070243 0.95574224 -0.30152971 0
-2.921458 0.92854798 -0.30277628 0
-2.8495319 0.95841402 -0.30402341 0
-2.7431011 0.96655178 -0.30495042 0
-2.6327384 0.94176859 -0.30708098 0
-2.5367947 0.94860321 -0.30848822 0
-2.44784 0.95544529 -0.31058502 0
-2.3432846 0.95350307 -0.31177157 0
-2.2362878 0.94752717 -0.31364489 0
-2.1473892 0.94631654 -0.31478205 0
-2.0617197 0.9440167 -0.31652066 0
-1.9698408 0.95370042 -0.31828851 0
-1.8570561 0.93746823 -0.32001066 0
-1.7670538 0.95115739 -0.32154733 0
-1.6543944 0.95250946 -0.32342398 0
-1.5686076 0.94862825 -0.32465357 0
-1.4599295 0.93103367 -0.32607347 0
-1.3643461 0.95562494 -0.32706165 0
-1.2524759 0.95460576 -0.32897577 0
-1.1413287 0.93601108 -0.33142307 0
-1.0547514 0.95635402 -0.33367583 0
-0.94487309 0.94829386 -0.33365682 0
-0.85071355 0.94402796 -0.33446658 0
-0.77430362 0.97920817 -0.33456403 0
0.96325654 0.95837229 -0.36419952 0
1.0542732 0.94340861 -0.36585706 0
1.1537977 0.94458252 -0.36722228 0
1.2634846 0.95526445 -0.3680084 0
1.3475386 0.94803429 -0.36963937 0
1.4608791 0.94447231 -0.37212548 0
1.5619242 0.94448251 -0.37330475 0
1.6634438 0.95767981 -0.37533206 0
1.7570184 0.93482572 -0.3770391 0
1.8710823 0.95589697 -0.37900907 0
1.9677 0.95247036 -0.38114515 0
2.0578299 0.96011597 -0.38271824 0
2.1489398 0.9470191 -0.38269913 0
2.2228539 0.9606818 -0.38370299 0
2.3411758 0.95654237 -0.38562283 0
2.4316838 0.94908619 -0.38818353 0
2.5188274 0.9624362 -0.38939795 0
2.6327124 0.9630444 -0.39090547 0
2.7377956 0.94268394 -0.39168414 0
2.853281 0.95198238 -0.39463913 0
2.9583519 0.95593053 -0.39627767 0
3.0711243 0.94722378 -0.39715785 0
-3.0696857 1.0485817 -0.30108902 0
-2.9729905 1.0394261 -0.30220646 0
-2.8543406 1.0516998 -0.30511811 0
-2.7461374 1.049576 -0.30670303 0
-2.6493673 1.0560457 -0.30799788 0
-2.5395966 1.0618619 -0.30987713 0
-2.4128463 1.0633025 -0.31175056 0
-2.3216085 1.0390056 -0.3130722 0
-2.2462351 1.048023 -0.31468549 0
-2.137217 1.0535928 -0.31697333 0
-2.0225358 1.0516149 -0.31816736 0
-1.928813 1.056121 -0.31952074 0
-1.8367938 1.0576243 -0.32147023 0
-1.7468398 1.0374941 -0.32259348 0
-1.6600039 1.0431025 -0.32411236 0
-1.5578974 1.0619992 -0.32526875 0
-1.4456898 1.049018 -0.32699731 0
-1.3324643 1.0460575 -0.32871523 0
-1.2617393 1.0616535 -0.32994977 0
-1.149641 1.0528212 -0.33210948 0
-1.0398778 1.0374777 -0.33241755 0
-0.95784986 1.0583135 -0.33404532 0
-0.8472839 1.0405183 -0.33518213 0
-0.75157475 1.0513955 -0.33924645 0
-0.66843867 1.0790936 -0.34019068 0
0.84989643 1.0589124 -0.36396983 0
0.9399063 1.0562649 -0.36620811 0
1.0354037 1.0542084 -0.36678076 0
1.161171 1.0642078 -0.36811239 0
1.241155 1.0369965 -0.3693493 0
1.3474584 1.0514005 -0.3718003 0
1.4404558 1.0403824 -0.3718226 0
1.5569125 1.0560911 -0.3740297 0
1.6305665 1.0417818 -0.37532032 0
1.725512 1.0435183 -0.37743318 0
1.8357016 1.0568993 -0.37912369 0
1.9428699 1.0457511 -0.38050723 0
2.0545237 1.0496477 -0.38196838 0
2.1768076 1.0703647 -0.38618454 0
2.2473998 1.0385725 -0.38583255 0
2.3851321 1.0510602 -0.38785136 0
2.4729462 1.0477871 -0.38819975 0
2.5717955 1.046385 -0.38957533 0
2.6665504 1.062709 -0.39186561 0
2.7685692 1.0578551 -0.39404047 0
2.8631859 1.0473696 -0.39524722 0
2.949985 1.0551794 -0.39631984 0
3.0591338 1.0450032 -0.39781719 0
-3.134999 1.1467927 -0.30143973 0
-3.0406728 1.1617708 -0.30314389 0
-2.9511807 1.1519066 -0.3044689 0
-2.8585548 1.1394238 -0.30550408 0
-2.7644029 1.1479506 -0.30722043 0
-2.6672754 1.1526827 -0.30863446 0
-2.5721569 1.1555181 -0.31017488 0
-2.4861145 1.1383902 -0.31165376 0
-2.3357937 1.1307636 -0.31461373 0
-2.2663162 1.1695617 -0.31504384 0
-2.1641674 1.1450047 -0.31621763 0
-2.0697527 1.1526476 -0.31805182 0
-1.9582834 1.1462679 -0.32036176 0
-1.8799999 1.1552911 -0.32111493 0
-1.7618847 1.1355597 -0.32351822 0
-1.6671047 1.1502525 -0.32431436 0
-1.5427288 1.1584775 -0.32682166 0
-1.454658 1.1588656 -0.32756168 0
-1.3483657 1.1553471 -0.32927227 0
-1.2476932 1.1370581 -0.33047575 0
-1.1453186 1.1494342 -0.33284271 0
-1.0492662 1.1474586 -0.33342373 0
-0.93790156 1.1424471 -0.3353774 0
-0.85838574 1.1544714 -0.33780727 0
-0.74883103 1.1430349 -0.33955681 0
-0.63824069 1.155884 -0.34026748 0
-0.55310774 1.1532907 -0.3428266 0
-0.48924375 1.1901931 -0.34481204 0
0.65390468 1.1837521 -0.36243588 0
0.75450563 1.141122 -0.36406392 0
0.85099149 1.1417164 -0.36416164 0
0.94649959 1.1622304 -0.36626169 0
1.0608898 1.1617163 -0.36736947 0
1.1306796 1.1437116 -0.36828312 0
1.2483493 1.1496168 -0.36985812 0
1.3568521 1.1459435 -0.37182248 0
1.4560466 1.1430254 -0.37425539 0
1.5479747 1.1452038 -0.37558699 0
1.6498584 1.1488825 -0.37618455 0
1.754007 1.148206 -0.3782365 0
1.8501854 1.155251 -0.38024098 0
1.9552677 1.1444712 -0.38201469 0
2.0524921 1.1429185 -0.38331041 0
2.1325035 1.1479194 -0.38360676 0
2.2535977 1.1553475 -0.38618666 0
2.3535898 1.1393871 -0.388955 0
2.4488304 1.1425632 -0.39012957 0
2.5410516 1.1415591 -0.3911536 0
2.6300323 1.1589756 -0.39276999 0
2.7195365 1.1522633 -0.39342421 0
2.8414814 1.1641903 -0.3946805 0
2.929467 1.1433727 -0.39703029 0
3.0268879 1.1565026 -0.39884683 0
-3.2169609 1.220374 -0.30110911 0
-3.1514177 1.2561533 -0.3020128 0
-3.0140195 1.2516084 -0.30421788 0
-2.9154944 1.2599497 -0.30572578 0
-2.8253396 1.2450763 -0.30698678 0
-2.7320125 1.2509785 -0.30870485 0
-2.6376891 1.2537682 -0.31036329 0
-2.5448682 1.2545629 -0.31222108 0
-2.4447775 1.2489495 -0.31314245 0
-2.3466628 1.2415063 -0.31411088 0
-2.2350862 1.2446574 -0.31547013 0
-2.1408696 1.2531432 -0.31848907 0
-2.0188673 1.260705 -0.32020268 0
-1.9296494 1.2436967 -0.32118872 0
-1.8365961 1.2402977 -0.32281184 0
-1.7347903 1.2453139 -0.32424712 0
-1.6327111 1.2424018 -0.32579204 0
-1.560941 1.2619135 -0.32695112 0
-1.4676671 1.2575777 -0.32797158 0
-1.3618757 1.2397941 -0.32965475 0
-1.2445747 1.2312932 -0.33236966 0
-1.152125 1.2570843 -0.33298272 0
-1.0556877 1.2485869 -0.33409756 0
-0.94812757 1.2529408 -0.33719146 0
-0.83681309 1.2374295 -0.3381049 0
-0.74545455 1.2554883 -0.33929843 0
-0.65364254 1.2463458 -0.3410362 0
-0.56109399 1.252918 -0.34386098 0
-0.44674763 1.2509174 -0.34564671 0
-0.36054963 1.2578739 -0.34623376 0
-0.24463154 1.2756032 -0.34812906 0
-0.13465147 1.2934086 -0.34848475 0
-0.088372506 1.2979181 -0.34858075 0
0.28830808 1.2998552 -0.35675898 0
0.35069337 1.2870371 -0.35749009 0
0.44600034 1.2611657 -0.35854396 0
0.5514375 1.2516133 -0.36005315 0
0.64059442 1.249874 -0.36208925 0
0.75954622 1.2459855 -0.36523193 0
0.85763949 1.2467297 -0.36483791 0
0.95787591 1.2592891 -0.36735415 0
1.041327 1.2362827 -0.36774915 0
1.1433367 1.2504488 -0.36931583 0
1.2506827 1.2551748 -0.37122837 0
1.3585864 1.2572979 -0.37167573 0
1.4568727 1.2483921 -0.37433603 0
1.5630774 1.263514 -0.37613261 0
1.6499351 1.2501773 -0.37859368 0
1.7513939 1.2444251 -0.37886176 0
1.8548489 1.2526364 -0.38009021 0
1.954826 1.2533817 -0.38320747 0
2.0619907 1.2439731 -0.38483784 0
2.1367934 1.2386277 -0.38628417 0
2.2567627 1.2424873 -0.38723028 0
2.3741312 1.2561008 -0.38818225 0
2.4565933 1.2477168 -0.39062384 0
2.5650222 1.25699 -0.39339456 0
2.6583011 1.2559025 -0.39411449 0
2.7533934 1.2529011 -0.39513662 0
2.8500178 1.2479553 -0.39730406 0
2.9796696 1.2373422 -0.39745092 0
-3.1750309 1.3559633 -0.30257979 0
-3.0728359 1.3541406 -0.3041285 0
-2.9834199 1.3402748 -0.30543444 0
-2.8607101 1.3428794 -0.3075355 0
-2.7465925 1.3539684 -0.30956441 0
-2.650907 1.3542986 -0.31157851 0
-2.540765 1.3442258 -0.31134218 0
-2.4485409 1.3406327 -0.31329662 0
-2.342463 1.3411903 -0.31556782 0
-2.2376781 1.3357999 -0.31760734 0
-2.175519 1.3584992 -0.31826919 0
-2.0639987 1.351335 -0.32022277 0
-1.9666313 1.3487487 -0.32137433 0
-1.8727605 1.3443601 -0.32310355 0
-1.7716174 1.3502877 -0.32498491 0
-1.6700062 1.3500592 -0.32625532 0
-1.5613265 1.3399733 -0.32691753 0
-1.456991 1.3493431 -0.32943398 0
-1.3459644 1.3428725 -0.33097032 0
-1.2449653 1.3421671 -0.33258706 0
-1.1459482 1.3428309 -0.33390921 0
-1.0513828 1.3546773 -0.33605376 0
-0.94680208 1.3493031 -0.338346 0
-0.84269685 1.3604208 -0.33857837 0
-0.74193937 1.333724 -0.34023461 0
-0.65542221 1.3385506 -0.34226257 0
-0.55253941 1.3682458 -0.34414101 0
-0.45563078 1.3494135 -0.34470111 0
-0.34785154 1.3568044 -0.34748966 0
-0.25335109 1.3548385 -0.34846997 0
-0.15739317 1.3555945 -0.35086569 0
-0.048915427 1.3520314 -0.35268071 0
0.048668053 1.3483114 -0.35364327 0
0.15004966 1.3491542 -0.3549436 0
0.24335514 1.3491414 -0.35737717 0
0.34229279 1.3464358 -0.35977605 0
0.45535934 1.356253 -0.35987213 0
0.54450554 1.3481512 -0.36255726 0
0.65971857 1.3505678 -0.36376724 0
0.75712585 1.3676127 -0.36590132 0
0.84221327 1.3380699 -0.36436272 0
0.93208981 1.348635 -0.36681244 0
1.0507901 1.3563408 -0.36978349 0
1.1457665 1.3548334 -0.3700892 0
1.2424512 1.3548136 -0.3718214 0
1.3458287 1.36243 -0.37428626 0
1.4370346 1.3517008 -0.3763262 0
1.5502095 1.3476729 -0.37736782 0
1.6472677 1.3512623 -0.37805125 0
1.7385913 1.3250147 -0.38029727 0
1.8393388 1.3606807 -0.38183466 0
1.9497513 1.3577293 -0.38302603 0
2.0286717 1.3280208 -0.38408414 0
2.1258473 1.3486556 -0.38627377 0
2.2437918 1.3349565 -0.38835034 0
2.3408983 1.34784 -0.39000657 0
2.433861 1.3553724 -0.39112914 0
2.5253708 1.3593796 -0.39206627 0
2.6356931 1.346427 -0.39401889 0
2.7475314 1.3543968 -0.39677638 0
2.8447833 1.3521488 -0.39773339 0
2.9469833 1.349324 -0.39884585 0
-3.1410923 1.4655211 -0.30401075 0
-3.03898 1.4711772 -0.30569631 0
-2.9493468 1.4539608 -0.30729699 0
-2.84673 1.4543046 -0.30865869 0
-2.7461302 1.4528557 -0.31018469 0
-2.6462777 1.4489733 -0.31132457 0
-2.5566041 1.4478878 -0.31312132 0
-2.4630651 1.4417824 -0.31457016 0
-2.3697 1.4329596 -0.31613049 0
-2.2569592 1.4546527 -0.31786895 0
-2.1545367 1.4382055 -0.31971443 0
-2.0368888 1.4546689 -0.32075226 0
-1.9425625 1.4443369 -0.32342252 0
-1.856495 1.4573948 -0.32521474 0
-1.7492483 1.4559709 -0.32564145 0
-1.6443443 1.4503336 -0.32645479 0
-1.5407758 1.4394716 -0.32928565 0
-1.4563178 1.449544 -0.32923868 0
-1.3541713 1.4475927 -0.33239275 0
-1.2492017 1.4388235 -0.3334296 0
-1.1440431 1.4467119 -0.33477154 0
-1.0346867 1.4523258 -0.33874315 0
-0.94059145 1.4480908 -0.33779511 0
-0.86188287 1.470608 -0.33911148 0
-0.75935572 1.4478978 -0.34052125 0
-0.65269005 1.4544766 -0.343853 0
-0.55348414 1.4641743 -0.3445341 0
-0.45678136 1.4288583 -0.34441683 0
-0.3564536 1.4575588 -0.34804454 0
-0.25273532 1.4723424 -0.3496649 0
-0.15664056 1.4423494 -0.35031539 0
-0.056932069 1.4495032 -0.35314658 0
0.046982549 1.4556577 -0.35527927 0
0.1512033 1.451781 -0.3556934 0
0.2564576 1.4474183 -0.35787311 0
0.36235619 1.4514307 -0.36020613 0
0.45885071 1.4682126 -0.36225682 0
0.55480874 1.4677504 -0.36442983 0
0.64864099 1.4375318 -0.36566278 0
0.73351467 1.4484451 -0.36642122 0
0.84240103 1.4462869 -0.36682516 0
0.94391221 1.4530475 -0.36757684 0
1.0418441 1.453768 -0.36965749 0
1.1585809 1.4677917 -0.37199926 0
1.2465134 1.4442226 -0.37194088 0
1.3361516 1.4544368 -0.3741295 0
1.4470985 1.4399611 -0.37627369 0
1.5406644 1.4393904 -0.37724006 0
1.649774 1.4551007 -0.38007867 0
1.7577841 1.4462227 -0.38133016 0
1.8463125 1.4492917 -0.38288054 0
1.942391 1.4512239 -0.38410813 0
2.0515382 1.4505823 -0.38550836 0
2.1544328 1.4549427 -0.38703528 0
2.259572 1.4334986 -0.38939616 0
2.3650084 1.4768213 -0.39137518 0
2.4582462 1.4466122 -0.39256892 0
2.5817113 1.4619665 -0.39451611 0
2.6632736 1.4335836 -0.39506173 0
2.7685928 1.4647934 -0.39679962 0
2.8610609 1.4618056 -0.39879841 0
2.9252543 1.4161024 -0.39963537 0
-3.1181228 1.5557442 -0.30542132 0
-3.0529742 1.559707 -0.30709553 0
-2.9401498 1.5555254 -0.30739957 0
-2.8454916 1.5579723 -0.30994362 0
-2.7347033 1.5657787 -0.31143668 0
-2.6275465 1.5379876 -0.3131057 0
-2.5406229 1.5527936 -0.3140983 0
-2.4206426 1.5357676 -0.31641775 0
-2.3351765 1.5528252 -0.31764901 0
-2.2148573 1.5423143 -0.31949228 0
-2.1229413 1.5472292 -0.32089707 0
-2.051471 1.5404397 -0.32285011 0
-1.9465194 1.5507101 -0.32455781 0
-1.8363708 1.5508757 -0.3250452 0
-1.7321743 1.550054 -0.32654628 0
-1.6316508 1.5463253 -0.32825181 0
-1.5432191 1.5488515 -0.32888386 0
-1.4412774 1.5373137 -0.33192664 0
-1.3621038 1.5650073 -0.33354965 0
-1.2534487 1.5484492 -0.3338359 0
-1.1565771 1.5514621 -0.336265 0
-1.0465519 1.5663917 -0.33843675 0
-0.94842482 1.5559974 -0.33897203 0
-0.83768612 1.5475527 -0.34087014 0
-0.74963087 1.553198 -0.34315512 0
-0.64165395 1.5610528 -0.34457192 0
-0.54563743 1.542881 -0.34464481 0
-0.44932723 1.5471607 -0.34663936 0
-0.35335562 1.5405834 -0.34814599 0
-0.24790198 1.5488276 -0.35098299 0
-0.14936197 1.5264957 -0.35213664 0
-0.049206302 1.5288519 -0.35404694 0
0.049606428 1.537484 -0.35655367 0
0.14646786 1.537904 -0.35654023 0
0.24770875 1.5245402 -0.35769325 0
0.34452006 1.5295138 -0.36029866 0
0.43576595 1.5413637 -0.36321071 0
0.55129379 1.5585831 -0.36490563 0
0.65694028 1.5441186 -0.36575761 0
0.73887128 1.5692081 -0.36654204 0
0.85011202 1.5543061 -0.36813211 0
0.9513818 1.5358268 -0.36823022 0
1.0499451 1.5754818 -0.37121108 0
1.1378646 1.5328064 -0.37170506 0
1.2513578 1.5593309 -0.37386444 0
1.370993 1.5656997 -0.37516406 0
1.4476347 1.5459819 -0.37698314 0
1.5375905 1.543025 -0.37880236 0
1.6500419 1.5591915 -0.3802585 0
1.7594637 1.5518471 -0.38313356 0
1.8665314 1.5536183 -0.38490736 0
1.9787087 1.5533644 -0.38590753 0
2.0805926 1.5622588 -0.38709152 0
2.153615 1.5459313 -0.38827723 0
2.2541633 1.5459139 -0.38960433 0
2.3254118 1.5223919 -0.39077699 0
2.4271302 1.5397968 -0.39280978 0
2.5463667 1.5648038 -0.39484781 0
2.6404748 1.5455564 -0.39587164 0
2.7368352 1.5498073 -0.39761555 0
2.8437736 1.5570419 -0.39941809 0
-3.0703964 1.6527281 -0.30707535 0
-2.9554009 1.6457729 -0.3091554 0
-2.8642869 1.6492355 -0.30998981 0
-2.7681825 1.6469839 -0.31127855 0
-2.6659546 1.6383221 -0.31302845 0
-2.5613985 1.6508652 -0.31496528 0
-2.4689143 1.6417698 -0.31650883 0
-2.3508623 1.6621295 -0.3180432 0
-2.2600975 1.6472077 -0.31973067 0
-2.1531847 1.6654419 -0.31709197 0
-2.0557139 1.6376421 -0.32384807 0
-1.9499398 1.6467925 -0.32429597 0
-1.8592638 1.663776 -0.32580188 0
-1.7651124 1.6490874 -0.32704592 0
-1.6610062 1.6433496 -0.32806647 0
-1.5400635 1.6604635 -0.32758129 0
-1.4411364 1.6457685 -0.32931823 0
-1.3369929 1.6417562 -0.33254164 0
-1.2538494 1.6680132 -0.33470434 0
-1.1498352 1.6488268 -0.33738118 0
-1.0442221 1.66415 -0.33889431 0
-0.94578439 1.6564316 -0.34014732 0
-0.84925091 1.6419868 -0.34049481 0
-0.74133545 1.6345184 -0.34306633 0
-0.65126169 1.6511734 -0.34506261 0
-0.55919176 1.6564224 -0.34541526 0
-0.44038525 1.6570034 -0.34837544 0
-0.35262626 1.6455944 -0.34873807 0
-0.24348398 1.6477355 -0.35159019 0
-0.14007984 1.6478314 -0.35389224 0
-0.052954882 1.6449745 -0.35482067 0
0.047837436 1.6506392 -0.35690704 0
0.16382404 1.650489 -0.35819685 0
0.25468093 1.6417915 -0.35897136 0
0.35348514 1.6489643 -0.3618004 0
0.45636532 1.6594514 -0.36358953 0
0.55196953 1.6346973 -0.36501327 0
0.64223623 1.663012 -0.36664274 0
0.74718976 1.64746 -0.36617491 0
0.85199898 1.6754177 -0.36815542 0
0.95622748 1.6397094 -0.36997879 0
1.038691 1.6502914 -0.3703081 0
1.1466614 1.6343206 -0.37342048 0
1.2425143 1.6670113 -0.37501752 0
1.3390499 1.6443725 -0.37536132 0
1.4388237 1.6431496 -0.3771058 0
1.5448538 1.6417133 -0.37920377 0
1.6545331 1.6603862 -0.38122737 0
1.7505963 1.6649559 -0.38289103 0
1.8304939 1.6379957 -0.38486764 0
1.9562783 1.6522051 -0.38677028 0
2.0389194 1.6243234 -0.38767242 0
2.1302414 1.6478107 -0.38894027 0
2.2361708 1.6541653 -0.39037594 0
2.3545704 1.6396939 -0.39214531 0
2.4504931 1.6548766 -0.39413309 0
2.5671902 1.6544971 -0.3961232 0
2.6674466 1.6656682 -0.39760059 0
2.7580299 1.6544085 -0.39845395 0
2.8108478 1.6183751 -0.39899093 0
-3.0354433 1.7477208 -0.30806589 0
-2.9234104 1.7393432 -0.30939138 0
-2.8201561 1.7330844 -0.31152239 0
-2.7264376 1.7297695 -0.3134445 0
-2.6367526 1.7533588 -0.31463102 0
-2.5280368 1.7337086 -0.31664109 0
-2.4590642 1.7386725 -0.31640637 0
-2.3626313 1.7474895 -0.31950438 0
-2.2176032 1.7153325 -0.30598527 0
-2.1884453 1.7434051 -0.30277517 0
-2.056942 1.7117481 -0.31770366 0
-1.9472228 1.7421474 -0.3251968 0
-1.8511423 1.754369 -0.32557467 0
-1.7551064 1.7445036 -0.32744047 0
-1.6505023 1.7541149 -0.32467324 0
-1.5475774 1.7672668 -0.32050216 0
-1.4554771 1.7359535 -0.32179302 0
-1.3508513 1.7488759 -0.32060936 0
-1.2207445 1.7399517 -0.33666483 0
-1.1549642 1.7611935 -0.33937898 0
-1.0397103 1.7674713 -0.34023175 0
-0.93747401 1.7569919 -0.34020978 0
-0.85199553 1.7439733 -0.3392151 0
-0.74743414 1.7533537 -0.33716112 0
-0.65525454 1.7412236 -0.3370994 0
-0.5478915 1.7360754 -0.34041575 0
-0.43987581 1.7380321 -0.34856054 0
-0.33363527 1.7659613 -0.35054478 0
-0.25912389 1.7634882 -0.35279548 0
-0.15648939 1.7451644 -0.35429811 0
-0.056559384 1.757197 -0.35554942 0
0.044249251 1.7656968 -0.35722488 0
0.14402725 1.7454319 -0.35875538 0
0.24668694 1.7560505 -0.36071956 0
0.34840769 1.7474153 -0.36200511 0
0.45166749 1.7392881 -0.36389074 0
0.55826217 1.7628082 -0.36585629 0
0.65558088 1.7690998 -0.36719209 0
0.75702947 1.737854 -0.36779699 0
0.85328335 1.7789106 -0.36895978 0
0.9456268 1.7418736 -0.37072021 0
1.0433109 1.7678852 -0.37309319 0
1.1478641 1.7451137 -0.37386051 0
1.2529334 1.7587376 -0.37634444 0
1.3450848 1.7518456 -0.37752223 0
1.4437156 1.7471684 -0.37776554 0
1.5481937 1.7426833 -0.37961131 0
1.6517951 1.7554004 -0.38181263 0
1.7676619 1.7740333 -0.38422966 0
1.8515785 1.754786 -0.38530639 0
1.9411581 1.7370172 -0.38742787 0
2.0441744 1.7515858 -0.38884643 0
2.163718 1.7491355 -0.39064133 0
2.26931 1.755322 -0.39205742 0
2.3463609 1.753261 -0.39294901 0
2.4429212 1.7536041 -0.39411557 0
2.5487678 1.74795 -0.3966724 0
2.6617551 1.7425878 -0.3988288 0
2.7516038 1.7272668 -0.39932844 0
-3.0150745 1.8529296 -0.30962366 0
-2.9743576 1.8278468 -0.31001627 0
-2.8658378 1.847078 -0.31206158 0
-2.7704401 1.8422695 -0.31340638 0
-2.6606293 1.8527366 -0.31476167 0
-2.5578928 1.8361559 -0.31599718 0
-2.471734 1.8286 -0.3183791 0
-2.3986237 1.8010796 -0.32038453 0
-1.9292284 1.828452 -0.32638773 0
-1.8408419 1.8475215 -0.32671988 0
-1.7537149 1.8640044 -0.321172 0
-1.655527 1.8634822 -0.31516692 0
-1.5540864 1.867167 -0.30745184 0
-1.4575787 1.8430923 -0.30624753 0
-1.3742511 1.8439053 -0.30678666 0
-1.1222827 1.8263023 -0.33986542 0
-1.054211 1.8772739 -0.3413488 0
-0.95313162 1.8602604 -0.33836114 0
-0.85062921 1.8616183 -0.33511889 0
-0.75946403 1.8552694 -0.3290903 0
-0.64635038 1.8563105 -0.3230539 0
-0.57606101 1.8510804 -0.32380787 0
-0.43796936 1.8493351 -0.33810234 0
-0.35489416 1.8495662 -0.35108495 0
-0.23219159 1.8426598 -0.35427573 0
-0.14923985 1.840075 -0.35476387 0
-0.053619899 1.8312734 -0.3563107 0
0.051490039 1.8396533 -0.35806483 0
0.15163332 1.8384135 -0.35889876 0
0.25011712 1.838191 -0.36164209 0
0.34391418 1.8344625 -0.36325687 0
0.4418644 1.8190353 -0.36444628 0
0.54250604 1.843317 -0.36603358 0
0.65671873 1.856984 -0.36798808 0
0.73946202 1.8359605 -0.36986974 0
0.83814347 1.8547112 -0.36945838 0
0.95805371 1.8266075 -0.37178093 0
1.0534184 1.8757513 -0.37405944 0
1.1516749 1.849027 -0.37485909 0
1.2387729 1.8484663 -0.37656802 0
1.3378656 1.8497598 -0.37908086 0
1.4640588 1.8629144 -0.37944275 0
1.5611026 1.8274542 -0.38075966 0
1.6563257 1.8642809 -0.38249242 0
1.7547346 1.8561726 -0.38378751 0
1.8306348 1.837232 -0.38592893 0
1.9503367 1.8482165 -0.38805851 0
2.0580299 1.868198 -0.39014745 0
2.1512835 1.861372 -0.39154291 0
2.2380497 1.8449632 -0.39302573 0
2.3441622 1.8581785 -0.39415634 0
2.4371204 1.8299706 -0.39518929 0
2.5368676 1.8486791 -0.39630717 0
2.6545424 1.8485066 -0.39880633 0
-2.9427905 1.944627 -0.31156188 0
-2.8265905 1.9384545 -0.31329662 0
-2.7548733 1.947823 -0.31344333 0
-2.6425228 1.9450084 -0.31653574 0
-2.5434613 1.9098355 -0.31866717 0
-1.8455222 1.9059391 -0.32575035 0
-1.6700697 1.9071015 -0.31126502 0
-1.598226 1.9062375 -0.30543628 0
-0.98272765 1.9066544 -0.33974501 0
-0.86829185 1.914225 -0.33293819 0
-0.74737024 1.907405 -0.3245174 0
-0.64282101 1.9039522 -0.31827947 0
-0.58398128 1.9082279 -0.31606948 0
-0.44713616 1.9499096 -0.33481333 0
-0.34355432 1.9399581 -0.35238516 0
-0.24768066 1.9676739 -0.35466293 0
-0.14524254 1.966074 -0.35561344 0
-0.054437198 1.9470564 -0.35743093 0
0.039311472 1.9453853 -0.35819829 0
0.15686448 1.9368681 -0.35973305 0
0.25418726 1.9520893 -0.36155623 0
0.3586081 1.9432507 -0.36399138 0
0.4538196 1.9519618 -0.36585632 0
0.55463326 1.961676 -0.36635137 0
0.65607285 1.9433042 -0.36870366 0
0.75494534 1.9470227 -0.37044477 0
0.84063298 1.9646832 -0.37145689 0
0.95102328 1.9466652 -0.37282348 0
1.0499959 1.9676358 -0.37516287 0
1.1369945 1.9266381 -0.37567282 0
1.2331433 1.959236 -0.37718192 0
1.3441628 1.9619471 -0.37934271 0
1.4254526 1.9415346 -0.38151416 0
1.5443276 1.9528623 -0.38175219 0
1.6541185 1.9729865 -0.3827222 0
1.744939 1.9545592 -0.385636 0
1.8488487 1.9368223 -0.38671288 0
1.9401121 1.975091 -0.38882199 0
2.0522134 1.9540454 -0.39042988 0
2.1642518 1.9646488 -0.39324439 0
2.2349091 1.9428712 -0.39337111 0
2.3463113 1.9529423 -0.39538085 0
2.4694493 1.9385862 -0.39687267 0
2.5713079 1.9596637 -0.39869684 0
2.6066968 1.9282908 -0.39811638 0
-2.9259534 2.0375292 -0.31194758 0
-2.8525319 2.047662 -0.31344932 0
-2.7633066 2.0442867 -0.31559539 0
-2.6882992 2.0185914 -0.31694984 0
-0.44994873 2.0640752 -0.34317416 0
-0.36325684 2.0336287 -0.35275751 0
-0.25779068 2.0479441 -0.35496113 0
-0.15514877 2.0612996 -0.35587594 0
-0.044398598 2.0613916 -0.35920689 0
0.061316643 2.0597131 -0.36008897 0
0.15481463 2.0559072 -0.36147672 0
0.24958667 2.0543411 -0.36281365 0
0.34802914 2.0670688 -0.36453912 0
0.4587723 2.0683057 -0.36672506 0
0.54775834 2.0491543 -0.36720538 0
0.65341616 2.0304801 -0.36933708 0
0.76427603 2.0517285 -0.3713803 0
0.84357482 2.0523272 -0.3728219 0
0.95053124 2.0559139 -0.37425271 0
1.0596224 2.0558157 -0.37661931 0
1.160074 2.0511744 -0.37745219 0
1.2431382 2.0391505 -0.37827995 0
1.3344781 2.0381322 -0.37957337 0
1.4489726 2.033829 -0.38277331 0
1.557601 2.0590229 -0.38353968 0
1.6370018 2.0398664 -0.38292974 0
1.7417368 2.0474062 -0.38509178 0
1.8522121 2.0551631 -0.38787413 0
1.9540926 2.0767238 -0.38923389 0
2.0446501 2.042043 -0.39140961 0
2.1427681 2.0307484 -0.39262116 0
2.2560246 2.0479326 -0.39491907 0
2.3693295 2.0597329 -0.39635897 0
2.4437506 2.0340462 -0.39882642 0
2.5303926 2.0256507 -0.39824495 0
-2.9016154 2.1145082 -0.31411329 0
-2.8548572 2.1436565 -0.31497496 0
-0.42952701 2.1776288 -0.35328791 0
-0.34671107 2.1677184 -0.35399452 0
-0.25259537 2.1293361 -0.35508385 0
-0.14608394 2.1453135 -0.35689697 0
-0.05405603 2.160867 -0.35964108 0
0.038710173 2.1610861 -0.36012018 0
0.14784293 2.1713841 -0.36227971 0
0.25701931 2.1658354 -0.36337352 0
0.35101759 2.1610334 -0.36471686 0
0.44571772 2.1548195 -0.36696407 0
0.53788966 2.1342754 -0.36803958 0
0.65514642 2.1405497 -0.36980963 0
0.74442071 2.1539652 -0.37158632 0
0.85996896 2.1355104 -0.3741354 0
0.94612724 2.1681666 -0.37563401 0
1.0614419 2.1337144 -0.37747887 0
1.1514249 2.13888 -0.37838191 0
1.2580446 2.1318712 -0.37951115 0
1.3424816 2.1558211 -0.38105631 0
1.4315399 2.1361601 -0.38214421 0
1.5401517 2.1618237 -0.38526309 0
1.6488277 2.1366711 -0.38524327 0
1.7396262 2.1361794 -0.38589203 0
1.8448642 2.168618 -0.38809347 0
1.961691 2.1556296 -0.39051318 0
2.0641601 2.1420653 -0.39248243 0
2.1613939 2.1383209 -0.39426795 0
2.2553508 2.1682513 -0.39577651 0
2.3587091 2.161912 -0.39765742 0
2.4338174 2.1343033 -0.39805859 0
-0.41913405 2.2712896 -0.34604543 0
-0.34111452 2.2340102 -0.35655025 0
-0.2475401 2.2222593 -0.35495594 0
-0.15275662 2.2436874 -0.3575283 0
-0.056638904 2.2649074 -0.36054924 0
0.040636476 2.268496 -0.36127266 0
0.13847254 2.2735329 -0.3624 0
0.24325684 2.273133 -0.36447707 0
0.34572467 2.2656584 -0.36491609 0
0.4458099 2.2648435 -0.36769044 0
0.54444015 2.2513614 -0.36936277 0
0.63366663 2.2414505 -0.36992717 0
0.73546124 2.2308362 -0.37206087 0
0.83847296 2.2304788 -0.37423494 0
0.9507978 2.2666953 -0.37646455 0
1.0665256 2.2233622 -0.37783992 0
1.1513392 2.2604883 -0.38028014 0
1.2391757 2.2440856 -0.38056198 0
1.3436041 2.2518895 -0.38203755 0
1.4480077 2.2292573 -0.3830142 0
1.5468993 2.2729206 -0.38529035 0
1.6485157 2.2453108 -0.38690859 0
1.7481245 2.243453 -0.38747096 0
1.8658947 2.2581379 -0.3887842 0
1.9467163 2.2558594 -0.39066151 0
2.0309792 2.2535112 -0.3924059 0
2.1566179 2.259244 -0.39497289 0
2.2714453 2.2796228 -0.39782369 0
2.3321502 2.2420888 -0.39764732 0
-0.41990155 2.3712082 -0.34660167 0
-0.36191046 2.3335598 -0.35586312 0
-0.26005393 2.3346734 -0.35580087 0
-0.15928376 2.3397214 -0.35834423 0
-0.059103519 2.3637021 -0.36131358 0
0.042438235 2.369076 -0.36223403 0
0.14450057 2.3720117 -0.3634578 0
0.24751127 2.376754 -0.36549595 0
0.3494384 2.3650062 -0.36594629 0
0.45418286 2.3663416 -0.36871994 0
0.55800909 2.3559089 -0.37058091 0
0.65952915 2.3329315 -0.37114215 0
0.76311582 2.3147204 -0.37315342 0
0.86127931 2.3807876 -0.37542069 0
0.95156705 2.3626676 -0.37750107 0
1.0361916 2.3287635 -0.3780458 0
1.1335933 2.3631773 -0.3801181 0
1.2488481 2.3403413 -0.38169837 0
1.3492316 2.3628354 -0.38345212 0
1.4626675 2.32374 -0.38425943 0
1.5606121 2.3653345 -0.3860237 0
1.6389955 2.3357077 -0.38822579 0
1.7559133 2.355999 -0.38920236 0
1.8501812 2.3509319 -0.38954282 0
1.9284965 2.3338673 -0.39063206 0
2.0533323 2.3447301 -0.393442 0
2.1707122 2.3741508 -0.39566675 0
2.240978 2.3252723 -0.39734492 0
-0.43412083 2.4516153 -0.34212831 0
-0.33692032 2.4489732 -0.35671824 0
-0.25037721 2.4600427 -0.35739264 0
-0.16523163 2.4270723 -0.35909852 0
-0.061296795 2.4512253 -0.3619791 0
0.044007923 2.4568007 -0.36305547 0
0.14984643 2.4597809 -0.36443222 0
0.25662148 2.4642191 -0.36641899 0
0.36234784 2.4523523 -0.36720595 0
0.45335045 2.4568605 -0.36974818 0
0.54284233 2.447063 -0.37112722 0
0.64824194 2.424916 -0.37192109 0
0.75820196 2.4402375 -0.37385258 0
0.85505158 2.4740074 -0.37601796 0
0.94750011 2.4534376 -0.37786204 0
1.0372783 2.4242022 -0.37903181 0
1.144388 2.4758165 -0.38096845 0
1.2555939 2.4360721 -0.38266161 0
1.3485959 2.484195 -0.38412195 0
1.4387869 2.4381244 -0.38552555 0
1.5462341 2.4565423 -0.3866303 0
1.656042 2.4460866 -0.38859975 0
1.7461542 2.4509861 -0.39032331 0
1.8527961 2.449204 -0.39207822 0
1.9602168 2.4426041 -0.39200771 0
2.0483799 2.4609807 -0.39372671 0
2.1191213 2.420028 -0.39520606 0
-0.45602465 2.53951 -0.33141884 0
-0.36028278 2.5657241 -0.35701397 0
-0.23942384 2.5648272 -0.35924867 0
-0.16112982 2.5437729 -0.36029235 0
-0.063490078 2.5387485 -0.36264458 0
0.045577612 2.5445254 -0.36387685 0
0.15519227 2.5475502 -0.36540663 0
0.24718761 2.5512176 -0.36680296 0
0.33913425 2.5467055 -0.36834216 0
0.44995368 2.5395205 -0.3700771 0
0.56193268 2.5331345 -0.37214291 0
0.66679478 2.5423601 -0.37317455 0
0.73585206 2.5557206 -0.37441066 0
0.84607953 2.5663717 -0.37643102 0
0.95999074 2.5395765 -0.37863412 0
1.055285 2.5158138 -0.38037038 0
1.1441349 2.5713603 -0.38157579 0
1.2587394 2.5303776 -0.38359484 0
1.3738952 2.5745244 -0.38526973 0
1.4476353 2.5351458 -0.38655126 0
1.5466425 2.5784981 -0.38892913 0
1.6252377 2.5416291 -0.38832778 0
1.7471443 2.5671661 -0.39148533 0
1.8493587 2.5439818 -0.39175498 0
1.9458128 2.5468738 -0.39384189 0
-0.42868218 2.6388974 -0.3533797 0
-0.35451317 2.6619902 -0.35772884 0
-0.25864944 2.670002 -0.36006364 0
-0.14270572 2.6513438 -0.36147118 0
-0.047027443 2.6316428 -0.3639372 0
0.0471473 2.6322501 -0.36469826 0
0.16053815 2.6353197 -0.36638102 0
0.25566378 2.6386728 -0.36766237 0
0.35076848 2.634063 -0.36943325 0
0.44637221 2.6286206 -0.37127149 0
0.54210764 2.620652 -0.37216225 0
0.65083164 2.6348341 -0.37437391 0
0.75561672 2.6728008 -0.37562457 0
0.85524058 2.6578617 -0.37755394 0
0.95156431 2.6303816 -0.3790592 0
1.054468 2.6366928 -0.38062194 0
1.1416913 2.6682045 -0.38244665 0
1.2582309 2.622998 -0.38429034 0
1.3521576 2.6547422 -0.38569322 0
1.4535669 2.6323442 -0.38710824 0
1.5566694 2.6814523 -0.38982666 0
1.661355 2.639447 -0.38977817 0
1.7638291 2.6594534 -0.39223441 0
1.8341494 2.6272278 -0.39357486 0
-0.45273304 2.7450974 -0.35106036 0
-0.34588981 2.7469845 -0.35857424 0
-0.24782017 2.7636256 -0.36159545 0
-0.13867658 2.7626023 -0.36276364 0
-0.055766363 2.7456951 -0.36461458 0
0.048716988 2.7199752 -0.36551964 0
0.14619157 2.7213297 -0.36675149 0
0.24451625 2.7262878 -0.36853561 0
0.343014 2.7246447 -0.37034279 0
0.44432151 2.7350745 -0.37233737 0
0.54822516 2.7496066 -0.37319514 0
0.64402449 2.753437 -0.37543806 0
0.7599014 2.7633455 -0.37665141 0
0.83989191 2.7443252 -0.37752575 0
0.94166869 2.7246072 -0.37941912 0
1.0463201 2.7680054 -0.3819938 0
1.1578834 2.7604063 -0.38357562 0
1.2559217 2.7171211 -0.38478407 0
1.3551062 2.7738848 -0.38740662 0
1.4656465 2.7465448 -0.38797313 0
1.555228 2.7694883 -0.39000839 0
1.6410127 2.7357986 -0.39228243 0
-0.42907175 2.8758798 -0.35913795 0
-0.35973984 2.8572288 -0.35863349 0
-0.25565398 2.8509521 -0.36250135 0
-0.15412104 2.8699143 -0.36352411 0
-0.051258218 2.8504982 -0.36557388 0
0.051071521 2.8515623 -0.36675176 0
0.15326315 2.8529718 -0.36816311 0
0.25236997 2.8138533 -0.36945558 0
0.34871316 2.8529613 -0.37118003 0
0.45178425 2.846215 -0.37361479 0
0.55386668 2.8856385 -0.37484601 0
0.65991986 2.8776479 -0.37664831 0
0.7415911 2.855926 -0.37719679 0
0.84506321 2.833493 -0.37870979 0
0.96578455 2.8378124 -0.38028657 0
1.0640945 2.8771052 -0.38354462 0
1.149615 2.8544233 -0.38368356 0
1.2536904 2.8397009 -0.3853074 0
1.3451712 2.8563619 -0.38767207 0
1.4275708 2.8192511 -0.38801897 0
-0.41772431 2.97401 -0.3470313 0
-0.34219334 2.9428558 -0.35949609 0
-0.24313316 2.9484127 -0.36411744 0
-0.13080044 2.963115 -0.36439025 0
-0.053102762 2.9610758 -0.36633682 0
0.053514469 2.9876659 -0.36789715 0
0.16779089 2.9896858 -0.36938807 0
0.24338382 2.9501557 -0.37110004 0
0.35165063 2.9637876 -0.37256518 0
0.46104771 2.9728823 -0.37556115 0
0.54926395 2.9765968 -0.37558091 0
0.63541114 2.9647956 -0.37675872 0
0.75597656 2.9634502 -0.37851065 0
0.85639584 2.948561 -0.38002738 0
0.9437393 2.932972 -0.38098919 0
1.0397305 2.9398007 -0.38288191 0
1.1489007 2.9126904 -0.3844755 0
-0.42897135 3.0540838 -0.33524448 0
-0.38654074 3.0704224 -0.35215598 0
0.053741958 3.0033777 -0.3688269 0
0.14036435 3.0153151 -0.3706345 0
0.24890095 3.0177383 -0.37179884 0
0.33599466 3.0158563 -0.37260062 0
0.44718325 3.0251675 -0.37550521 0
0.55565774 3.0111225 -0.37597078 0
0.64378405 3.0040107 -0.37723035 0
0.71070766 3.0004683 -0.37860447 0
-0.44021836 3.1341574 -0.32345763 0
-0.39772055 3.1592271 -0.3492361 0
-0.43018284 3.2311316 -0.3289935 0
-0.42008013 3.3368368 -0.34339628 0
-0.43125993 3.4256415 -0.34047636 0
-0.44243971 3.5144465 -0.33755645 0
-0.45920938 3.6476536 -0.33317661 0
-0.47119945 3.7428946 -0.33004507 0
-0.80750614 -3.3035824 -0.29753461 0
-0.7603671 -3.3157802 -0.29762253 0
-0.65282702 -3.3579776 -0.29935282 0
-1.0332907 -3.2114091 -0.29514694 0
-0.97025526 -3.2536042 -0.29704806 0
-0.87243891 -3.2643197 -0.29748771 0
-0.76635599 -3.2354803 -0.29856211 0
-1.2291439 -3.1162839 -0.29308784 0
-1.1294684 -3.1457882 -0.29377985 0
-1.0488552 -3.1558545 -0.29550469 0
-0.94820917 -3.1794317 -0.29800022 0
-0.83209485 -3.1431448 -0.29901934 0
-0.74564993 -3.1480625 -0.29972088 0
-1.4205607 -3.0166166 -0.29171842 0
-1.3429931 -3.0377319 -0.29330134 0
-1.2653891 -3.0571258 -0.29323915 0
-1.1528614 -3.0499451 -0.2949076 0
-1.0521159 -3.0440121 -0.29638296 0
-0.9499504 -3.0516675 -0.2986095 0
-0.8993299 -3.0963588 -0.29955971 0
-1.5633903 -2.9296989 -0.29053426 0
-1.4690984 -2.9534461 -0.29027438 0
-1.3567414 -2.953696 -0.29275671 0
-1.2582755 -2.9408257 -0.29521829 0
-1.1589891 -2.937757 -0.29586017 0
-1.0651598 -2.9448702 -0.29721969 0
-0.97816336 -2.9670997 -0.29822013 0
-1.6509368 -2.8439274 -0.28860623 0
-1.5571795 -2.8685572 -0.2905741 0
-1.4402262 -2.8443391 -0.29233202 0
-1.3539811 -2.8752322 -0.29357111 0
-1.243187 -2.8489559 -0.29591978 0
-1.1574395 -2.8739841 -0.29569885 0
-1.0547458 -2.8521016 -0.29865399 0
-0.95006645 -2.8818727 -0.29939982 0
-1.8281819 -2.728148 -0.28732482 0
-1.7543314 -2.7609277 -0.28805164 0
-1.6546739 -2.758569 -0.2886042 0
-1.5543494 -2.7680016 -0.29120135 0
-1.4381849 -2.7421982 -0.29377416 0
-1.3331845 -2.7626035 -0.29437044 0
-1.241985 -2.7384865 -0.29645297 0
-1.1455126 -2.7680185 -0.29798105 0
-1.0581933 -2.7404339 -0.29919669 0
-1.9292958 -2.6276538 -0.28678474 0
-1.8590164 -2.6763325 -0.28742841 0
-1.7439083 -2.6431377 -0.28954709 0
-1.6440625 -2.6540146 -0.29024446 0
-1.5470041 -2.6646955 -0.29167762 0
-1.4470896 -2.6208644 -0.29392171 0
-1.3595909 -2.6532917 -0.29579663 0
-1.2440196 -2.6417863 -0.2970024 0
-1.1658407 -2.6715264 -0.2982088 0
-1.0568616 -2.624244 -0.29895151 0
-2.0492346 -2.5312152 -0.28583902 0
-1.9799969 -2.5788 -0.28600371 0
-1.8496571 -2.5574045 -0.28857997 0
-1.7302241 -2.5425951 -0.29061133 0
-1.6387744 -2.5362463 -0.29226705 0
-1.5398926 -2.567323 -0.29292142 0
-1.4389045 -2.5198267 -0.29471609 0
-1.3712844 -2.5695994 -0.2963171 0
-1.2424483 -2.5430882 -0.29810071 0
-1.151293 -2.5873935 -0.29911274 0
-2.1344898 -2.437567 -0.28461516 0
-2.0585461 -2.4552712 -0.2868638 0
-1.943521 -2.4576819 -0.28802902 0
-1.8468578 -2.4414127 -0.28958195 0
-1.7513963 -2.4457722 -0.29074183 0
-1.6396838 -2.4464037 -0.2931208 0
-1.5432963 -2.4519958 -0.29396495 0
-1.4529251 -2.4483917 -0.2954807 0
-1.3341961 -2.4577663 -0.29739067 0
-1.2364049 -2.4419179 -0.29911733 0
-1.1628429 -2.4693427 -0.29888991 0
-2.2460518 -2.3418064 -0.28439391 0
-2.1579742 -2.3602004 -0.28406659 0
-2.0684304 -2.3621783 -0.28625023 0
-1.9652247 -2.3439648 -0.28842831 0
-1.8307333 -2.3492775 -0.29073966 0
-1.7515764 -2.3501828 -0.29217267 0
-1.6598943 -2.3655958 -0.2929602 0
-1.5472221 -2.3450353 -0.2953372 0
-1.438096 -2.3462195 -0.29642251 0
-1.3502297 -2.3645282 -0.29738927 0
-1.2264991 -2.3384726 -0.29986843 0
-1.1246152 -2.388165 -0.29995367 0
-2.3303196 -2.2403364 -0.28343999 0
-2.2624314 -2.2705505 -0.28471842 0
-2.1519043 -2.2650244 -0.28635189 0
-2.0391772 -2.2625957 -0.28741902 0
-1.9390975 -2.2468555 -0.28972957 0
-1.8483477 -2.2479181 -0.2913411 0
-1.7650808 -2.2541559 -0.2930322 0
-1.6549985 -2.2541983 -0.29394895 0
-1.5293654 -2.2474549 -0.29650703 0
-1.4448919 -2.2361991 -0.29800525 0
-1.3562218 -2.2611172 -0.29886743 0
-1.2631056 -2.2493072 -0.29842645 0
-2.4133701 -2.1388657 -0.28234419 0
-2.3501456 -2.1642883 -0.28327426 0
-2.2618899 -2.1745503 -0.28512943 0
-2.154609 -2.1624482 -0.28730538 0
-2.0542469 -2.1521316 -0.28939956 0
-1.9532881 -2.1362288 -0.28989151 0
-1.8333087 -2.1445882 -0.29215285 0
-1.7588463 -2.1598608 -0.29279611 0
-1.6502639 -2.1492386 -0.29543242 0
-1.5435766 -2.1555285 -0.29656306 0
-1.4757105 -2.1684449 -0.29739225 0
-1.3529203 -2.1495309 -0.2995066 0
-2.5057745 -2.0257874 -0.28191477 0
-2.4624164 -2.0645239 -0.28399578 0
-2.3402591 -2.0543358 -0.28453133 0
-2.2408774 -2.0637076 -0.28628927 0
-2.1468093 -2.0345933 -0.28806573 0
-2.0443413 -2.0517576 -0.29005378 0
-1.9314219 -2.023458 -0.29286206 0
-1.8600273 -2.0638163 -0.29166767 0
-1.7488778 -2.055949 -0.29421568 0
-1.6551281 -2.0325534 -0.29687813 0
-1.5504962 -2.0496488 -0.29707497 0
-1.4547606 -2.0732477 -0.29862127 0
-2.6093619 -1.9015328 -0.28247547 0
-2.5648828 -1.9547646 -0.28304619 0
-2.445451 -1.9482135 -0.28407469 0
-2.3456988 -1.9525404 -0.2867229 0
-2.2389228 -1.9463166 -0.28805244 0
-2.1220827 -1.9263741 -0.2891686 0
-2.0533853 -1.9460393 -0.29100448 0
-1.9520725 -1.9402971 -0.29218069 0
-1.8511549 -1.9672095 -0.29394791 0
-1.7456191 -1.9367467 -0.29516754 0
-1.6375055 -1.9250306 -0.29779077 0
-1.5836861 -1.9735897 -0.29823321 0
-1.4569322 -1.9549226 -0.29938206 0
-2.6285844 -1.8585286 -0.28205213 0
-2.5297682 -1.8435863 -0.28403208 0
-2.4353201 -1.8286343 -0.28597748 0
-2.36168 -1.8629268 -0.28562868 0
-2.2335596 -1.8500067 -0.28926036 0
-2.1400247 -1.8427788 -0.29126358 0
-2.0562046 -1.8665712 -0.29079267 0
-1.9529781 -1.8508945 -0.29283693 0
-1.8402897 -1.8469998 -0.29514906 0
-1.7471842 -1.8304477 -0.29805577 0
-1.6450667 -1.8382452 -0.2967132 0
-1.5604695 -1.8611848 -0.29824936 0
-1.4969529 -1.8382562 -0.29961726 0
-2.7251441 -1.7198101 -0.28195161 0
-2.6653054 -1.7584984 -0.28216252 0
-2.5531349 -1.7509208 -0.2844826 0
-2.4481704 -1.7487502 -0.28589752 0
-2.359381 -1.7715359 -0.28755233 0
-2.2629163 -1.7503594 -0.28872254 0
-2.157773 -1.7443547 -0.29032713 0
-2.04741 -1.7543894 -0.29316384 0
-1.9412208 -1.7369045 -0.29454795 0
-1.8550175 -1.7415468 -0.2957218 0
-1.7502481 -1.7437975 -0.29712096 0
-1.6645502 -1.7688298 -0.29825979 0
-1.5639396 -1.7604412 -0.29906142 0
-2.7586639 -1.6503013 -0.28134492 0
-2.6522031 -1.656094 -0.28360429 0
-2.5536449 -1.6458124 -0.28519407 0
-2.4497595 -1.6544323 -0.28690535 0
-2.3397629 -1.6542701 -0.28883818 0
-2.2327902 -1.6517147 -0.29080364 0
-2.1379161 -1.6536785 -0.29146537 0
-2.0130274 -1.6514292 -0.2944769 0
-1.9200152 -1.6452038 -0.2976914 0
-1.8325083 -1.6210041 -0.29789522 0
-1.7510824 -1.6595508 -0.2978628 0
-1.6674571 -1.6497077 -0.29900861 0
-2.8293395 -1.5386438 -0.28251958 0
-2.7594428 -1.5626018 -0.28344578 0
-2.6580415 -1.5558373 -0.28336692 0
-2.5427544 -1.5541006 -0.28616038 0
-2.4351337 -1.5531946 -0.28804293 0
-2.3451698 -1.5594249 -0.28908387 0
-2.2605178 -1.5662638 -0.29123172 0
-2.1800253 -1.5649302 -0.29191357 0
-2.058001 -1.5452496 -0.29418221 0
-1.9580451 -1.5599346 -0.29492587 0
-1.8686092 -1.5457442 -0.29814133 0
-1.7369819 -1.5768073 -0.29859239 0
-1.6162848 -1.5763069 -0.2998912 0
-2.8832016 -1.4384108 -0.28230968 0
-2.7610748 -1.4607277 -0.28373027 0
-2.6608045 -1.4568745 -0.28562146 0
-2.5628464 -1.4513046 -0.28668484 0
-2.4673316 -1.4442118 -0.28825566 0
-2.3504114 -1.4676423 -0.29008645 0
-2.2546093 -1.4530826 -0.29171333 0
-2.1504936 -1.4523212 -0.29351136 0
-2.0494106 -1.4489723 -0.29559281 0
-1.932072 -1.4506677 -0.29667446 0
-1.8435471 -1.4472305 -0.29803422 0
-1.7596605 -1.4225411 -0.29983735 0
-2.9136727 -1.3678609 -0.28214216 0
-2.8307083 -1.3453269 -0.28388828 0
-2.7254581 -1.3435882 -0.28544 0
-2.6266534 -1.3418614 -0.28709275 0
-2.5250404 -1.3358456 -0.28837752 0
-2.4170914 -1.3460156 -0.29001361 0
-2.345351 -1.357987 -0.29081503 0
-2.2386155 -1.3537457 -0.29287881 0
-2.1145787 -1.3414929 -0.29496032 0
-2.0243473 -1.3461906 -0.29671711 0
-1.9507014 -1.3545239 -0.29759359 0
-1.8580765 -1.3406653 -0.29928634 0
-1.7850752 -1.3807688 -0.29836786 0
-2.9690747 -1.2478595 -0.28274265 0
-2.8661704 -1.2387172 -0.28381136 0
-2.758148 -1.2468731 -0.28571546 0
-2.6406584 -1.2322466 -0.28817534 0
-2.573878 -1.2460443 -0.28884658 0
-2.4681666 -1.2608926 -0.2902697 0
-2.3676839 -1.252591 -0.29147574 0
-2.2700899 -1.242951 -0.29297781 0
-2.1603558 -1.2645321 -0.29481897 0
-2.0672576 -1.250127 -0.29669541 0
-1.9639387 -1.2359618 -0.29812703 0
-1.8881385 -1.2555211 -0.29979831 0
-3.0160341 -1.1523612 -0.2828674 0
-2.9115937 -1.1605122 -0.28428051 0
-2.8289635 -1.1275769 -0.28593066 0
-2.742157 -1.1618103 -0.28677714 0
-2.646405 -1.1361023 -0.28791687 0
-2.5434833 -1.1426833 -0.29090506 0
-2.4466138 -1.1627834 -0.29180908 0
-2.326438 -1.1468931 -0.2934446 0
-2.2304366 -1.1394395 -0.29503506 0
-2.1311569 -1.1493326 -0.29595894 0
-2.0359848 -1.1529235 -0.29738322 0
-1.937248 -1.1526396 -0.29916704 0
-1.8507007 -1.1191409 -0.29976654 0
-3.0555871 -1.0438209 -0.28309786 0
-2.9499352 -1.0552136 -0.28470448 0
-2.8633785 -1.0473534 -0.28655672 0
-2.763267 -1.0557983 -0.28784585 0
-2.672225 -1.0429858 -0.28945673 0
-2.5649526 -1.0435342 -0.29035705 0
-2.4688065 -1.0460014 -0.2917991 0
-2.3584487 -1.0394679 -0.29435697 0
-2.2416897 -1.0342646 -0.29823446 0
-2.1505702 -1.0411223 -0.29687467 0
-2.0432787 -1.0623918 -0.29856265 0
-1.9814837 -1.084908 -0.2985397 0
-3.1072533 -0.91457623 -0.28338012 0
-3.0851097 -0.94012517 -0.28337955 0
-2.9581127 -0.94782823 -0.28572157 0
-2.8451247 -0.94953382 -0.28715992 0
-2.7450671 -0.95981526 -0.28838205 0
-2.6126223 -0.95563245 -0.29140568 0
-2.5211496 -0.94266558 -0.29282215 0
-2.4235737 -0.94593495 -0.29434952 0
-2.3331831 -0.92996609 -0.29583168 0
-2.2298644 -0.94947004 -0.29618001 0
-2.1496348 -0.92892694 -0.29711741 0
-2.0307884 -0.98313546 -0.29912674 0
-1.9590544 -0.93113023 -0.29993844 0
-3.1289895 -0.84044433 -0.28349885 0
-3.0402033 -0.84771907 -0.28506607 0
-2.9247031 -0.838202 -0.28685597 0
-2.8502233 -0.86865491 -0.28738889 0
-2.7387435 -0.84890741 -0.28972399 0
-2.6367867 -0.85884207 -0.29078311 0
-2.5495577 -0.85058153 -0.29255515 0
-2.4606609 -0.84058791 -0.29426908 0
-2.3631403 -0.84532976 -0.29568282 0
-2.2599418 -0.84961426 -0.29789999 0
-2.1715925 -0.86561018 -0.29861301 0
-2.0622771 -0.8504594 -0.29883984 0
-3.1495113 -0.75787497 -0.28408843 0
-3.0566797 -0.73557466 -0.28579271 0
-2.9607847 -0.75751919 -0.28662068 0
-2.8624108 -0.75410491 -0.28832218 0
-2.7461045 -0.73764509 -0.2906754 0
-2.6675725 -0.76451749 -0.29117775 0
-2.573611 -0.75750035 -0.29231966 0
-2.4611356 -0.73727036 -0.29472032 0
-2.3305213 -0.74334729 -0.29689673 0
-2.2435551 -0.7664485 -0.29760867 0
-2.1424775 -0.73191279 -0.29914907 0
-3.1703162 -0.66757798 -0.28461522 0
-3.0720704 -0.64691997 -0.28624773 0
-2.9821169 -0.65031457 -0.2879262 0
-2.8513851 -0.64315212 -0.29034263 0
-2.7372227 -0.66575986 -0.2914069 0
-2.6206331 -0.65054584 -0.29381943 0
-2.5301862 -0.64735365 -0.29535776 0
-2.4474568 -0.65436679 -0.29556647 0
-2.3352957 -0.65113986 -0.29769567 0
-2.2490695 -0.66197634 -0.297901 0
-2.168118 -0.63814664 -0.29891306 0
-3.2146549 -0.52607799 -0.28574693 0
-3.159765 -0.57909721 -0.28480724 0
-3.0434048 -0.54278809 -0.28753817 0
-2.927793 -0.52952659 -0.28955311 0
-2.8491981 -0.5645898 -0.29017141 0
-2.7344704 -0.55530143 -0.29242611 0
-2.6472213 -0.53757924 -0.29404393 0
-2.5464723 -0.55532438 -0.29521957 0
-2.4601297 -0.55489916 -0.29719517 0
-2.3686125 -0.552091 -0.29864478 0
-2.2860925 -0.55012989 -0.29985195 0
-3.2216854 -0.44079375 -0.28564364 0
-3.120959 -0.44980046 -0.28749034 0
-3.0308673 -0.45896798 -0.28924865 0
-2.9426827 -0.44561476 -0.29074678 0
