# .PCD v0.7 - Point Cloud Data file format
VERSION 0.7
FIELDS x y z intensity
SIZE 4 4 4 4
TYPE F F F F
COUNT 1 1 1 1
WIDTH 148
HEIGHT 1
VIEWPOINT 0 0 0 1 0 0 0
POINTS 148
DATA ascii
-31.479485 -17.178289 0.59807044 8
-31.451752 -13.815982 0.57654148 8
-31.423403 -1.7960044 0.54618388 8
-31.422258 0.89729065 0.55023903 8
-31.414076 3.6027083 0.55820394 8
-31.401773 6.3597412 0.57025093 8
-31.440954 -14.349566 1.7873048 9
-31.438198 -11.210466 1.7300677 9
-31.464499 -18.353804 1.8794597 9
-31.42238 -11.712644 2.9138165 10
-31.438839 -18.33814 3.1545672 10
-31.418009 -14.884016 3.0167058 10
-31.400232 -13.792197 4.1875577 11
-31.421398 -18.327271 4.4364715 11
-31.402027 -18.315269 5.7275472 12
-31.399101 9.7039785 0.59015411 8
-31.396925 -1.7944843 1.6449084 9
-31.388107 2.6946692 1.6557459 9
-31.382097 6.8235478 1.6949271 9
-31.3794 11.698429 1.7748091 9
-31.374926 -1.7932194 2.7461896 10
-31.380131 2.2433271 2.7563572 10
-31.373074 8.2428074 2.8522418 10
-31.354429 11.689407 2.9474399 10
-31.360424 -1.792384 3.8535903 11
-31.344746 2.6909821 3.8675888 11
-31.336365 7.2837596 3.9630036 11
-31.359549 10.682243 4.0861692 11
-31.348869 -1.7917168 4.9699697 12
-31.343857 1.3430163 4.9713268 12
-31.330076 5.419518 5.0456014 12
-31.322134 8.7095566 5.1645527 12
-31.385702 -11.190991 5.2579536 12
-31.322008 11.677896 5.3147593 12
-31.391901 -14.325917 5.4407697 12
-31.32749 -1.7904876 6.0960331 13
-31.324923 1.790446 6.1021342 13
-31.305563 6.3406882 6.2202392 13
-31.300661 9.6745491 6.3854818 13
-31.363134 -12.720353 6.5563946 13
-31.387117 -17.124844 6.9211259 13
-31.312494 -1.7896233 7.2374487 14
-31.30702 1.7894322 7.2428908 14
-31.293293 5.4132867 7.3419275 14
-31.29187 8.2220535 7.4845471 14
-31.27968 11.156673 7.6871285 14
-31.351931 -13.239463 7.8335819 14
-31.361633 -17.110313 8.2185507 14
-31.292984 -1.3407667 8.3900032 15
-31.294912 1.3409369 8.3956451 15
-31.279509 4.0406356 8.4585867 15
-31.265987 7.2678666 8.6146631 15
-31.327518 -11.169463 8.8912449 15
-31.262077 10.650027 8.8689632 15
-31.331068 -14.840521 9.2628317 15
-23.480215 -5.8113055 0.41214448 8
-23.465012 -5.8074527 1.2567484 9
-23.461834 -5.8065782 2.1044064 10
-23.44739 -5.8029151 2.955584 11
-23.420784 -5.7962384 3.8110411 12
-23.413374 -5.7943139 4.6778975 13
-23.3946 -4.3907332 5.4871979 14
-23.383722 -5.7867894 6.4437957 15
-13.2238 -25.024876 0.46877328 8
-13.216076 -25.006653 1.4570677 9
-13.216948 -25.004686 2.4491351 10
-13.215994 -24.999245 3.4466469 11
-13.20664 -24.977886 4.4494815 12
-11.189238 -47.973553 0.83317226 8
-11.189921 -47.958874 2.5543144 9
-11.189893 -47.941082 4.2804341 10
-11.189204 -47.920368 6.0154834 11
-11.188577 -47.899784 7.7640038 12
-11.189909 -47.887394 9.5321169 13
-10.58949 -24.983315 6.2422266 14
-10.585361 -24.96863 7.2440596 15
-9.765029 -25.031328 0.44847065 8
-9.7714634 -25.0427 1.3883175 9
-9.7673807 -25.027079 2.329952 10
-9.7669315 -25.020754 3.2773988 11
-9.757123 -24.990402 4.2284641 12
-9.7583256 -24.988211 5.1936717 13
-2.4007196 1.904758 0.32501704 10.5
-2.5350771 -25.074762 0.43374678 8
-2.4094458 1.9118431 0.49017403 12
-2.4019434 1.906101 0.71121895 14
-2.5371375 -25.072332 1.3146814 9
-2.5369205 -25.047308 2.1966937 10
-2.5383773 -25.038727 3.0843735 11
-2.5413899 -25.045321 3.9815035 12
-2.5432937 -25.040716 4.8868933 13
-2.3204715 1.8952278 -0.15473373 6
-2.397166 1.9017297 0.10947712 8.5
-2.3284378 1.9024887 0.58759201 13
-2.3956256 1.9011945 0.82293069 15
-2.1865962 1.8923779 -0.25088406 5
-1.9504433 1.8938655 0.24039437 10
-1.6789683 1.8805752 -0.13028166 6
-1.3771877 1.8933784 -0.28619105 4
-0.4991982 1.9010198 -0.27677861 3.5
-0.47552904 1.9241545 -0.10410096 6
-0.4692916 1.9010043 0.10334452 9
-0.47068533 1.9086211 0.31296095 12
-0.4696328 1.9060838 0.49136752 14.5
1.4552972 -10.199491 0.1851362 8
1.54749 -8.297123 0.44835192 9
1.5140057 -7.0076365 0.63355416 10
1.492667 -6.0686359 0.77402145 11
1.5448694 -5.2952952 0.88102698 12
1.512962 -4.68647 0.96500391 13
1.7170316 11.923418 0.64681345 9
1.7626866 10.202991 0.92125934 10
1.6104645 -4.1610055 1.0388521 14
1.6248412 -3.7179496 1.096673 15
1.6789949 8.978343 1.1358234 11
1.6017144 4.3433204 1.2530742 15
1.6401927 5.0985756 1.2496302 14
1.6777422 6.0820065 1.2400215 13
1.6310058 7.5476656 1.2365831 12
2.0598583 14.256429 0.27014273 8
2.6206782 -10.013258 0.19013399 8
3.2819037 -2.9339046 1.1987189 15
3.3354692 8.9660921 1.2017589 11
3.587122 -3.9184542 1.0511225 13
4.064816 -2.9588826 1.1836482 14
4.8027797 -4.0511198 1.0194706 12
5.4563828 -48.024666 5.9521489 11
5.6148086 -2.9673069 1.265438 13
6.1984596 -7.3779726 0.53174359 9
6.1004505 -4.4401994 0.95672405 11
6.261961 13.694786 0.31259239 8
6.4798069 -5.6252165 0.78106707 10
6.6640224 -9.4719028 0.22924645 8
6.8448663 -48.026237 7.7060699 12
6.8348193 -47.993145 9.4461164 13
7.4809394 8.8938112 1.0723355 10
7.4571204 0.42941192 1.2295039 12
9.4106236 -0.00030878367 1.2115842 11
9.9842329 10.271898 0.82287133 9
10.131029 13.125884 0.36457011 8
11.514379 4.4835176 1.1558417 10
20.479729 -6.0309978 0.47839078 8
20.492241 -6.0358181 1.2259924 9
42.88166 15.25134 1.0624195 8
42.907791 15.264122 2.655755 9
46.364288 10.036705 1.1069642 8
46.817554 9.4409723 4.4614816 10
47.208229 8.8179903 2.7993824 9
