# .PCD v0.7 - Point Cloud Data file format
VERSION 0.7
FIELDS x y z intensity
SIZE 4 4 4 4
TYPE F F F F
COUNT 1 1 1 1
WIDTH 1382
HEIGHT 1
VIEWPOINT 0 0 0 1 0 0 0
POINTS 1382
DATA ascii
-35.666069 -47.629539 5.2223344 10
-35.650532 -47.607014 7.319356 11
-35.635326 -47.58493 9.4326534 12
-34.650494 -47.680607 1.0456125 8
-34.647705 -47.67498 3.1055408 9
-34.622227 -47.638134 5.1692448 10
-34.621807 -47.635757 7.2477479 11
-34.602634 -47.607567 9.3389797 12
-33.633583 -47.698589 1.0360467 8
-33.618324 -47.675137 3.0746558 9
-33.606636 -47.656731 5.1193719 10
-33.592728 -47.635174 7.1746659 11
-33.579502 -47.614574 9.2460928 12
-32.452614 -31.529274 0.79677707 8
-32.448429 -30.636736 0.7854293 8
-32.439739 -29.763941 0.77444375 8
-32.418415 -28.90271 0.76361024 8
-32.425591 -28.088442 0.75387639 8
-32.409042 -27.273914 0.74399692 8
-32.406765 -26.490868 0.73483598 8
-32.400906 -24.977297 0.71757686 8
-32.621227 -47.69434 1.0264113 8
-32.512363 -37.510323 0.8771708 8
-32.502743 -36.434631 0.86226088 8
-32.489979 -35.389713 0.84792179 8
-32.471069 -34.37067 0.83404398 8
-32.456356 -33.386833 0.82086414 8
-32.451233 -32.441502 0.80848032 8
-32.425407 -31.501833 2.3762364 9
-32.422935 -30.611698 2.3433518 9
-32.405064 -29.73119 2.310724 9
-32.401527 -28.886759 2.280426 9
-32.485493 -37.478008 2.6100299 9
-32.47023 -36.396931 2.5662463 9
-32.468266 -35.364868 2.525404 9
-32.453644 -34.351078 2.4853599 9
-32.460922 -33.390442 2.4486716 9
-32.435276 -32.424503 2.411099 9
-32.612164 -47.679249 3.0452707 9
-32.409454 -31.485332 3.9601789 10
-32.463692 -37.451561 4.347012 10
-32.44503 -36.367458 4.2739902 10
-32.444424 -35.337715 4.2064791 10
-32.428432 -34.323261 4.1399274 10
-32.425308 -33.352718 4.0778198 10
-32.410721 -32.398911 4.0169182 10
-32.600628 -47.660522 5.0699625 10
-32.419899 -36.338039 5.9895205 11
-32.402603 -35.290958 5.8920798 11
-32.428455 -37.409615 6.0897436 11
-32.583923 -47.634258 7.104445 11
-32.400688 -37.376274 7.8454776 12
-32.582031 -47.629608 9.158473 12
-32.394802 -25.718281 0.72582704 8
-32.380318 -24.232307 0.70907557 8
-32.385044 -23.522043 0.70145589 8
-32.37175 -22.813538 0.69375718 8
-32.362507 -22.122307 0.68644798 8
-32.35099 -21.443197 0.67938101 8
-32.34753 -20.782335 0.67276096 8
-32.34959 -20.137032 0.6665206 8
-32.341545 -19.496946 0.66032791 8
-32.345573 -18.875069 0.65462852 8
-32.329323 -18.251913 0.64875823 8
-32.321342 -17.643698 0.64328712 8
-32.306545 -16.45632 0.63303351 8
-32.304085 -15.878365 0.62832159 8
-32.304626 -15.309956 0.62386972 8
-32.294006 -14.744082 0.61939907 8
-32.287868 -14.187809 0.61520654 8
-32.297794 -13.105264 0.60779339 8
-32.275845 -12.562766 0.60384613 8
-32.272243 -12.033739 0.60041612 8
-32.262932 -11.508378 0.59704727 8
-32.273952 -10.995537 0.59421742 8
-32.261948 -10.479865 0.59112221 8
-32.260761 -9.9726429 0.58838212 8
-32.253361 -9.4680834 0.58568102 8
-32.238575 -8.9658957 0.58299714 8
-32.240009 -8.4723663 0.58075392 8
-32.22562 -7.9785662 0.57836992 8
-32.224155 -4.6321821 0.56730735 8
-32.196938 -4.1600456 0.56577873 8
-32.214973 -3.6956131 0.56517303 8
-32.203373 -3.2292082 0.56417322 8
-32.198997 -2.7650821 0.56342518 8
-32.207909 -2.3031693 0.56303459 8
-32.190323 -1.8404255 0.56230438 8
-32.186615 -0.91940713 0.56176317 8
-32.180996 -0.45957479 0.56161058 8
-32.168686 8.4191503e-05 0.56146324 8
-32.18301 0.45961022 0.5619024 8
-32.164822 0.91880351 0.56189662 8
-32.16494 1.3786411 0.56233269 8
-32.167568 2.3003905 0.56361467 8
-32.140549 2.7602141 0.56394392 8
-32.157459 3.2248058 0.56516773 8
-32.145546 3.687916 0.5660097 8
-32.141968 4.1532845 0.56712437 8
-32.154213 4.62255 0.56864542 8
-32.144413 5.5622134 0.57146764 8
-32.138596 6.0350666 0.57305765 8
-32.131966 6.5101385 0.57476521 8
-32.124428 6.9875889 0.57658899 8
-32.126099 7.469943 0.57871521 8
-32.120483 7.9537578 0.5808481 8
-32.117962 8.4416695 0.58317727 8
-32.117146 9.4298058 0.58834374 8
-32.117157 9.9301329 0.59115601 8
-32.118607 10.435382 0.59414583 8
-32.10397 10.939898 0.59699231 8
-32.104733 11.454435 0.60028195 8
-32.098454 11.971642 0.60360116 8
-32.107643 12.500237 0.60737699 8
-32.086571 13.022733 0.61074907 8
-32.092804 13.562263 0.61481303 8
-32.100647 14.109242 0.61908716 8
-32.083912 14.652136 0.62307119 8
-32.318974 -20.11742 1.9964197 9
-32.333111 -19.491335 1.9796737 9
-32.309891 -18.853743 1.961355 9
-32.305016 -18.237705 1.9448501 9
-32.313438 -17.638922 1.9298069 9
-32.296154 -17.035601 1.913873 9
-32.293228 -15.872622 1.8857384 9
-32.29377 -15.304425 1.8726712 9
-32.280201 -14.737407 1.8593552 9
-32.274811 -14.181715 1.8470663 9
-32.264751 -13.631142 1.8350495 9
-32.2593 -12.556021 1.813401 9
-32.255745 -12.027295 1.8032784 9
-32.260796 -11.507345 1.794116 9
-32.248844 -10.986721 1.7844784 9
-32.243954 -10.473775 1.7756945 9
-32.223667 -9.9609404 1.7665166 9
-32.231441 -9.4614296 1.7593195 9
-32.22139 -8.9609127 1.7515792 9
-32.238949 -8.4718943 1.7457597 9
-32.237667 -7.9813666 1.7393311 9
-32.195786 -4.6280046 1.7036579 9
-32.193817 -4.1595526 1.7002951 9
-32.191875 -3.6928823 1.6973009 9
-32.193352 -3.2281344 1.6948502 9
-32.185619 -2.7638745 1.6922758 9
-32.176018 -2.3008385 1.6899612 9
-32.183319 -1.3793594 1.6877924 9
-32.16206 -0.9186852 1.6859325 9
-32.163464 -0.4593136 1.6856128 9
-32.157116 8.5663902e-05 1.6852381 9
-32.145847 0.4590717 1.6849564 9
-32.156826 0.91855836 1.6861928 9
-32.135483 1.837324 1.6874508 9
-32.141369 2.2984736 1.6894794 9
-32.136898 2.7598491 1.6913188 9
-32.131359 3.2221282 1.6934595 9
-32.135757 3.6867232 1.6964818 9
-32.125629 4.151094 1.6991004 9
-32.125961 5.0875931 1.7065259 9
-32.128216 5.5593076 1.7109069 9
-32.122494 6.0319319 1.7152406 9
-32.113647 6.5063071 1.7197876 9
-32.106285 6.9835148 1.7247974 9
-32.107716 7.9504561 1.7368696 9
-32.104622 8.4380121 1.743304 9
-32.087997 8.9253931 1.7494123 9
-32.09531 9.4232292 1.7572434 9
-32.099041 9.9243565 1.7653086 9
-32.088261 10.934357 1.7817526 9
-32.077785 11.444624 1.7903664 9
-32.082607 11.965528 1.8002981 9
-32.079288 12.488985 1.8102509 9
-32.058914 13.011289 1.8197237 9
-32.07365 13.553941 1.8316891 9
-32.060982 14.091574 1.8426055 9
-32.055218 14.638788 1.8544422 9
-32.399246 -28.064768 2.2514472 9
-32.393963 -27.260403 2.2234328 9
-32.375111 -26.464201 2.1956217 9
-32.377071 -25.703449 2.1703017 9
-32.362236 -24.946754 2.1448822 9
-32.357033 -24.214186 2.1210928 9
-32.353619 -23.498547 2.0983579 9
-32.337856 -22.789015 2.075732 9
-32.343979 -22.109026 2.0553768 9
-32.339012 -21.434658 2.0351419 9
-32.334538 -20.773417 2.0157387 9
-32.283955 -17.028723 3.1935053 10
-32.264183 -16.433891 3.1678448 10
-32.26511 -15.858395 3.1452255 10
-32.248451 -14.722545 3.1010611 10
-32.245258 -14.168379 3.0808592 10
-32.251904 -13.625381 3.062479 10
-32.248383 -13.084571 3.0439889 10
-32.230129 -12.544361 3.0249553 10
-32.230919 -12.017746 3.0085335 10
-32.223797 -10.977927 2.9772463 10
-32.226833 -10.467966 2.9633603 10
-32.22596 -9.9614191 2.9498546 10
-32.210983 -9.455204 2.9357898 10
-32.217621 -8.9596596 2.9244115 10
-32.20084 -8.4616833 2.9116058 10
-32.188469 -7.9690027 2.899894 10
-32.179745 -4.625598 2.8432558 10
-32.162189 -4.155376 2.8362358 10
-32.163509 -3.6895483 2.8314884 10
-32.155743 -3.224293 2.8265419 10
-32.158245 -2.7614636 2.8230951 10
-32.162876 -2.2998493 2.8204265 10
-32.160072 -1.8386174 2.8176949 10
-32.153675 -1.378059 2.8152354 10
-32.160442 -0.91861892 2.814512 10
-32.13958 -0.45896176 2.8119535 10
-32.150509 8.7122637e-05 2.8127582 10
-32.118382 0.45867175 2.8103771 10
-32.118935 0.91745895 2.8114359 10
-32.143429 1.3776675 2.8151736 10
-32.131866 2.2977502 2.8191004 10
-32.117889 2.7581642 2.8212237 10
-32.10862 3.2197859 2.8243492 10
-32.114922 3.6842642 2.8294396 10
-32.109062 4.1488762 2.8340578 10
-32.100616 5.0834846 2.8453994 10
-32.089867 5.5525699 2.8514106 10
-32.106583 6.0288334 2.8604863 10
-32.093529 6.5021133 2.8675444 10
-32.089993 6.9798446 2.8760874 10
-32.084923 7.9446683 2.8953102 10
-32.086788 8.4331741 2.9063187 10
-32.083687 8.9240389 2.9175591 10
-32.077488 9.4178276 2.929209 10
-32.079491 9.9181414 2.9423151 10
-32.076996 10.421496 2.9557314 10
-32.067535 10.927107 2.9692397 10
-32.063457 11.958181 2.9998982 10
-32.056683 12.479974 3.0159554 10
-32.046791 13.00615 3.032522 10
-32.0546 13.545664 3.0515919 10
-32.032848 14.078971 3.0686929 10
-32.030235 14.627135 3.0884893 10
-32.349628 -24.936314 3.5768676 10
-32.342911 -24.202919 3.5372341 10
-32.335651 -23.484825 3.4991024 10
-32.326466 -22.780336 3.4622648 10
-32.317837 -22.090536 3.4269295 10
-32.320663 -21.421909 3.3941832 10
-32.308216 -20.755938 3.3611572 10
-32.306931 -20.109379 3.3305714 10
-32.288517 -19.463924 3.2994578 10
-32.290924 -18.842171 3.2716618 10
-32.302135 -18.235601 3.2458823 10
-32.285816 -17.623383 3.218436 10
-32.389374 -30.579044 3.9035318 10
-32.394512 -29.720592 3.8521883 10
-32.37553 -28.862698 3.8001256 10
-32.371166 -28.039589 3.7518435 10
-32.375004 -27.243628 3.7064462 10
-32.348942 -26.442019 3.6595013 10
-32.363388 -25.691828 3.6189196 10
-32.143078 -4.620223 3.9861422 11
-32.168976 -4.1561618 3.9816556 11
-32.159996 -3.6890652 3.9736946 11
-32.135777 -3.2222207 3.9646959 11
-32.141876 -2.7599993 3.9602757 11
-32.148399 -2.2987647 3.9567311 11
-32.134155 -1.8370955 3.9514551 11
-32.141178 -1.3774931 3.9496145 11
-32.122265 -0.45870364 3.9443312 11
-32.12109 8.8556408e-05 3.9439254 11
-32.128281 0.4588055 3.9453595 11
-32.123512 0.91757303 3.946137 11
-32.117706 1.3765397 3.9476023 11
-32.109158 1.8357496 3.9495425 11
-32.093658 2.7560308 3.9560754 11
-32.096577 3.2185183 3.9618933 11
-32.101192 3.6826196 3.9687517 11
-32.10117 4.147778 3.9758773 11
-32.088135 4.6127915 3.9822338 11
-32.099003 5.0831351 3.9924097 11
-32.254318 -15.284951 4.382144 11
-32.237209 -14.717038 4.3506894 11
-32.230045 -14.161336 4.321866 11
-32.219437 -13.611322 4.2938313 11
-32.2271 -13.075613 4.2694316 11
-32.221973 -12.014122 4.2213926 11
-32.21965 -11.492112 4.19909 11
-32.206127 -10.971645 4.1764216 11
-32.191559 -10.456259 4.1546941 11
-32.189106 -9.949791 4.1355767 11
-32.192387 -9.4495239 4.1182103 11
-32.189537 -8.9516382 4.1010528 11
-32.183174 -8.4568462 4.0844269 11
-32.186695 -7.9683824 4.0700135 11
-32.091072 5.5526748 4.0011106 11
-32.077122 6.023191 4.0099282 11
-32.081223 6.4994998 4.0218806 11
-32.076263 6.9767313 4.0335922 11
-32.073879 7.4573956 4.0465336 11
-32.060043 8.425992 4.0740399 11
-32.069447 8.919919 4.0912905 11
-32.045601 9.4082985 4.1052608 11
-32.050686 9.9090605 4.1239176 11
-32.048965 10.412208 4.1427112 11
-32.051121 11.434713 4.1841393 11
-32.024376 11.9434 4.2028127 11
-32.026302 12.467931 4.2263341 11
-32.037296 13.002078 4.2521939 11
-32.025608 13.533182 4.2762046 11
-32.019489 14.072868 4.3021369 11
-32.028301 14.626012 4.3313031 11
-32.291214 -21.401785 4.758359 11
-32.289455 -20.743309 4.7137179 11
-32.281284 -20.092861 4.6699228 11
-32.273907 -19.454592 4.6279683 11
-32.265736 -18.826962 4.5875621 11
-32.264835 -18.214052 4.5497875 11
-32.256756 -17.607048 4.5125427 11
-32.260887 -17.016113 4.4784932 11
-32.24942 -16.425945 4.4437184 11
-32.337132 -27.210928 5.1937504 11
-32.328133 -26.424219 5.1308136 11
-32.320141 -25.656729 5.0705309 11
-32.314987 -24.908873 5.013072 11
-32.316154 -24.18219 4.9588585 11
-32.29686 -23.455971 4.9036942 11
-32.301136 -22.761843 4.8542066 11
-32.290329 -22.071112 4.8044505 11
-32.134113 -4.6188326 5.1407022 12
-32.13261 -4.151371 5.1305275 12
-32.119709 -3.6843617 5.119626 12
-32.125019 -3.2210717 5.112709 12
-32.122234 -2.7582514 5.1055741 12
-32.119244 -2.2966299 5.0994725 12
-32.124172 -1.8364846 5.0956864 12
-32.101158 -1.3757471 5.0885229 12
-32.107883 -0.91707689 5.0871272 12
-32.113575 -0.45856863 5.0866122 12
-32.108974 9.0044981e-05 5.0855117 12
-32.097694 0.45836082 5.0843983 12
-32.10294 1.3758804 5.0897136 12
-32.084518 1.8343056 5.0906067 12
-32.094402 2.2949827 5.0970421 12
-32.086819 2.7553902 5.1017618 12
-32.08334 3.2171283 5.1081963 12
-32.070324 3.6790078 5.1141763 12
-32.07132 4.1438417 5.1234679 12
-32.072025 4.6103873 5.1338 12
-32.061882 5.0771594 5.1434908 12
-32.047157 6.0174494 5.1670871 12
-32.058098 6.4946938 5.1835337 12
-32.051769 6.9712749 5.1983385 12
-32.375782 -31.451605 5.5492024 11
-32.36256 -30.552759 5.4711537 11
-32.373955 -29.700794 5.4003978 11
-32.354736 -28.843262 5.3275285 11
-32.351105 -28.021349 5.2601118 11
-32.214348 -14.154084 5.5723019 12
-32.20118 -13.60327 5.5357485 12
-32.199772 -12.531932 5.4715433 12
-32.1875 -12.000973 5.4397049 12
-32.185169 -11.479532 5.4109855 12
-32.182938 -10.963479 5.3836832 12
-32.18433 -10.45366 5.3583488 12
-32.171558 -9.9441328 5.3319983 12
-32.171101 -9.4430504 5.3090019 12
-32.159386 -8.9430408 5.2854362 12
-32.17342 -8.4540863 5.2673554 12
-32.153175 -7.9598966 5.2448955 12
-32.048752 7.4514165 5.2148461 12
-32.039936 7.9332395 5.2315907 12
-32.056683 8.4249563 5.2537184 12
-32.039135 9.4062319 5.2933159 12
-32.024929 9.900918 5.3140941 12
-32.041809 10.409698 5.341331 12
-32.029457 10.913747 5.3650279 12
-32.022396 11.424265 5.3909502 12
-32.020599 11.941785 5.4191418 12
-32.005817 12.45974 5.4465399 12
-32.017895 12.993978 5.4799647 12
-32.013172 13.527696 5.5120158 12
-32.001076 14.064537 5.5443144 12
-32.3992 -34.291164 5.8013067 11
-32.393528 -33.31892 5.714015 11
-32.386925 -32.374065 5.6302471 11
-32.242779 -19.435293 5.9636521 12
-32.232018 -18.806776 5.9111705 12
-32.239784 -18.199427 5.8641348 12
-32.227955 -16.998291 5.7709408 12
-32.227566 -16.414387 5.7281451 12
-32.227116 -15.838904 5.68713 12
-32.214039 -15.265464 5.6456332 12
-32.218407 -14.708077 5.6088848 12
-32.284508 -24.157799 6.3893962 12
-32.279846 -23.442944 6.3212671 12
-32.273064 -22.741404 6.2554116 12
-32.274914 -22.059944 6.1937981 12
-32.264816 -21.383692 6.1323671 12
-32.261559 -20.724812 6.0746274 12
-32.248589 -20.071955 6.0173588 12
-32.134758 -4.6188231 6.3093538 13
-32.108891 -4.1482134 6.2920785 13
-32.113445 -3.6835623 6.2821097 13
-32.099785 -3.2184701 6.2699008 13
-32.100376 -2.7563138 6.261795 13
-32.101818 -2.2953334 6.2551565 13
-32.101852 -1.8351684 6.2495408 13
-32.088955 -0.91651517 6.2396531 13
-32.085426 -0.45815545 6.2372055 13
-32.081684 9.1407521e-05 6.2359962 13
-32.083435 0.45814931 6.237133 13
-32.079273 0.91627514 6.2384014 13
-32.081318 1.3749272 6.2421613 13
-32.077526 2.2937319 6.2520018 13
-32.067287 2.7536602 6.2572346 13
-32.057785 3.2145038 6.2639103 13
-32.052109 3.676847 6.2726388 13
-32.054451 4.1415825 6.2842555 13
-32.059853 4.6085501 6.2978096 13
-32.056179 5.0761604 6.310925 13
-32.032143 5.5422707 6.3213811 13
-32.038223 6.0156593 6.3391428 13
-32.037506 6.4904008 6.3569574 13
-32.040356 6.9686623 6.3768873 13
-32.02586 7.4459543 6.3947935 13
-32.319321 -27.992949 6.7770243 12
-32.308113 -27.185675 6.6922026 12
-32.317646 -26.414852 6.6150007 12
-32.300171 -25.640106 6.535459 12
-32.296715 -24.894051 6.4618349 12
-32.184185 -13.595745 6.7903447 13
-32.176971 -13.054618 6.748704 13
-32.176872 -12.522704 6.7104049 13
-32.184475 -11.999548 6.6754975 13
-32.162266 -10.956167 6.6031613 13
-32.170692 -10.448977 6.5735412 13
-32.15654 -9.939249 6.5409451 13
-32.167973 -9.4419079 6.5151534 13
-32.157307 -8.9422512 6.4864545 13
-32.151215 -8.4480524 6.4602275 13
-32.13623 -7.9555159 6.4337363 13
-32.028732 8.4174547 6.4413362 13
-32.034138 8.9097738 6.4676557 13
-32.021069 9.4007587 6.4917684 13
-32.016876 9.8982525 6.5192266 13
-32.009022 10.398858 6.5475206 13
-32.000076 10.903542 6.5772033 13
-32.002716 11.417044 6.6109209 13
-32.00399 12.458815 6.6826811 13
-32.341915 -31.417685 7.1485453 12
-32.334332 -30.525122 7.0493484 12
-32.33569 -29.664751 6.9561481 12
-32.324219 -28.815149 6.8640418 12
-32.22567 -18.190958 7.1935058 13
-32.2132 -16.990055 7.0791292 13
-32.2118 -16.405924 7.0264535 13
-32.215439 -15.832749 6.9770632 13
-32.198654 -15.257779 6.9253917 13
-32.201862 -14.700148 6.8800969 13
-32.204159 -14.149245 6.8366008 13
-32.374855 -35.259529 7.5911231 12
-32.380699 -34.270432 7.4764524 12
-32.351658 -33.274734 7.3587747 12
-32.350021 -32.336109 7.2521391 12
-32.243965 -22.038158 7.5936141 13
-32.24913 -21.372681 7.521915 13
-32.233906 -20.706457 7.4483819 13
-32.228619 -20.058964 7.3799748 13
-32.226112 -19.424707 7.3149095 13
-32.2271 -18.803392 7.2532296 13
-32.093098 -4.6127272 7.4841523 14
-32.101498 -4.1471643 7.471621 14
-32.076969 -3.6792953 7.4530168 14
-32.084923 -3.2169082 7.4435325 14
-32.090004 -2.7553606 7.4349337 14
-32.091602 -2.2945516 7.4270744 14
-32.078522 -1.833793 7.417357 14
-32.071957 -0.91600871 7.4070468 14
-32.06538 -0.45785803 7.4034147 14
-32.057598 9.2897397e-05 7.4010239 14
-32.051964 0.45769179 7.4006462 14
-32.056957 0.91562009 7.4042401 14
-32.059864 1.3739808 7.4088755 14
-32.039284 2.2909513 7.4166126 14
-32.051601 2.7522585 7.4280162 14
-32.044888 3.2131467 7.436554 14
-32.038628 3.6752284 7.4467473 14
-32.034546 4.1389294 7.4590092 14
-32.031715 4.6044154 7.4731412 14
-32.028152 5.541472 7.5066891 14
-32.017693 6.0116897 7.5238585 14
-32.026268 6.4880009 7.5471492 14
-32.013844 6.9627638 7.567162 14
-32.002491 7.440382 7.5891099 14
-32.394203 -36.307964 7.7170038 12
-32.268211 -24.871334 7.9225559 13
-32.273861 -24.149118 7.8381486 13
-32.264118 -23.430832 7.7534175 13
-32.258991 -22.730827 7.6731009 13
-32.157188 -12.514726 7.9652591 14
-32.163319 -11.991358 7.9234791 14
-32.142517 -11.46375 7.8771586 14
-32.149094 -10.441706 7.8023953 14
-32.138111 -9.9333096 7.7644811 14
-32.127525 -9.4298038 7.7285776 14
-32.141731 -8.937706 7.7004972 14
-32.13591 -8.4438286 7.6694293 14
-32.138199 -7.9558167 7.6420894 14
-32.00177 8.4102144 7.6433959 14
-32.00103 9.394702 7.7048073 14
-32.300617 -27.975868 8.3111954 13
-32.288342 -27.168192 8.2069817 13
-32.286324 -26.388435 8.1094856 13
-32.275181 -25.619497 8.0136213 13
-32.187508 -16.39311 8.3390388 14
-32.194473 -15.822024 8.281311 14
-32.190002 -15.25328 8.2231512 14
-32.181339 -14.690396 8.1663857 14
-32.16563 -13.587556 8.0603886 14
-32.162861 -13.048559 8.0120869 14
-32.33128 -31.406321 8.7686319 13
-32.321423 -30.51195 8.6464424 13
-32.311466 -29.641573 8.5292311 13
-32.299545 -28.792242 8.4162674 13
-32.204056 -20.043106 8.7582979 14
-32.221565 -19.421429 8.6865196 14
-32.206993 -18.79114 8.6091528 14
-32.205086 -18.178841 8.5381784 14
-32.185555 -16.975014 8.4006462 14
-32.07658 -4.6102481 8.6818886 15
-32.072483 -4.1433201 8.6639719 15
-32.0662 -3.6779754 8.6473045 15
-32.056534 -3.2139874 8.6315432 15
-32.073921 -2.7539175 8.6248732 15
-32.057327 -2.292048 8.610857 15
-32.048649 -1.3734043 8.5947552 15
-32.048882 -0.9153282 8.5905895 15
-32.052879 -0.45766813 8.5891933 15
-32.0327 9.4380062e-05 8.5830784 15
-32.038609 0.45749298 8.5857115 15
-32.038372 0.91507173 8.58846 15
-32.047916 1.8321052 8.6019363 15
-32.022755 2.2897241 8.6032925 15
-32.020069 2.7494957 8.6124592 15
-32.031097 3.2117002 8.6271105 15
-32.01075 3.6719575 8.635108 15
-32.011711 4.1358981 8.6506586 15
-32.017681 4.6023068 8.6693993 15
-32.003605 6.0089273 8.7281218 15
-32.351261 -34.238102 9.165205 13
-32.33799 -33.259563 9.0254478 13
-32.329205 -32.314224 8.8927994 13
-32.230305 -23.405577 9.198595 14
-32.236599 -22.714382 9.1065893 14
-32.243195 -22.036991 9.0183477 14
-32.224205 -21.355551 8.9265566 14
-32.21595 -20.694338 8.8412514 14
-32.137875 -11.981565 9.1889248 15
-32.12796 -11.458268 9.1383123 15
-32.124573 -10.942783 9.0919247 15
-32.129681 -10.435142 9.0502357 15
-32.119686 -9.9273672 9.0065374 15
-32.122726 -9.4281664 8.9687033 15
-32.11084 -8.9288969 8.9288673 15
-32.108196 -8.4363413 8.8937273 15
-32.110363 -7.9487319 8.8619957 15
-32.35648 -36.264416 9.4574356 13
-32.350182 -35.231441 9.3070288 13
-32.259239 -25.606052 9.5123901 14
-32.237801 -24.847137 9.4001322 14
-32.242352 -24.124807 9.2997274 14
-32.149162 -15.233514 9.5317745 15
-32.164246 -14.682202 9.4729919 15
-32.142723 -14.121511 9.4061832 15
-32.146137 -13.041438 9.2941732 15
-32.136997 -12.506548 9.2388697 15
-32.369999 -37.339531 9.6168528 13
-32.273674 -28.768261 9.98699 14
-32.270275 -27.948708 9.8610163 14
-32.254616 -27.138964 9.736414 14
-32.254906 -26.361942 9.6215038 14
-32.173733 -18.771204 9.9813862 15
-32.177959 -18.163019 9.9010201 15
-32.182133 -17.564411 9.8239307 15
-32.160225 -16.378761 9.6701317 15
-32.168148 -15.808661 9.6035042 15
-32.287037 -30.478485 10.25726 14
-32.292702 -29.6234 10.12319 14
-32.203709 -21.341339 10.35333 15
-32.200245 -20.683641 10.25595 15
-32.179707 -20.027376 10.15704 15
-32.181416 -19.396669 10.068893 15
-32.299709 -31.374609 10.403042 14
-31.642292 -47.710796 1.0176198 8
-31.630032 -47.690422 3.0175235 9
-31.620831 -47.674675 5.0236325 10
-31.994753 14.610448 5.5791698 12
-31.994305 12.984179 6.7190518 13
-31.9897 13.517544 6.7583032 13
-31.984446 14.056987 6.7992845 13
-31.608807 -47.654652 7.0401783 11
-31.979771 14.603357 6.8423071 13
-31.967098 15.152986 6.8855834 13
-31.997719 8.8994808 7.6723132 14
-31.988043 9.8891573 7.7352219 14
-31.980747 10.389484 7.768877 14
-31.98617 10.898608 7.8075485 14
-31.989798 11.412235 7.8477626 14
-31.983744 12.450712 7.9310203 14
-31.966154 12.972529 7.9721584 14
-31.965591 13.507122 8.0196829 14
-31.956154 14.04431 8.0671978 14
-31.955044 14.591816 8.1190882 14
-31.955885 15.147412 8.173831 14
-31.995298 5.0663214 8.6823025 15
-31.994696 5.5355749 8.7029724 15
-31.990858 6.9576306 8.7758446 15
-31.995785 7.4386806 8.8057375 15
-31.9907 7.9206038 8.8348722 15
-31.9755 8.4031506 8.8632298 15
-31.97644 8.8933954 8.8981075 15
-31.975374 9.3869944 8.9345312 15
-31.971027 9.8837147 8.9721823 15
-31.982466 10.389853 9.0164537 15
-31.957323 10.888579 9.0526342 15
-31.957657 11.400558 9.0982819 15
-31.946218 12.43588 9.1931601 15
-31.939486 12.961473 9.2439337 15
-31.950233 13.500394 9.3022833 15
-31.932125 14.033503 9.354805 15
-31.948021 14.588354 9.4199409 15
-31.93247 15.13605 9.4785385 15
-31.588243 -47.621727 9.0700464 12
-30.67651 -47.719872 1.0090504 8
-30.669464 -47.707005 2.9912529 9
-30.651478 -47.677097 4.9779701 10
-30.63678 -47.652306 6.9752164 11
-30.628376 -47.637295 8.9895401 12
-29.734554 -47.739414 1.0010695 8
-29.720121 -47.714302 2.965497 9
-29.708052 -47.692963 4.935545 10
-29.700115 -47.678261 6.9169612 11
-29.682486 -47.647972 8.9114122 12
-28.795357 -47.736912 0.99298126 8
-28.791603 -47.72871 2.9412422 9
-28.775173 -47.699486 4.8939142 10
-28.762053 -47.675732 6.8570452 11
-28.747839 -47.650139 8.8348923 12
-27.882574 -47.75209 0.98560399 8
-27.86323 -47.716923 2.9164011 9
-27.863016 -47.714527 4.8548589 10
-27.845676 -47.682781 6.80091 11
-27.825821 -47.646721 8.7604475 12
-24.622179 -3.8985493 0.43433738 8
-24.546724 -3.8865118 1.3016182 9
-24.495213 -3.8782682 2.1688521 10
-24.467251 -3.8737531 3.0406709 11
-24.414198 -3.8652651 3.9139886 12
-24.268335 -5.2774425 0.43261999 8
-24.263281 -4.9147182 0.43124759 8
-24.259075 -4.5543852 0.42999196 8
-24.250154 -4.1952858 0.42875364 8
-24.255417 -5.2745128 1.2999332 9
-24.243177 -4.9105353 1.2954034 9
-24.236446 -4.550035 1.2914628 9
-24.227148 -4.1912107 1.287676 9
-24.240862 -5.2712293 2.1693521 10
-24.248941 -4.9115939 2.1635981 10
-24.227085 -4.5481763 2.1556597 10
-24.227047 -4.1911011 2.1501451 10
-24.229738 -5.2686915 3.0434835 11
-24.214748 -4.9045563 3.0325179 11
-24.212372 -4.5453119 3.0238147 11
-24.227798 -4.1911387 3.0179961 11
-24.210323 -5.2643476 3.9229984 12
-24.205864 -4.9026456 3.9105611 12
-24.221663 -4.5469556 3.9022605 12
-24.198162 -4.1859159 3.8884885 12
-24.184769 -4.8982587 4.7953081 13
-24.201649 -4.5430932 4.7853436 13
-24.20001 -4.1861415 4.7727594 13
-24.373867 -3.8587909 4.7957487 13
-24.203846 -5.2628179 4.8134699 13
-24.172699 -5.2559199 5.709815 14
-24.184668 -4.8981256 5.6955767 14
-24.184519 -4.5397716 5.679739 14
-24.173594 -4.1814742 5.6626229 14
-24.316605 -3.8496335 5.6827288 14
-24.181076 -5.2576175 6.6293192 15
-24.162193 -4.8934565 6.6043534 15
-24.160252 -4.535109 6.5854974 15
-24.158459 -4.1787586 6.5681286 15
-24.283232 -3.8442588 6.5865231 15
-19.062214 9.0357962 0.37304416 8
-19.067509 9.0381603 1.1108999 9
-19.095284 9.0511808 1.8540596 10
-19.103287 9.0548248 2.6012418 11
-19.120127 9.0626602 3.357039 12
-18.419701 9.0550137 3.2567139 12
-18.429161 9.059514 3.9978409 13
-18.439886 9.0646334 4.7501726 14
-18.455292 9.072053 5.5169802 15
-18.377705 9.0349522 0.36235762 8
-18.370573 9.0312958 1.0779352 9
-18.394644 9.0429897 1.7986369 10
-18.396194 9.0436039 2.5225544 11
-17.708691 9.0223017 0.3518894 8
-17.716356 9.026062 1.047236 9
-17.733419 9.0346136 1.7466667 10
-17.74683 9.0413008 2.4512272 11
-17.768044 9.0519648 3.1643083 12
-17.758965 9.0471869 3.8803813 13
-17.784348 9.0599718 4.6144738 14
-17.794083 9.0647764 5.3578005 15
-17.0958 9.0198441 0.34245035 8
-17.077635 -47.837402 0.91408116 8
-17.124979 9.0350952 1.020031 9
-17.126677 9.0358505 1.6996858 10
-17.148035 9.0469761 2.3863819 11
-17.071054 -47.816193 2.6885989 9
-17.150166 9.0479527 3.0772436 12
-17.151329 9.048419 3.775753 13
-17.068125 -47.805191 4.4690971 10
-17.166283 9.0561609 4.487515 14
-17.176926 9.0616217 5.2107344 15
-17.061447 -47.783676 6.2584033 11
-17.056715 -47.767593 8.0625315 12
-17.055304 -47.760784 9.8875446 13
-16.515429 9.0174704 0.33358252 8
-16.520962 9.0203476 0.99185258 9
-16.529047 9.0246229 1.6532395 10
-16.547764 9.0346994 2.3208225 11
-16.555017 9.038516 2.9935856 12
-16.570026 9.046566 3.6761386 13
-16.561239 9.0416193 4.3629651 14
-16.593237 9.058939 5.072721 15
-16.313137 -47.842522 0.91033304 8
-16.312128 -47.8367 2.6770935 9
-16.007959 9.038825 3.5800023 13
-16.01787 9.0442724 4.2537141 14
-16.305023 -47.812977 4.4483299 10
-16.026062 9.0487499 4.9386573 15
-16.30238 -47.80233 6.2304654 11
-16.301241 -47.796066 8.0279922 12
-16.288858 -47.75679 9.8383436 13
-15.955634 9.0099869 0.32505047 8
-15.972634 9.0194454 0.96679109 9
-15.971193 9.0184898 1.6103991 10
-15.977203 9.0217457 2.2588964 11
-15.99924 9.0340462 2.9163888 12
-15.444608 9.0147305 0.31743643 8
-15.559582 -47.858986 0.90702403 8
-15.449571 9.0174875 0.9430511 9
-15.453554 9.0196733 1.5712692 10
-15.467547 9.0277014 2.2050934 11
-15.558098 -47.851448 2.6659253 9
-15.466047 9.0266848 2.8426743 12
-15.482938 9.0363989 3.4913766 13
-15.489222 9.0399199 4.1474891 14
-15.549483 -47.821957 4.4287825 10
-15.505191 9.0490923 4.8177962 15
-15.543115 -47.799362 6.201261 11
-15.540976 -47.789776 7.9896059 12
-15.53696 -47.774368 9.7960424 13
-14.933345 9.0046978 0.30974445 8
-14.811368 -47.871735 0.90386283 8
-14.955394 9.0178566 0.92087245 9
-14.952039 9.0156956 1.5334461 10
-14.962007 9.0215683 2.1514213 11
-14.807125 -47.854942 2.6547799 9
-14.961486 9.0211124 2.7735987 12
-14.972867 9.0278339 3.4053669 13
-14.97718 9.0302887 4.0448027 14
-14.80395 -47.841587 4.4112997 10
-14.994276 9.0404501 4.6990018 15
-14.793203 -47.803726 6.1745338 11
-14.792309 -47.79771 7.9555688 12
-14.790619 -47.789101 9.7555399 13
-14.062153 -47.859959 0.9004519 8
-14.059868 -47.848976 2.6437495 9
-14.058029 -47.83952 4.3928733 10
-14.082431 -24.909327 5.5736041 13
-14.052815 -47.818542 6.1506391 11
-14.070129 -24.886425 6.6119671 14
-14.049459 -47.803871 7.923151 12
-14.059074 -24.865711 7.6660876 15
-14.044746 -47.784546 9.7134581 13
-13.623115 -24.92605 0.50662476 8
-13.619499 -24.918335 1.4991887 9
-13.628477 -24.933678 2.4971356 10
-13.615723 -24.909212 3.4968846 11
-13.60925 -24.896248 4.5054193 12
-13.61064 -24.897663 5.5273771 13
-13.607057 -24.889959 6.5610681 14
-13.330067 -47.886047 0.8979665 8
-13.322236 -47.854561 2.6339877 9
-13.321126 -47.847248 4.3763933 10
-13.315499 -47.823677 6.1269584 11
-13.311969 -47.807602 7.8922191 12
-13.596939 -24.870274 7.6073313 15
-13.305769 -47.781906 9.6740942 13
-13.168477 -24.933365 0.50325614 8
-13.167872 -24.931101 1.4888618 9
-13.161818 -24.918501 2.4769237 10
-13.163986 -24.921482 3.4722633 11
-13.161713 -24.916037 4.4749489 12
-13.150251 -24.893162 5.4845657 13
-13.154634 -24.900303 6.5140672 14
-13.138558 -24.868656 7.5491543 15
-12.718434 -24.936743 0.49996471 8
-12.594748 -47.880634 0.89509583 8
-12.718137 -24.935019 1.4784704 9
-12.592438 -47.868378 2.6252911 9
-12.717715 -24.933046 2.4604526 10
-12.714319 -24.925224 3.4475386 11
-12.590265 -47.856636 4.3610873 10
-12.714993 -24.925388 4.4439831 12
-12.705537 -24.905647 5.4472227 13
-12.582333 -47.82296 6.1039662 11
-12.699759 -24.893122 6.4645429 14
-12.694366 -24.881327 7.4976845 15
-12.581385 -47.815838 7.8638759 12
-12.577504 -47.79752 9.640687 13
-12.275955 -24.942497 0.49687248 8
-12.277656 -24.944788 1.4688758 9
-12.270043 -24.928129 2.4428132 10
-12.268839 -24.924498 3.4232578 11
-12.262211 -24.909826 4.4099588 12
-12.260161 -24.904453 5.408556 13
-12.252523 -24.887701 6.4175 14
-12.252428 -24.886272 7.446167 15
-11.845219 -24.960352 0.49416709 8
-11.87252 -47.905285 0.89299095 8
-11.842333 -24.953064 1.4596285 9
-11.868639 -47.885983 2.6174026 9
-11.837184 -24.940996 2.4276495 10
-11.828475 -24.921415 3.3996918 11
-11.86255 -47.857758 4.3460321 10
-11.82518 -24.913252 4.3806419 12
-11.825773 -24.913273 5.3736849 13
-11.857214 -47.832561 6.0836973 11
-11.827452 -24.915565 6.3809371 14
-11.817298 -24.892878 7.3973742 15
-11.853648 -47.814468 7.8357716 12
-11.85255 -47.806324 9.6081219 13
-11.416828 -24.971769 0.49147448 8
-11.411975 -24.959915 1.4507215 9
-11.408146 -24.950294 2.4128385 10
-11.399683 -24.930521 3.3787847 11
-11.395871 -24.920929 4.3533535 12
-11.390645 -24.908228 5.3374052 13
-10.985033 -24.963554 0.48853439 8
-11.149843 -47.909134 0.89069718 8
-10.982275 -24.956017 1.4416054 9
-10.977781 -24.944534 2.3972642 10
-11.142712 -47.874649 2.6085265 9
-10.971688 -24.929399 3.3574593 11
-11.144343 -47.87788 4.3336868 10
-10.968617 -24.921133 4.3260064 12
-10.973681 -24.93137 5.308681 13
-11.139181 -47.851837 6.0660381 11
-10.965703 -24.911905 6.2981191 14
-10.962238 -24.902689 7.305203 15
-11.13239 -47.818771 7.8103852 12
-11.128578 -47.798477 9.5744057 13
-10.482455 3.0765784 -0.18928136 7
-10.55256 3.9345212 -0.19463973 7
-10.585232 4.8328514 -0.20055795 7
-10.596907 5.7853789 -0.20748749 7
-10.499716 -28.118113 0.53934634 8
-10.488663 -26.908129 0.51853192 8
-10.479904 -25.789778 0.49940664 8
-10.430901 -47.908699 0.88852096 8
-10.484741 -28.076374 1.5863431 9
-10.478448 -26.880415 1.5266483 9
-10.459671 -25.738543 1.4697267 9
-10.426751 -47.885624 2.6014516 9
-10.468864 -28.032209 2.6338878 10
-10.460692 -26.833321 2.5346019 10
-10.454982 -25.725611 2.443424 10
-10.443418 -26.787468 3.5454104 11
-10.429726 -25.661987 3.4154165 11
-10.458376 -28.002493 3.6865091 11
-10.424025 -47.869072 4.319695 10
-10.422317 -25.642351 4.3985581 12
-10.436172 -27.941349 4.740695 12
-10.429014 -26.748974 4.5627809 12
-10.415817 -26.713575 5.5892677 13
-10.407502 -25.604445 5.3873549 13
-10.420787 -27.898478 5.805882 13
-10.42165 -47.854126 6.0475831 11
-10.543213 -24.91045 6.2595057 14
-10.403508 -27.850512 6.8812113 14
-10.542279 -24.906874 7.2620049 15
-10.420671 -47.845554 7.7904158 12
-10.413578 -47.808846 9.5465002 13
-10.128212 0.72389627 -0.17699747 7
-10.265385 1.4750473 -0.18046145 7
-10.385573 2.2580607 -0.18456659 7
-10.386985 -25.552469 6.3833323 14
-10.392467 -26.652077 6.620687 14
-10.371154 -25.512032 7.3949461 15
-10.388133 -27.807631 7.971931 15
-10.381413 -26.622143 7.6733804 15
-9.7954636 -0.69999111 -0.17162216 7
-9.9724884 2.6419772e-05 -0.17408341 7
-9.7180185 -47.91618 0.88668603 8
-9.715003 -47.897053 2.594975 9
-9.7116508 -47.876278 4.3081098 10
-9.7127419 -47.877403 6.0331168 11
-9.7079697 -47.849552 7.7684555 12
-9.7069693 -47.840271 9.5248985 13
-9.3765841 -2.0376012 -0.16789918 7
-9.5956335 -1.3783255 -0.16954914 7
-8.8825426 -3.3088725 -0.16583578 7
-9.1366539 -2.6796744 -0.16662349 7
-9.0079184 -47.917747 0.88493174 8
-9.0068884 -47.907776 2.5890248 9
-9.0026159 -47.880516 4.2972016 10
-9.0003557 -47.86396 6.015347 11
-8.9992971 -47.853748 7.7482347 12
-8.9963341 -47.833359 9.4977474 13
-8.605773 -3.9248002 -0.16538098 7
-8.3062325 -4.528903 -0.16526167 7
-7.6474166 -5.7150183 -0.16627914 7
-7.9898 -5.1266184 -0.16561262 7
-7.6487908 30.948872 0.58374482 8
-7.6517015 30.961285 1.6993043 9
-7.6524024 30.964775 2.819098 10
-7.6538577 30.971319 3.9464574 11
-7.6581879 30.989496 5.0859704 12
-7.6551929 30.978064 6.233583 13
-7.6588893 30.993685 7.402576 14
-7.6653767 31.020605 8.594903 15
-7.2759542 -6.2930188 -0.1672195 7
-6.8886151 -6.8748622 -0.16878657 7
-7.1814923 30.950827 0.58201349 8
-7.1808767 30.948944 1.6930509 9
-7.182229 30.955524 2.8088558 10
-7.185308 30.969543 3.9329784 11
-7.1860104 30.973343 5.066185 12
-7.1907544 30.994543 6.2158222 13
-7.1885595 30.985886 7.3756666 14
-7.1906624 30.995747 8.558917 15
-6.4614611 -7.4407234 -0.17046928 7
-6.6910419 22.832361 -0.39565709 7
-6.7163887 30.948948 0.58033311 8
-6.7165537 30.950579 1.6879376 9
-6.7178535 30.957443 2.8002543 10
-6.7187014 30.962229 3.9196801 11
-6.7228293 30.982117 5.0516143 12
-6.7238655 30.987787 6.1947942 13
-6.7227187 30.983429 7.3516932 14
-6.7254577 30.996965 8.5320778 15
-6.0262489 -8.0310669 -0.17318632 7
-6.2536025 30.944042 0.57871747 8
-6.0781703 32.45565 0.60544723 8
-6.2525258 30.939737 1.682514 9
-6.0588179 32.353741 1.7546502 9
-6.2595315 30.975357 2.7937102 10
-6.0406055 32.257889 2.9014223 10
-6.2561226 30.959543 3.9078381 11
-6.022356 32.16185 4.0484309 11
-6.2593508 30.976521 5.0358205 12
-6.003459 32.062359 5.1979709 12
-6.2611518 30.986462 6.1762304 13
-6.2601132 30.982389 7.3296938 14
-6.2625151 30.995331 8.5063496 15
-5.9813523 31.945768 6.3498583 13
-5.9633703 31.851179 7.5144019 14
-5.9458094 31.758839 8.6917877 15
-5.5523806 25.593279 -0.43463191 7
-5.5401425 -8.5981512 -0.17587641 7
-5.0249977 -9.1759224 -0.17928392 7
-4.8197565 -0.69157439 -0.25535458 6
-4.8599081 -0.34694412 -0.25544778 6
-4.9493103 0.17751162 -0.25965917 6
-4.9831948 0.71548855 -0.26357257 6
-4.956008 1.0767881 -0.26535714 6
-4.9359107 1.4477674 -0.26894218 6
-4.8848586 1.8203143 -0.27234131 6
-4.8210917 2.2001169 -0.27661592 6
-4.4682631 -9.7521086 -0.18317541 7
-4.4998112 -1.6740059 -0.25185883 6
-4.6229172 -1.3541678 -0.25270182 6
-4.7315278 -1.0270134 -0.25396493 6
-4.7239165 2.5780499 -0.28064981 6
-4.1152449 28.741987 -0.48107526 7
-4.0568089 -2.5987039 -0.25259015 6
-4.2063417 -2.289912 -0.25116664 6
-4.3697062 -1.9900197 -0.25185579 6
-4.3378797 -24.982021 4.9486818 13
-4.3347583 -24.961374 5.8696885 14
-4.3354273 -24.962589 6.8102102 15
-3.869544 -10.335467 -0.18774886 7
-3.7774951 -3.0331783 -0.25400352 6
-3.7920501 -25.017914 0.45968357 8
-3.793288 -25.023342 1.3448555 9
-3.7914243 -25.007763 2.2318354 10
-3.7898786 -24.995113 3.1235628 11
-3.79005 -24.993284 4.023869 12
-3.7886608 -24.981405 4.9321275 13
-3.7894323 -24.98407 5.8554177 14
-3.7870655 -24.964876 6.7880259 15
-3.2208414 -10.919684 -0.19293021 7
-3.2265935 -3.7068028 -0.25715205 6
-3.4474094 -3.433085 -0.25473708 6
-3.2031219 -0.45910892 -0.28319195 5
-3.2493074 -0.23173572 -0.28505281 5
-3.2760696 0.11697875 -0.28695717 5
-3.2661576 0.58845031 -0.2903648 5
-3.237468 0.94899893 -0.29484493 5
-3.2466457 -25.028078 0.45900369 8
-3.245955 -25.019547 1.3411195 9
-3.2435896 -24.998035 2.2247646 10
-3.2449293 -25.005199 3.1159303 11
-3.2447784 -25.000797 4.0134754 12
-3.2447808 -24.997545 4.9209723 13
-3.2434788 -24.984146 5.8383274 14
-3.241226 -24.963339 6.7676926 15
-2.9758699 -3.9554014 -0.25883293 6
-2.8715765 -1.4309804 -0.28101397 5
-3.0509076 -1.0116974 -0.28153118 5
-3.1550982 -0.68404168 -0.28256714 5
-3.1818302 1.1850387 -0.2966283 5
-3.1223247 1.4242169 -0.29969236 5
-2.9700036 1.8825448 -0.18275689 6
-2.9817653 1.9386995 0.18830366 9
-2.8836715 -25.026447 0.45852268 8
-2.9612486 1.9383659 0.59958696 12.285714
-2.8335514 39.915779 0.73508185 8
-3.0048635 1.9433112 0.89580858 14.5
-2.8825042 -25.012747 1.3387759 9
-2.8829403 -25.013018 2.2225857 10
-2.8347616 39.938923 2.1355922 9
-2.8817911 -24.999439 3.1101611 11
-2.8356032 39.956928 3.542491 10
-2.881644 -24.994576 4.0058722 12
-2.8826034 -24.999329 4.9131455 13
-2.8347585 39.951344 4.9564366 11
-2.8817198 -24.987951 5.8294501 14
-2.8350713 39.962029 6.3848529 12
-2.8798187 -24.967646 6.7574859 15
-2.5200295 -11.518345 -0.1990141 7
-2.4344804 -4.4304471 -0.26393807 6
-2.7105324 -4.1941605 -0.26093841 6
-2.4521234 -2.1125102 -0.28323174 5
-2.6436853 -1.8258162 -0.28137779 5
-2.4211226 -0.1724945 -0.29804629 4
-2.4475307 0.21960606 -0.30223241 4
-2.4255433 0.52625245 -0.30468678 4
-2.6014752 1.9333557 -0.1458701 6.1999998
-2.5742831 1.9326063 0.20239185 9.2857141
-2.5229874 -25.035418 0.45833039 8
-2.595592 1.9404595 0.57494801 12.5
-2.5959392 1.9408455 0.8726815 15
-2.5225186 -25.026783 1.3378263 9
-2.5236065 -25.033682 2.2213702 10
-2.521138 -25.005045 3.1064544 11
-2.5217471 -25.007105 4.0021076 12
-2.3000474 32.432758 -0.53803456 7
-2.1395152 -4.6511993 -0.26707557 6
-2.1422479 -2.4551728 -0.28505966 5
-2.3066511 -2.2921391 -0.28452846 5
-2.0320721 -1.2973109 -0.29611173 4
-2.1922486 -0.99541014 -0.29618829 4
-2.3373194 -0.59338552 -0.29631937 4
-2.3992565 -0.34351641 -0.2976234 4
-2.3988249 0.70272088 -0.30682245 4
-2.3272686 0.96245301 -0.30926532 4
-2.1582289 1.3869958 -0.31523606 4
-2.1811433 1.9289958 -0.15097491 6
-2.1961021 1.9312668 0.20741439 9.5
-2.1962187 1.9351391 0.62716883 13.5
-2.2620099 39.937187 0.7349661 8
-2.3363543 1.9377519 0.81769282 15
-2.2610173 39.927876 2.1332161 9
-2.2621005 39.955032 3.5392528 10
-2.2612107 39.947609 4.9516153 11
-2.2615278 39.961441 6.3791003 12
-1.8254082 -4.8527203 -0.27022755 6
-1.6005137 -2.9027333 -0.28983441 5
-1.8842651 -2.6928248 -0.28763545 5
-1.729421 -1.7148129 -0.29919097 4
-1.8881223 -1.5102376 -0.29718041 4
-1.6677607 -0.94187051 -0.30390978 3
-1.8393023 -0.57218802 -0.30558425 3
-1.9194059 -0.27451596 -0.3070693 3
-1.9431349 0.27833903 -0.31094828 3
-1.8842334 0.58877617 -0.31330371 3
-1.7635131 0.96222007 -0.31885445 3
-1.624045 1.2149832 -0.32136491 3
-1.8066624 1.8936797 -0.19714791 5.3333335
-1.9368895 6.6323876 -0.35633796 6
-1.7927501 1.9270684 0.18729627 9.5
-1.7892815 1.9293149 0.56998128 13.555555
-1.6893137 39.92416 0.73435766 8
-1.6887153 39.921471 2.1315148 9
-1.6886241 39.930714 3.5347481 10
-1.6890165 39.951363 4.94873 11
-1.6890476 39.96365 6.375092 12
-1.4942567 -5.0364203 -0.27355951 6
-1.4055181 -3.0434446 -0.29305571 5
-1.3389189 -2.0593872 -0.30185777 4
-1.5405846 -1.8929237 -0.30005983 4
-1.3729939 -1.358304 -0.30663544 3
-1.3645222 -1.0348165 -0.31015649 2.3333333
-1.3670928 -0.65995693 -0.31174847 1.6666666
-1.4375464 -0.31036696 -0.31041855 1.5
-1.4732772 0.31907457 -0.3185572 1.5
-1.3235816 0.66074896 -0.32227179 1.3333334
-1.3508749 0.97402769 -0.32484293 2
-1.4511003 1.4534134 -0.32592916 3
-1.3735735 1.8962559 -0.18323053 5.2222223
-1.212906 2.1712303 -0.17216299 5.5
-1.209499 2.6031518 -0.14836082 6
-1.2076519 2.9492605 -0.1414579 6.1999998
-1.2059065 3.347748 -0.15788859 6.1999998
-1.2027117 3.7309363 -0.13338123 6.5
-1.4944036 6.9251542 -0.36508146 6
-1.3994796 1.9238989 0.21182616 10
-1.2059294 2.1704228 0.20080617 9.7777777
-1.2043164 2.5742643 0.16808362 9.166667
-1.2032292 2.9789071 0.20461744 9.2857141
-1.2015083 3.3698087 0.10854652 8.333333
-1.2046392 3.7369232 0.072886236 8
-1.3878672 1.9279525 0.55446142 14
-1.2041434 2.1983209 0.54795706 13.6
-1.2012004 2.8607416 0.49699435 12
-1.2003173 2.7478554 0.8105883 15
-1.1494924 -5.2135563 -0.27774176 6
-0.97535545 -3.2682865 -0.29803354 5
-1.190084 -3.1486604 -0.29420125 5
-1.0394244 -2.2434814 -0.30445316 4
-0.976771 -1.6885833 -0.3100996 3
-1.0549781 -1.3573483 -0.31174523 2.3333333
-0.98638666 -0.97181267 -0.31784102 1
-1.0592541 -0.65322661 -0.31727186 0.33333334
-1.1810479 0.25549644 -0.32418016 0
-1.0659277 0.68415219 -0.32778922 0.25
-1.0204923 1.0222099 -0.33240709 1
-0.97740495 1.415377 -0.33605549 2
-1.0128956 1.8671408 -0.33686173 3
-1.0566916 2.5718615 -0.34035408 4
-0.99198645 3.9331903 -0.3520183 5
-1.0241207 7.2179575 -0.37542006 6
-1.198509 2.691874 0.31436649 10.5
-1.1932726 2.9598465 0.39699915 11
-1.1966484 3.4034152 0.25747457 9.5
-1.1975311 3.8290763 0.24276094 9.1999998
-1.1982654 2.2187166 0.54112941 13.5
-1.1961555 2.5646517 0.61837947 13.6
-1.1930209 2.9890435 0.6183908 12.888889
-1.1930254 3.3734176 0.60421526 12.25
-1.1902711 3.7870722 0.63568431 12
-1.1180878 39.9254 0.73415011 8
-1.188442 2.9812577 0.86744338 15
-1.1871712 3.413455 0.90860957 14.5
-1.1852322 3.7714705 0.99397373 14.5
-1.1179106 39.936985 2.131408 9
-1.1176262 39.944836 3.5343573 10
-1.1172332 39.948997 4.9460864 11
-1.1174136 39.973545 6.3736024 12
-0.7484557 -3.368696 -0.3014695 5
-0.63690239 -2.434751 -0.30968639 4
-0.60450345 -1.8841549 -0.31495625 3
-0.62508887 -1.3746367 -0.32102695 1.5
-0.66863412 -1.036016 -0.32017377 0.25
-0.5729093 1.1082599 -0.33794814 0
-0.58230984 1.4203851 -0.34083116 1.25
-0.54786068 1.6731147 -0.34285933 2
-0.56776583 2.1105118 -0.346257 3
-0.79326904 2.7354522 -0.34818399 4
-0.59927571 2.8072491 -0.35076362 4
-0.57970941 4.123446 -0.36084124 5
-0.51833981 7.4617615 -0.38494968 6
-0.36449084 -1.602361 -0.3211821 2
-0.35892817 -1.3437567 -0.32340693 1
-0.31516773 -1.1722407 -0.32797292 0
-0.19515316 1.3781395 -0.3474941 0.5
-0.2109033 1.7903408 -0.35111466 2
-0.22486195 2.2200236 -0.35279799 3
-0.19904137 2.9322278 -0.36241126 4
-0.28722894 4.2226911 -0.36659682 5
0.059597608 7.7509613 -0.42872527 6
0.35361144 -5.715158 -0.29679871 6
0.21608439 -3.5848787 -0.31351125 5
0.25830919 -2.6175423 -0.32403922 4
0.19760786 -2.0376482 -0.32650471 3
0.18913428 -1.66809 -0.33001098 2
0.17618313 -1.3101239 -0.33341986 0.5
0.16395104 1.4601991 -0.36463273 0.5
0.22232343 1.8713902 -0.36899042 2
0.19143662 2.3259718 -0.37412688 3
0.21084794 3.0477941 -0.38211021 4
0.16872354 4.3548684 -0.39333791 5
0.64669019 4.4230943 -0.40272561 5
0.62855518 7.9401965 -0.4396275 6
0.46005797 36.848972 -0.74508297 7
0.73001665 -12.993678 -0.21640134 7
0.63935643 -3.6134191 -0.32043889 5
0.64877576 -2.5918031 -0.32928562 4
0.50296783 -2.0222101 -0.33266211 3
0.61689073 -1.7448401 -0.33833417 2.3333333
0.62509316 -1.3060355 -0.34187776 1
0.57026076 -1.108413 -0.34281042 0
0.60108584 1.3768908 -0.37035206 0.60000002
0.60918278 1.8087345 -0.37468272 2
0.56498426 2.2963099 -0.37928715 3
0.53925455 3.0381656 -0.386208 4
0.69225848 -7.0434141 0.87680387 11
0.97205251 4.4213181 -0.40747002 5
0.9162342 -12.990783 -0.21639262 7
0.82069176 -5.8032408 -0.30348057 6
1.0431672 -3.5960674 -0.32669112 5
1.0334697 -2.5214868 -0.33603364 4
0.98341978 -1.8975335 -0.34218192 3
1.027155 -1.4140254 -0.34584236 2
0.99740303 -1.0171577 -0.34903759 0.75
1.0860742 -0.69066578 -0.35502231 0
1.1474599 0.71325588 -0.36956081 0
1.0236577 1.0363085 -0.37291998 0.40000001
1.0116251 1.3701607 -0.3747966 1.3333334
0.95469373 1.6640362 -0.37739244 2
0.93464094 2.2004457 -0.38437694 3
0.9776957 2.9703765 -0.39135262 4
0.96583384 -10.128331 0.18657072 8
1.080393 14.458836 0.21138553 8
0.96879715 -8.3000002 0.44591966 9
1.0295963 -7.0184226 0.62829721 10
0.99350238 -6.0778399 0.76366073 11
1.0667443 12.075128 0.59862417 9
0.96884775 -5.3366518 0.86670995 12
0.98379397 -4.746943 0.95040596 13
1.0718011 -4.2513871 1.0207993 14
0.98194635 9.0555725 1.0869203 11
1.0556889 10.352176 0.87697905 10
1.0068644 4.5846238 1.2347372 15
0.98278809 5.3325744 1.2274804 14
1.0331074 6.3052411 1.2160724 13
1.1025908 7.6813898 1.2004371 12
1.296392 4.3812594 -0.41084898 5
1.2226759 8.0714436 -0.44955382 6
1.2637435 -5.8691878 -0.31059766 6
1.4547054 -3.5367656 -0.33383113 5
1.3250514 -2.4443197 -0.34275717 4
1.5129083 -2.3666871 -0.34638137 4
1.3675328 -1.7032741 -0.34982884 3
1.4090176 -1.4104222 -0.35255921 2.5
1.4369607 -0.99112904 -0.3579317 1.8
1.3510518 -0.57546598 -0.36071724 0.75
1.4191211 -0.19028865 -0.36531985 0.5
1.4318837 0.22936942 -0.36941496 0.5
1.3826782 0.59597969 -0.37292325 0.66666669
1.4140308 1.0535185 -0.37844509 1.5
1.3446531 1.3806357 -0.3807855 2
1.4932543 1.8854051 -0.38688675 3
1.2911861 2.0483329 -0.38901904 3
1.514448 2.7962625 -0.39750931 4
1.3038061 2.8815272 -0.39545369 4
1.4822402 17.942076 -0.36330631 7
1.3647356 -10.093317 0.18710913 8
1.5958155 14.419478 0.21256186 8
1.3562268 -8.2633886 0.44725311 9
1.3740188 -6.9735222 0.62981343 10
1.3419473 -6.0216293 0.76543647 11
1.5804553 12.008453 0.59929818 9
1.3525474 -5.269887 0.86994541 12
1.3760426 -4.6672039 0.95450431 13
1.3806434 -4.1846123 1.0266997 14
1.5257033 7.5471764 1.1925488 12
1.3147006 7.6123977 1.1957258 12
1.3916208 9.0154066 1.0898712 11
1.4976348 10.301265 0.87843454 10
1.4155326 4.4397817 1.2283041 15
1.4409333 5.1838851 1.2200427 14
1.2783481 5.2436533 1.2229608 14
1.4253737 6.1873803 1.2099429 13
1.8226815 2.6423945 -0.40130892 4
1.788606 4.2903423 -0.41752723 5
1.8417162 8.1694021 -0.46003041 6
1.8404791 -12.886366 -0.21554263 7
1.7153572 -5.8835526 -0.3168053 6
1.866336 -3.4350543 -0.34101552 5
1.7857738 -2.2216399 -0.3518886 4
1.7650814 -1.3659214 -0.35842678 3
1.7548778 -0.60288835 -0.36820289 2
1.8634706 -0.20938604 -0.37231761 2
1.8863329 0.24343207 -0.37756076 2
1.8122647 0.61712801 -0.37934607 2
1.6764909 0.937006 -0.3805325 2
1.8865758 1.541718 -0.39215997 3
1.6955514 1.7222803 -0.38868243 3
1.7632625 -10.047967 0.18775484 8
1.7981405 14.371445 0.212635 8
1.7721758 -8.2049017 0.44868684 9
1.7527038 -6.9154525 0.63258713 10
1.7555017 -5.9411287 0.76917285 11
1.8371553 11.974242 0.60000533 9
1.6426569 -5.2196312 0.87518221 12
1.8143356 -5.1758909 0.87747151 12
1.7378961 -4.5892062 0.96326393 13
1.7619576 -4.0714097 1.0344435 14
1.8750523 7.4392447 1.1895889 12
1.8672318 9.0150566 1.1013609 11
1.8277887 10.251675 0.87967646 10
1.8310276 4.2605152 1.2251546 15
1.804674 5.0464897 1.2174501 14
1.9801292 5.9961147 1.2056005 13
1.8107507 6.0578828 1.2065456 13
2.2917566 2.3021576 -0.40539992 4
2.1116114 2.4500985 -0.40385556 4
2.2846758 4.1615582 -0.42536822 5
2.1899269 -5.9015098 -0.32514885 6
2.1443665 -3.3487294 -0.34686634 5
2.0473619 -2.048429 -0.35748714 4
2.2164338 -1.918488 -0.36195463 4
2.0522289 -1.0154203 -0.36767665 3
2.23333 -0.63741636 -0.37369618 3
2.3553834 -0.22777298 -0.38058946 3
2.3846817 0.25516325 -0.3859565 3
2.3358145 0.60080272 -0.38825569 3
2.197654 1.0148085 -0.39015538 3
2.0337877 1.3237605 -0.39042902 3
2.0164204 -10.01267 0.1881751 8
2.2357707 -9.9892845 0.18877499 8
2.1053717 14.331808 0.21333225 8
2.1617191 -8.1511335 0.45110387 9
2.1587543 -6.8453989 0.63684738 10
2.1522498 -5.8634663 0.77592278 11
2.1799483 11.928289 0.60144687 9
2.1640756 -5.0942373 0.88603318 12
2.1495905 -4.4718637 0.97451252 13
2.1809645 -3.9420092 1.0509871 14
2.3855367 5.8005142 1.1993556 13
2.2514675 7.3013315 1.1861593 12
2.2417622 9.025094 1.1136215 11
2.2315257 10.187926 0.88211071 10
2.3249881 3.972363 1.2191105 15
2.1623127 4.0858831 1.2232993 15
2.3303199 4.7908154 1.2129229 14
2.1627083 4.8813376 1.2146868 14
2.1853259 5.9032011 1.2029108 13
2.6628828 1.8530467 -0.40462843 4
2.4546866 2.1348767 -0.405797 4
2.5987029 4.0222235 -0.42849723 5
2.479197 8.213007 -0.47003454 6
2.7729955 -12.800416 -0.21614917 7
2.6663854 -5.8605576 -0.33236781 6
2.4207976 -3.2415411 -0.3529169 5
2.6796114 -3.0964174 -0.35725838 5
2.4458761 -1.6908789 -0.36759275 4
2.7050483 -1.342315 -0.37364918 4
2.759023 17.804886 -0.36107641 7
2.5304344 -9.960516 0.18975261 8
2.5177824 14.291336 0.21461906 8
2.5536819 -8.0894833 0.45413417 9
2.5662799 -6.7610898 0.64200729 10
2.5441504 -5.7735353 0.78409159 11
2.6541066 11.870353 0.60449451 9
2.5504639 -4.9791198 0.89597273 12
2.5604098 -4.3274307 0.98805207 13
2.5601678 -3.7813828 1.0659201 14
2.7824454 5.5952125 1.1969154 13
2.6641421 5.6579037 1.197288 13
2.6494429 7.1228719 1.1813709 12
2.5843656 9.0156412 1.1242803 11
2.6383078 10.127249 0.88633543 10
2.583817 3.7982447 1.2190776 15
2.5910165 4.6346464 1.2107877 14
2.5117674 5.7541556 1.2012489 13
2.7378304 -48.009274 2.5655425 9
2.5884399 30.965847 3.7264645 11
2.7371027 -48.006927 4.253057 10
2.5883217 30.982038 4.8330336 12
2.7356207 -47.991467 5.949235 11
2.5876343 30.99177 5.9515953 13
2.5877209 31.010832 7.0880527 14
2.7334468 -47.964027 7.6571369 12
2.5864277 31.013987 8.2398691 15
2.7327826 -47.963047 9.3873997 13
3.1732392 0.68105924 -0.40319476 4
3.0927796 1.0240915 -0.40536213 4
2.9129102 1.4576812 -0.40578076 4
