# .PCD v0.7 - Point Cloud Data file format
VERSION 0.7
FIELDS x y z intensity
SIZE 4 4 4 4
TYPE F F F F
COUNT 1 1 1 1
WIDTH 1387
HEIGHT 1
VIEWPOINT 0 0 0 1 0 0 0
POINTS 1387
DATA ascii
-32.269279 -5.1343503 2.8605762 10
-32.315861 -4.6675696 2.8581803 10
-32.354488 -4.2003469 2.8557026 10
-32.379921 -3.7322261 2.8526807 10
-32.173286 -50.545177 3.237529 9
-32.124161 -7.0199533 4.0406413 11
-32.164909 -6.5470147 4.0331526 11
-32.191799 -6.0730495 4.0248256 11
-32.234146 -5.6035485 4.01932 11
-32.257759 -5.132185 4.0123577 11
-32.294525 -4.664185 4.0079074 11
-32.330658 -4.1969805 4.0042443 11
-32.380234 -3.7320192 4.0031013 11
-32.14999 -6.5435519 5.1991844 12
-32.190483 -6.0724034 5.1907573 12
-32.231449 -5.6027126 5.1835384 12
-32.253113 -5.1311097 5.1743469 12
-32.297798 -4.6643515 5.1699662 12
-32.32473 -4.1959352 5.1638541 12
-32.396027 -3.2635486 5.1577172 12
-32.157238 -50.516602 5.3365679 10
-32.122227 -7.0190716 5.2108221 12
-32.115475 -7.0171337 6.3929238 13
-32.131218 -6.5392976 6.3763542 13
-32.18671 -6.0712914 6.3690796 13
-32.222137 -5.6007228 6.3592114 13
-32.243999 -5.1293192 6.3480506 13
-32.280117 -4.6614885 6.3410673 13
-32.328239 -4.1961112 6.3377938 13
-32.388271 -3.2625501 6.3281736 13
-32.159 -50.515987 7.4505515 11
-32.107159 -7.0148468 7.5903311 14
-32.142113 -6.5410771 7.5752621 14
-32.176689 -6.0689926 7.5617714 14
-32.212479 -5.5986691 7.5502114 14
-32.242004 -5.1286569 7.5388155 14
-32.268173 -4.6594515 7.5282607 14
-32.318459 -4.1945591 7.5249352 14
-32.349236 -3.7277019 7.5186558 14
-32.380943 -3.2615917 7.5141816 14
-32.131401 -6.5384517 8.788537 15
-32.165607 -6.0664897 8.7728491 15
-32.196568 -5.5955205 8.7581816 15
-32.230534 -5.126483 8.7462263 15
-32.2645 -4.6586022 8.7361469 15
-32.291615 -4.1907892 8.7260714 15
-32.36245 -3.259506 8.7159462 15
-32.394039 -2.7941191 8.7125969 15
-32.08704 -7.009974 8.8033676 15
-32.142323 -50.486389 9.5775251 12
-31.642319 -13.978264 0.61602205 8
-31.68848 -13.458894 0.61235207 8
-31.720757 -12.938831 0.60860538 8
-31.754126 -12.424314 0.60506582 8
-31.784615 -11.913502 0.60165477 8
-31.840725 -11.416462 0.59890592 8
-31.884733 -10.918763 0.59610105 8
-31.905163 -10.416962 0.59302711 8
-31.635401 -13.974312 1.824483 9
-31.71126 -12.934129 1.8052589 9
-31.7607 -12.42609 1.79705 9
-31.773111 -11.908427 1.7872355 9
-31.820097 -11.408338 1.7798482 9
-31.851637 -10.906729 1.7720609 9
-31.899275 -10.414375 1.7656251 9
-31.612198 -13.963167 3.0352888 10
-31.664972 -13.447183 3.0207894 10
-31.700191 -12.928785 3.00544 10
-31.749622 -12.420958 2.9922404 10
-31.779078 -11.9099 2.9779482 10
-31.817055 -11.406513 2.9652324 10
-31.857962 -10.908195 2.9535463 10
-31.879765 -10.407335 2.9408369 10
-31.645573 -13.438075 4.2322488 11
-31.693779 -12.925332 4.2127643 11
-31.719194 -12.408252 4.1913705 11
-31.760929 -11.902328 4.1732407 11
-31.807264 -11.402267 4.1567779 11
-31.836906 -10.900281 4.1391859 11
-31.888693 -10.409575 4.1254988 11
-31.609001 -13.95994 5.4844046 12
-31.675591 -12.917071 5.4279885 12
-31.711693 -12.404508 5.4024491 12
-31.75411 -11.898998 5.3793931 12
-31.802361 -11.399767 5.358686 12
-31.840265 -10.90072 5.3375735 12
-31.876677 -10.404976 5.3175321 12
-31.629406 -13.429447 6.6899815 13
-31.676811 -12.916718 6.6594377 13
-31.708534 -12.402455 6.6273475 13
-31.747356 -11.895681 6.5984697 13
-31.77685 -11.389869 6.5693407 13
-31.819935 -10.893043 6.5446725 13
-31.860584 -10.399037 6.5211077 13
-31.613035 -13.421597 7.9395342 14
-31.671961 -12.913877 7.9063034 14
-31.698637 -12.397756 7.8670845 14
-31.742765 -11.893167 7.8342414 14
-31.772005 -11.387373 7.7997179 14
-31.807379 -10.888017 7.7686639 14
-31.8608 -10.398414 7.7439141 14
-31.650558 -12.904271 9.1682777 15
-31.692011 -12.39432 9.1271725 15
-31.727962 -11.886809 9.0868349 15
-31.765295 -11.384193 9.0492077 15
-31.799877 -10.884706 9.0130577 15
-31.845968 -10.392866 8.9823713 15
-31.62907 -13.427495 9.2176037 15
-31.227661 -19.551533 0.66527122 8
-31.270689 -18.959766 0.65932894 8
-31.31032 -18.374979 0.65356815 8
-31.355476 -17.801964 0.64816761 8
-31.394186 -17.233374 0.6428706 8
-31.445982 -16.679508 0.63807249 8
-31.488276 -16.127659 0.63330048 8
-31.566004 -15.040822 0.62426341 8
-31.596037 -14.502868 0.61988282 8
-31.224926 -19.548559 1.9525737 9
-31.263521 -18.954193 1.9367937 9
-31.307064 -18.371883 1.922001 9
-31.360855 -17.803871 1.9084876 9
-31.39069 -17.230347 1.8941514 9
-31.46973 -16.117126 1.8684978 9
-31.519123 -15.575986 1.857134 9
-31.548635 -15.031583 1.8451631 9
-31.586967 -14.497775 1.8342636 9
-31.299246 -18.366114 3.1943645 10
-31.341076 -17.791492 3.171324 10
-31.398441 -17.23349 3.1508801 10
-31.41798 -16.66251 3.1276484 10
-31.516266 -15.573571 3.0899842 10
-31.540895 -15.02693 3.0701394 10
-31.584717 -14.495811 3.0530658 10
-31.253178 -18.946701 3.2180386 10
-31.42375 -16.664488 4.3834629 11
-31.452559 -16.106247 4.3539467 11
-31.490332 -15.55975 4.327003 11
-31.533154 -15.022267 4.3020287 11
-31.575472 -14.490628 4.2782226 11
-31.245432 -18.940775 4.5066748 11
-31.297474 -18.363876 4.4747653 11
-31.332306 -17.78536 4.4418783 11
-31.36713 -17.215185 4.4104433 11
-31.496525 -15.561791 5.5783463 12
-31.532015 -15.020743 5.5450945 12
-31.561588 -14.483311 5.5124149 12
-31.22587 -18.927673 5.803586 12
-31.284227 -18.354904 5.7639441 12
-31.322723 -17.778757 5.7225266 12
-31.369648 -17.215441 5.6844912 12
-31.450926 -16.104355 5.6114407 12
-31.507618 -15.00813 6.7968884 13
-31.551891 -14.477905 6.7601652 13
-31.590956 -13.951049 6.7242165 13
-31.223274 -18.924843 7.1171951 13
-31.256908 -18.337654 7.0632119 13
-31.304245 -17.76709 7.0146623 13
-31.35788 -17.207844 6.9697456 13
-31.396631 -16.647919 6.9236879 13
-31.474581 -15.54992 6.8379855 13
-31.584513 -13.947269 7.9825282 14
-31.245667 -18.329828 8.3823376 14
-31.287899 -17.756615 8.3235407 14
-31.3393 -17.196491 8.2698326 14
-31.386066 -16.641195 8.2174549 14
-31.411863 -16.082214 8.1621141 14
-31.463272 -15.543292 8.1158743 14
-31.504299 -15.005544 8.0693016 14
-31.322989 -17.186371 9.5902662 15
-31.366903 -16.629902 9.5288095 15
-31.418732 -16.084635 9.4726305 15
-31.447926 -15.534656 9.412447 15
-31.54315 -14.471944 9.311244 15
-31.571728 -13.940677 9.2589445 15
-31.202759 -18.909842 9.7965412 15
-31.239731 -18.325092 9.7236471 15
-31.299215 -17.761827 9.660924 15
-30.852541 -24.650105 0.72236007 8
-30.902512 -23.972174 0.7141977 8
-30.95698 -23.311129 0.70647508 8
-30.9965 -22.651739 0.69873565 8
-31.044197 -22.010706 0.69149524 8
-31.092831 -21.381866 0.68457538 8
-31.142984 -20.76494 0.67797959 8
-31.117138 -50.472397 1.1337088 8
-31.120691 -20.748735 1.9845555 9
-30.841661 -24.639814 2.1015821 9
-30.887966 -23.959332 2.0798995 9
-30.927155 -23.287157 2.058656 9
-30.990971 -22.646233 2.039922 9
-31.026768 -21.996923 2.0201774 9
-31.079277 -21.371162 2.0023341 9
-31.109085 -50.45599 3.2050059 9
-30.820892 -24.621614 3.4837821 10
-30.87834 -23.950304 3.4498844 10
-30.911222 -23.273645 3.4147322 10
-30.977118 -22.634638 3.384649 10
-31.027357 -21.995911 3.354198 10
-31.077589 -21.368614 3.3250556 10
-31.125914 -20.750875 3.2969744 10
-31.163055 -20.136225 3.2689354 10
-30.919964 -23.278708 4.7815533 11
-30.960606 -22.621088 4.7360215 11
-31.005434 -21.978935 4.693049 11
-31.057388 -21.353331 4.652976 11
-31.104368 -20.735157 4.6139154 11
-31.150988 -20.127119 4.5764942 11
-30.808027 -24.609722 4.873857 11
-30.87039 -23.942574 4.8276896 11
-31.100527 -50.438755 5.2827854 10
-31.038643 -21.339037 5.9909086 12
-31.093126 -20.726297 5.9423647 12
-31.190973 -19.523485 5.8495431 12
-30.849138 -23.924505 6.2139874 12
-30.902956 -23.264364 6.1557951 12
-30.953438 -22.614363 6.0994534 12
-31.007221 -21.978754 6.0461812 12
-31.177956 -19.514044 7.1709294 13
-31.100357 -50.435112 7.3741961 11
-30.891085 -23.253874 7.5450969 13
-30.943985 -22.605947 7.4768887 13
-30.997738 -21.970568 7.4118376 13
-31.041958 -21.339899 7.3473606 13
-31.079979 -20.716156 7.2842059 13
-30.84815 -23.922144 7.6188374 13
-30.976948 -21.954346 8.7921429 14
-31.038061 -21.335781 8.7206211 14
-31.078627 -20.71386 8.6465712 14
-31.12151 -20.104061 8.5763378 14
-31.160124 -19.501566 8.5079918 14
-30.831778 -23.907825 9.0383053 14
-30.869816 -23.236292 8.9496307 14
-30.92647 -22.591621 8.8700266 14
-31.092798 -50.419453 9.481391 12
-31.148924 -19.493227 9.8674212 15
-30.447865 -29.79089 0.78884989 8
-30.504869 -29.002213 0.77806497 8
-30.564083 -28.235182 0.76779157 8
-30.636263 -27.498188 0.75827235 8
-30.674555 -26.74832 0.74832821 8
-30.7481 -26.045767 0.7396425 8
-30.781866 -25.325264 0.73038149 8
-30.446663 -29.787764 2.2773046 9
-30.51075 -29.005913 2.2493429 9
-30.558781 -28.228443 2.2214293 9
-30.608194 -27.471195 2.1948054 9
-30.66448 -26.737793 2.169801 9
-30.732985 -26.031269 2.146719 9
-30.760681 -25.306194 2.1218226 9
-30.666731 -26.73801 3.5970135 10
-30.721497 -26.019836 3.5580044 10
-30.77776 -25.318596 3.5208411 10
-30.428125 -29.76767 3.7689703 10
-30.487799 -28.982183 3.7230792 10
-30.539164 -28.208471 3.6781845 10
-30.61125 -27.472139 3.6376851 10
-30.534605 -28.2024 5.1445546 11
-30.601225 -27.461334 5.0875373 11
-30.649042 -26.720835 5.0299249 11
-30.688705 -25.990353 4.9734454 11
-30.764706 -25.306192 4.9251719 11
-30.421484 -29.759205 5.2700424 11
-30.47995 -28.972816 5.2062283 11
-30.74641 -25.289467 6.339344 12
-30.795948 -24.598444 6.2749243 12
-30.41674 -29.75259 6.7838354 12
-30.467131 -28.958694 6.700316 12
-30.525173 -28.191813 6.6220775 12
-30.588915 -27.448465 6.5484586 12
-30.633265 -26.705297 6.4739504 12
-30.687439 -25.987555 6.4046626 12
-30.636023 -26.70591 7.9373903 13
-30.686415 -25.984947 7.8517599 13
-30.739235 -25.28187 7.770412 13
-30.787876 -24.590355 7.6915045 13
-30.444658 -28.935389 8.2071981 13
-30.517397 -28.182737 8.115592 13
-30.566696 -27.426678 8.021883 13
-30.77297 -24.576777 9.1247101 14
-30.558708 -27.41765 9.5178041 14
-30.606369 -26.678238 9.4111366 14
-30.671928 -25.970921 9.3144712 14
-30.717674 -25.262426 9.2160864 14
-30.450111 -28.938599 9.7414541 14
-30.499321 -28.164124 9.6255436 14
-30.079952 -50.393394 1.1242008 8
-30.056063 -34.949837 0.86312532 8
-30.127771 -34.033524 0.84949267 8
-30.1975 -33.142231 0.83641386 8
-30.263618 -32.27277 0.82381517 8
-30.330872 -31.428806 0.81179756 8
-30.391842 -30.601357 0.80013967 8
-30.254169 -32.260574 2.3691094 9
-30.318424 -31.413845 2.3371208 9
-30.383287 -30.590736 2.3065991 9
-30.051767 -34.942547 2.4735868 9
-30.115179 -34.017059 2.4368029 9
-30.182758 -33.123875 2.4020214 9
-30.076666 -50.384556 3.174818 9
-30.180264 -33.118969 3.9734759 10
-30.243855 -32.247452 3.919013 10
-30.300123 -31.392817 3.8660564 10
-30.37475 -30.580128 3.817755 10
-30.021547 -34.905083 4.0859871 10
-30.101925 -33.999836 4.0285401 10
-30.055382 -50.345547 5.2294202 10
-30.159012 -33.093433 5.5508685 11
-30.227219 -32.227573 5.4762363 11
-30.297644 -31.388176 5.4053626 11
-30.360376 -30.563635 5.3363185 11
-30.01836 -34.899063 5.7101941 11
-30.098246 -33.993423 5.6304488 11
-30.144135 -33.074902 7.1411691 12
-30.21937 -32.217052 7.0472369 12
-30.290388 -31.378557 6.9565983 12
-30.338295 -30.539362 6.8648033 12
-30.052202 -50.336864 7.2981548 11
-30.02112 -34.899937 7.3495293 12
-30.081043 -33.971714 7.2425318 12
-30.398638 -29.732872 8.3103647 13
-30.140842 -33.069046 8.7509966 13
-30.208319 -32.203087 8.6340141 13
-30.27351 -31.35895 8.5216684 13
-30.331461 -30.530426 8.412343 13
-30.001757 -34.875057 9.0007792 13
-30.077484 -33.965405 8.8747759 13
-30.055737 -50.339401 9.3864193 12
-30.317934 -30.514719 9.9781694 14
-30.385456 -29.717951 9.8575964 14
-29.677702 -39.981258 0.94115549 8
-29.752825 -38.903969 0.9239946 8
-29.836821 -37.875519 0.90792131 8
-29.917606 -36.877541 0.8925125 8
-29.989883 -35.901783 0.87756532 8
-29.666006 -39.96286 2.6801026 9
-29.747389 -38.894287 2.6350222 9
-29.828558 -37.862522 2.5921142 9
-29.902533 -36.856529 2.5506535 9
-29.978199 -35.885429 2.5112879 9
-29.737347 -38.878578 4.3510542 10
-29.815546 -37.843513 4.2808957 10
-29.893629 -36.843117 4.2140994 10
-29.962584 -35.864353 4.1492071 10
-29.657038 -39.948128 4.4244924 10
-29.79797 -37.818668 5.9776683 11
-29.8832 -36.827805 5.8864775 11
-29.955843 -35.853901 5.797205 11
-29.638071 -39.919907 6.1764665 11
-29.720472 -38.853924 6.0750775 11
-29.854761 -36.790272 7.5675573 12
-29.935734 -35.827423 7.4553533 12
-29.613758 -39.884464 7.9398952 12
-29.72114 -38.852192 7.8166518 12
-29.78265 -37.796673 7.6876717 12
-29.929504 -35.817535 9.1340084 13
-29.685719 -38.803234 9.5660677 13
-29.77688 -37.786789 9.4180126 13
-29.861475 -36.796051 9.2751207 13
-29.626324 -39.898685 9.7322311 13
-29.060173 -50.310173 1.1149813 8
-29.058756 -50.304394 3.1452365 9
-29.059196 -50.301815 5.1831188 10
-29.049074 -50.28093 7.2309737 11
-29.03878 -50.259724 9.2950401 12
-28.07226 -50.249737 1.1066347 8
-28.067673 -50.238209 3.1176417 9
-28.052237 -50.207237 5.1334286 10
-28.050457 -50.20071 7.1628952 11
-28.047937 -50.192825 9.2093954 12
-27.106459 -50.198002 1.098829 8
-27.087582 -50.159718 3.0903549 9
-27.084831 -50.151302 5.0894899 10
-27.069063 -50.118755 7.0971084 11
-27.067963 -50.11335 9.124692 12
-26.141354 -50.11628 1.0906998 8
-26.12768 -50.08675 3.0644407 9
-26.126415 -50.081013 5.0458035 10
-26.116011 -50.057732 7.0367093 11
-26.115906 -50.054188 9.0468121 12
-25.418135 -5.9388461 0.45868951 8
-25.414185 -5.937542 1.3707019 9
-25.363897 -5.9254136 2.2816083 10
-25.362011 -5.9245887 3.2005918 11
-25.336664 -5.9182811 4.1235371 12
-25.314831 -5.9127913 5.0556269 13
-25.303532 -5.9097557 6.0013795 14
-25.253561 -5.8976846 6.951046 15
-25.194185 -50.037098 1.0829629 8
-25.187891 -50.021301 3.039989 9
-25.179907 -50.002144 5.002933 10
-25.181545 -50.002079 6.9793901 11
-25.169357 -49.974529 8.9682522 12
-24.178513 -7.1336031 0.44443649 8
-24.199566 -6.764091 0.44260123 8
-24.233496 -6.2149825 0.44013369 8
-24.158649 -7.1272855 1.3242989 9
-24.216808 -6.5818119 1.3188865 9
-24.253839 -6.0345531 1.3129585 9
-24.171923 -7.1307435 2.208971 10
-24.190355 -6.7606483 2.2011876 10
-24.230932 -6.2135649 2.1917386 10
-24.169022 -7.1294265 3.0979645 11
-24.182299 -6.7579589 3.0865507 11
-24.227446 -6.2122312 3.0741057 11
-24.158714 -7.1259208 3.9931805 12
-24.184439 -6.7581177 3.9806335 12
-24.218954 -6.2096891 3.9630051 12
-24.150148 -7.1229258 4.8979564 13
-24.165625 -6.7524142 4.8805881 13
-24.215557 -6.2083864 4.8622007 13
-24.136946 -7.1185551 5.8133578 14
-24.163406 -6.7513423 5.7954535 14
-24.194962 -6.2026567 5.7693396 14
-24.129887 -7.1159897 6.74439 15
-24.155661 -6.7487206 6.7234931 15
-24.195807 -6.2024789 6.6956673 15
-20.039125 7.5152369 0.37793574 8
-20.060421 7.5227032 1.1273628 9
-20.060843 7.522346 1.879172 10
-20.078489 7.5284395 2.6378784 11
-20.05946 7.5207853 3.3982272 12
-20.085308 7.5299425 4.1749272 13
-20.088696 7.5306735 4.9586382 14
-20.086624 7.5293508 5.7537761 15
-19.335152 7.5696812 0.36706063 8
-19.338913 7.5706334 1.0932139 9
-19.336275 7.5690799 1.8217067 10
-19.362833 7.5789447 2.5583172 11
-19.371653 7.5818677 3.3002486 12
-19.366415 7.5792832 4.0481572 13
-19.364748 7.5780864 4.8067741 14
-19.377647 7.5825791 5.5817857 15
-18.662264 7.617115 0.35672009 8
-18.692299 7.6288419 1.0631492 9
-18.681318 7.623837 1.7705506 10
-18.688812 7.6263623 2.483906 11
-18.698879 7.6299348 3.204411 12
-18.691635 7.6264381 3.9300508 13
-18.701685 7.6299882 4.6693721 14
-18.721361 7.637454 5.4242582 15
-18.046669 7.6700277 0.34742007 8
-18.055613 7.6732965 1.0335071 9
-18.053507 7.6718707 1.7217335 10
-18.05522 7.6720629 2.4145248 11
-18.060575 7.6737967 3.1140358 12
-18.062105 7.6739006 3.8209236 13
-18.074505 7.6786118 4.5403161 14
-18.087482 7.6835585 5.2725143 15
-17.443726 7.7114124 0.33831042 8
-17.453005 7.7149749 1.0056642 9
-17.450487 7.7133269 1.6750395 10
-17.459564 7.7167964 2.3498805 11
-17.453852 7.7137289 3.028661 12
-17.457548 7.7148104 3.7165501 13
-17.460857 7.7157135 4.4140244 14
-17.4755 7.721611 5.12641 15
-13.667172 1.9752567 -0.24068473 7
-13.682359 2.9923606 -0.24352387 7
-13.669505 4.0360279 -0.24695922 7
-13.603489 5.10325 -0.25060594 7
-13.286766 -0.95495975 -0.23233855 7
-13.454753 3.51811e-05 -0.23487107 7
-13.596993 0.9774214 -0.23791187 7
-13.379656 -49.158909 1.0088248 8
-13.374889 -49.138489 2.7883327 9
-13.372196 -49.125698 4.5739088 10
-13.372315 -49.123234 6.3711572 11
-13.367097 -49.101109 8.1807518 12
-13.364176 -49.087399 10.010909 13
-13.071151 -1.8884729 -0.22990468 7
-12.520686 -3.6942475 -0.22567183 7
-12.795135 -2.7968769 -0.22732024 7
-12.610403 -49.099926 1.0054003 8
-12.609525 -49.093681 2.7768528 9
-12.605341 -49.074554 4.5534682 10
-12.666597 -26.056337 5.685883 13
-12.600431 -49.05257 6.3395371 11
-12.675146 -26.072166 6.7476177 14
-12.599957 -49.047855 8.1425886 12
-12.60017 -49.045807 9.9662237 13
-12.169282 -4.5611634 -0.22354893 7
-12.205872 -26.060335 0.55731094 8
-12.20982 -26.067072 1.5632806 9
-12.197352 -26.03871 2.5701559 10
-12.19698 -26.0362 3.5847352 11
-12.190496 -26.020611 4.6057091 12
-12.186598 -26.010525 5.6381974 13
-12.195002 -26.026709 6.6909485 14
-12.18542 -26.004427 7.7507806 15
-11.795222 -5.4135771 -0.22192715 7
-11.738719 -26.027475 0.5539239 8
-11.849162 -49.043777 1.0022428 8
-11.738402 -26.025076 1.5514848 9
-11.846215 -49.028824 2.7648733 9
-11.734375 -26.014433 2.5518732 10
-11.73078 -26.004744 3.5578711 11
-11.846175 -49.025921 4.5343218 10
-11.728509 -25.997976 4.5724702 12
-11.729043 -25.997414 5.5993419 13
-11.845221 -49.019207 6.3142328 11
-11.723856 -25.984135 6.6371326 14
-11.720817 -25.97559 7.6923504 15
-11.839041 -48.990807 8.1057234 12
-11.835247 -48.972275 9.9174194 13
-11.372316 -6.2415404 -0.22032723 7
-11.272536 -25.980829 0.5503934 8
-11.276959 -25.989353 1.5405222 9
-11.273331 -25.979284 2.5332804 10
-11.268817 -25.967169 3.5312405 11
-11.266128 -25.959244 4.5377693 12
-11.263081 -25.95048 5.5548797 13
-11.270036 -25.964766 6.5912499 14
-11.261947 -25.944311 7.6355166 15
-10.914465 -7.0514464 -0.2190195 7
-10.819757 -25.949341 0.54733151 8
-11.097939 -49.001606 0.99957532 8
-10.823769 -25.957302 1.5302193 9
-11.090859 -48.967644 2.7537277 9
-10.818145 -25.942112 2.5152307 10
-10.813931 -25.930298 3.5057485 11
-11.086268 -48.944698 4.513207 10
-10.809918 -25.918961 4.504149 12
-10.810142 -25.917767 5.5151229 13
-11.087677 -48.948261 6.2855482 11
-10.80986 -25.915342 6.53969 14
-10.807116 -25.906977 7.5791674 15
-11.085683 -48.936768 8.07125 12
-11.080583 -48.911491 9.8735352 13
-10.401708 -7.8296814 -0.21761258 7
-10.59154 30.284611 0.62882072 8
-10.593977 30.288296 1.7506816 9
-10.592435 30.280613 2.87604 10
-10.593853 30.281357 4.0090342 11
-10.596564 30.285763 5.1526599 12
-10.596442 30.282042 6.3078432 13
-10.600487 30.290169 7.481668 14
-10.598087 30.27985 8.6701145 15
-10.375592 -25.923698 0.54453045 8
-10.113893 30.308361 0.62747425 8
-10.343568 -48.915771 0.99621582 8
-10.373801 -25.917553 1.5198888 9
-10.118862 30.319889 1.7451632 9
-10.343569 -48.913242 2.7435744 9
-10.364428 -25.892426 2.4966915 10
-10.121321 30.323891 2.8672814 10
-10.366215 -25.895214 3.4815054 11
-10.119979 30.316519 3.9952676 11
-10.342014 -48.903343 4.4967985 10
-10.364511 -25.889257 4.4736671 12
-10.120849 30.315727 5.1337333 12
-10.363641 -25.885366 5.4770212 13
-10.338665 -48.884922 6.2592878 11
-10.12243 30.317026 6.2854376 13
-10.356036 -25.864603 6.4897375 14
-10.360579 -25.874203 7.5263543 15
-10.123172 30.315762 7.452558 14
-10.337175 -48.875282 8.0374079 12
-10.128092 30.326931 8.6423111 15
-10.336611 -48.870003 9.835824 13
-9.8603687 -8.5939159 -0.21665801 7
-9.9314318 -25.882925 0.54155016 8
-9.6443682 30.345423 0.62654096 8
-9.6044588 -48.872017 0.99391252 8
-9.9302044 -25.878073 1.5099971 9
-9.6474714 30.351774 1.7400705 9
-9.6063595 -48.879303 2.7351682 9
-9.925972 -25.865368 2.4810402 10
-9.6492052 30.353807 2.8579352 10
-9.9270849 -25.8666 3.4591117 11
-9.6521206 30.359526 3.9834781 11
-9.601161 -48.85038 4.4803238 10
-9.9271164 -25.865 4.4453802 12
-9.6503716 30.350586 5.1168618 12
-9.9230852 -25.852776 5.4404325 13
-9.60044 -48.84428 6.2373471 11
-9.6495714 30.344578 6.2630005 13
-9.9242764 -25.854164 6.4517374 14
-9.9200439 -25.841368 7.4756627 15
-9.6553192 30.359064 7.4295831 14
-9.6552153 30.355139 8.6111889 15
-9.2837982 -9.3416481 -0.2160638 7
-9.5010738 -25.86338 0.53914803 8
-9.4929419 -25.839561 1.5005696 9
-9.489152 -25.827587 2.4650357 10
-9.4940882 -25.839396 3.4378507 11
-9.4876127 -25.82007 4.4147654 12
-9.4884024 -25.82053 5.4054189 13
-9.5975761 -48.827236 8.0075998 12
-9.5960159 -48.816803 9.7979822 13
-9.0642166 -25.810833 0.53618509 8
-9.1793137 30.386642 0.62582815 8
-8.8680897 -48.813541 0.9914968 8
-9.06106 -25.800207 1.4914899 9
-9.1753101 30.369963 1.734597 9
-8.8666172 -48.803165 2.7249823 9
-9.0587997 -25.792133 2.4499152 10
-9.1842966 30.396152 2.8504224 10
-9.0608902 -25.796459 3.4154227 11
-9.1842947 30.392647 3.9713202 11
-9.066555 -25.810974 4.3914695 12
-8.8665457 -48.800507 4.4651122 10
-9.180316 30.375996 5.0996046 12
-9.0588446 -25.787304 5.3716664 13
-8.8621702 -48.774097 6.2130151 11
-9.0609589 -25.791645 6.3705907 14
-9.1826801 30.38023 6.2437124 13
-9.0572433 -25.779327 7.3814893 15
-9.1870947 30.391182 7.4056139 14
-8.8617792 -48.76965 7.9780102 12
-9.1900425 30.39723 8.5860386 15
-8.8612947 -48.764652 9.7625456 13
-8.6598692 -10.061406 -0.21558952 7
-8.4447193 -29.33173 0.6024999 8
-8.5326519 -28.112597 0.57888621 8
-8.6217833 -27.005077 0.55757159 8
-8.7752047 30.630125 0.6293906 8
-8.6219368 -27.003899 1.5481094 9
-8.4387207 -29.309101 1.6678693 9
-8.532033 -28.108845 1.605325 9
-8.7610998 30.577469 1.7402859 9
-8.4359426 -29.297668 2.7367322 10
-8.5311356 -28.104168 2.6353447 10
-8.6166124 -26.985521 2.5407424 10
-8.7536869 30.548096 2.85379 10
-8.6096983 -26.962145 3.5376246 11
-8.4329472 -29.285479 3.8114018 11
-8.5208111 -28.068361 3.6674449 11
-8.7393608 30.494646 3.9690404 11
-8.5126133 -28.03956 4.7071681 12
-8.6020336 -26.936401 4.5411472 12
-8.4259472 -29.259333 4.8922925 12
-8.7256241 30.443241 5.0905342 12
-8.5947742 -26.911911 5.5543714 13
-8.4147282 -29.218493 5.9804826 13
-8.5094433 -28.027348 5.7599406 13
-8.6721516 -25.864832 6.3582692 14
-8.7193956 30.417919 6.2262869 13
-8.5906906 -26.897371 6.5822563 14
-8.4083891 -29.194603 7.0848727 14
-8.5044355 -28.009033 6.8249097 14
-8.673027 -25.865742 7.3708549 15
-8.7225008 30.425032 7.3837881 14
-8.4980736 -27.986237 7.9047713 15
-8.5879965 -26.887159 7.6271925 15
-8.4033318 -29.175159 8.2069216 15
-8.724474 30.428143 8.5597181 15
-8.0646334 17.955278 -0.30531293 7
-8.1379585 -48.75956 0.98936778 8
-8.138195 -48.7589 2.7171652 9
-8.1377954 -48.754452 4.4512262 10
-8.132659 -48.721493 6.1922984 11
-8.1315012 -48.712437 7.950253 12
-8.1331015 -48.719913 9.7307577 13
-7.9920511 -10.755217 -0.21534006 7
-7.2796912 -11.42128 -0.21533138 7
-7.4141068 -48.713848 0.98759389 8
-7.4119925 -48.698071 2.7089949 9
-7.410491 -48.686321 4.4362812 10
-7.4122686 -48.696178 6.1763878 11
-7.4072342 -48.661118 7.9251952 12
-7.4050932 -48.645115 9.6950998 13
-6.9972153 19.146019 -0.31221831 7
-6.5292583 -12.070723 -0.2158182 7
-6.6923594 -48.650978 0.98565543 8
-6.6912212 -48.641102 2.7016041 9
-6.6905851 -48.634888 4.4238052 10
-6.6873245 -48.609524 6.1540222 11
-6.6843691 -48.586369 7.8980379 12
-6.6863761 -48.599384 9.667346 13
-5.7348943 -12.697407 -0.21672486 7
-5.6134462 0.40378094 -0.29491726 6
-5.8214502 20.349245 -0.32011285 7
-5.977982 -48.610428 0.98435181 8
-5.9902577 39.637287 0.80460507 8
-5.9877691 39.614841 2.204699 9
-5.9751139 -48.585793 2.6948612 9
-5.9887447 39.615208 3.6106782 10
-5.9754829 -48.587574 4.4126325 10
-5.9929247 39.636642 5.0282354 11
-5.9729543 -48.565708 6.1383958 11
-5.9929576 39.630688 6.4553337 12
-5.9697728 -48.538486 7.8769417 12
-5.9707961 -48.545589 9.6400576 13
-5.3074346 -1.5659738 -0.2891202 6
-5.393888 -1.1792077 -0.28884679 6
-5.4906659 -0.79348284 -0.29050514 6
-5.5546188 -0.39938357 -0.29179364 6
-5.5949254 1.4338896e-05 -0.29322463 6
-5.5895381 0.80845219 -0.29580274 6
-5.5578437 1.2166054 -0.29772675 6
-5.4802165 1.6197642 -0.2986666 6
-5.3947554 2.0262156 -0.30069438 6
-5.2644053 -48.543304 0.98268807 8
-5.4133682 39.66486 0.80492485 8
-5.4153447 39.67292 2.204787 9
-5.2652097 -48.54998 2.6897488 9
-5.4171128 39.67944 3.6104753 10
-5.2629437 -48.52821 4.4012837 10
-5.4156332 39.662228 5.0225039 11
-5.2609086 -48.508579 6.122376 11
-5.4199381 39.687134 6.45259 12
-5.2594419 -48.494205 7.8580933 12
-5.2595997 -48.494862 9.6154289 13
-4.8868899 -13.279556 -0.2177528 7
-4.8297157 -2.649519 -0.28619227 6
-5.0143294 -2.3007324 -0.28724167 6
-5.1707988 -1.9378002 -0.28804889 6
-4.8424182 39.728882 0.80613357 8
-4.8413863 39.713737 2.20436 9
-4.8417258 39.709732 3.607924 10
-4.8415575 39.701557 5.0195489 11
-4.843739 39.712494 6.4461279 12
-4.4013186 -3.3101914 -0.28467545 6
-4.6444421 -2.9987023 -0.28652057 6
-4.5108843 21.491159 -0.3279998 7
-4.1777921 -3.6372633 -0.28553087 6
-3.9929278 -13.833535 -0.21925525 7
-3.6311724 -4.2116737 -0.28492832 6
-3.9230559 -3.9421411 -0.28583288 6
-3.6644204 1.687458 -0.13922685 6.5
-3.6695778 1.6895317 0.21389872 9
-3.6649685 1.6870596 0.64226508 12
-3.6731486 1.6905082 1.0117432 14.5
-3.3338938 -4.4770827 -0.28511763 6
-3.2826304 -1.2300256 -0.30571437 5
-3.3572433 -0.99056828 -0.30557951 5
-3.4511545 -0.62553459 -0.30675483 5
-3.5202684 -0.25320998 -0.3087157 5
-3.5281649 0.12680636 -0.30907556 5
-3.4910831 0.63437498 -0.31047949 5
-3.4298646 1.0148053 -0.31247267 5
-3.3201108 1.3871924 -0.31404954 5
-3.3715913 1.7082539 -0.13055325 6.5
-3.3894007 1.7090062 0.20090257 9
-3.385478 1.7071017 0.60370874 12
-3.3728931 1.7127477 0.96094543 14.6
-3.0521061 -14.363297 -0.22136509 7
-3.0257287 -4.7347336 -0.28609625 6
-3.004673 -1.7902542 -0.30421081 5
-3.1828442 -1.459968 -0.30501506 5
-3.0071812 1.7360649 -0.15669036 6.1999998
-3.0739837 22.604937 -0.33663008 7
-2.9840081 1.737963 0.18399467 9
-2.9773185 1.7407086 0.58483255 12.285714
-3.0308776 1.7355987 0.89615923 14.666667
-2.6943812 -4.9648314 -0.28671247 6
-2.4835699 -2.492244 -0.30407745 5
-2.7189152 -2.1993589 -0.30320564 5
-2.4009097 -0.89951497 -0.31388107 4
-2.4702806 -0.63360828 -0.31279945 4
-2.5427642 -0.27484918 -0.31407619 4
-2.562572 0.23107222 -0.31650317 4
-2.5026951 0.6441623 -0.31737274 4
-2.4335344 0.91620553 -0.31885347 4
-2.6143606 1.7611746 -0.1416551 6.1999998
-2.6199877 5.8656025 -0.32304856 6
-2.5868866 1.7654995 0.22252822 9.5
-2.6126003 1.7647959 0.5879752 12.75
-2.6010048 1.7670494 0.84736806 15
-2.3481183 -5.1772552 -0.28764915 6
-2.1141889 -2.8332009 -0.304432 5
-2.2998402 -2.6629753 -0.30355558 5
-2.1483166 -1.3855362 -0.31248078 4
-2.3239157 -1.0656666 -0.31268269 4
-2.0020103 -0.28955209 -0.32010454 3
-2.0120668 0.29169175 -0.32211259 3
-2.3660772 1.091579 -0.31925094 4
-2.1971598 1.4300271 -0.32099703 4
-2.1307359 1.7999761 -0.14344066 6
-2.2239323 6.1270046 -0.32636714 6
-2.1629214 1.8000027 0.20051962 9.5
-2.1486263 1.8022922 0.60204738 13.5
-2.3854034 -25.264538 5.9278131 14
-2.3876445 -25.288416 6.8762841 15
-1.7922816 -5.4347043 -0.28846785 6
-1.7966503 -3.0377412 -0.3033292 5
-1.8129466 -1.8176043 -0.3126435 4
-1.6219702 -1.2167906 -0.31889993 3
-1.7632526 -0.9657619 -0.31736961 3
-1.9322026 -0.49564338 -0.31554636 3
-1.6189857 -0.35413861 -0.32156521 2
-1.6152726 0.35488617 -0.32167435 2
-1.9338368 0.61160916 -0.32176435 3
-1.7908325 0.99045348 -0.32407638 3
-1.6330211 1.2412493 -0.32359505 3
-1.8330287 1.8489169 -0.17918608 5.5
-1.7682135 2.1765375 -0.18571188 5.5555553
-1.8076574 2.5633357 -0.13608859 6.1999998
-1.8334886 2.9616849 -0.15129024 6.1999998
-1.8476042 3.3758678 -0.17099628 6.1666665
-1.8825387 3.717006 -0.13668457 6.5
-1.7971071 6.3379545 -0.32843611 6
-1.8152884 1.8709596 0.18677242 9.5
-1.779593 2.2068217 0.20383835 9.5
-1.8036357 2.5824697 0.22648875 9.5
-1.8349526 3.0269833 0.19331168 9
-1.8587245 3.3833015 0.21064837 9
-1.8804845 3.7121947 0.22714123 9
-1.8141172 1.8720233 0.56990403 13.6
-1.7757001 2.2075722 0.59864241 13.4
-1.8036722 2.5974991 0.59266257 12.75
-1.8288875 3.0006545 0.60013783 12.285714
-1.8552232 3.376044 0.61933255 12
-1.8780359 3.7065246 0.59378272 11.5
-1.8040328 2.6325281 0.86308473 15
-1.8308413 3.0347795 0.91437006 14.666667
-1.8518041 3.3642137 0.9813683 14.6
-1.8763657 3.7023544 0.93113685 13.75
-1.2184798 -5.6738501 -0.29114729 6
-1.363973 -3.3027344 -0.30609924 5
-1.392072 -2.1666262 -0.31248337 4
-1.4233088 -1.4245466 -0.31658462 3
-1.3039738 -1.0135866 -0.31919298 2
-1.3259305 -0.66552138 -0.32098114 1.3333334
-1.3699054 -0.29969767 -0.32306802 1
-1.3631418 0.29977819 -0.32256615 1
-1.3375735 0.6569221 -0.32423884 1.3333334
-1.364558 0.96375 -0.32512122 2
-1.4440686 1.4719501 -0.32494992 3
-1.2337917 1.6883528 -0.32786077 3
-1.3541645 2.3422976 -0.32700592 4
-1.5556917 3.5023632 -0.32654825 5
-1.3122014 3.64028 -0.32876322 5
-1.3509585 6.5162835 -0.33036733 6
-1.5033734 23.667995 -0.34588584 7
-1.008895 -3.4443436 -0.30657813 5
-0.91104072 -2.4356492 -0.31402409 4
-1.0784018 -2.3579185 -0.3133944 4
-0.9965139 -1.7699351 -0.31859592 3
-1.0218616 -1.3119655 -0.32040787 2
-1.0231353 -0.98845237 -0.32269543 1
-1.0641536 -0.68496907 -0.32410458 0.25
-1.1831443 -0.25887749 -0.32372805 0
-1.1863614 0.26114067 -0.32596403 0
-1.0667373 0.69861537 -0.32904121 0.25
-0.95701069 0.98115313 -0.32804483 0.75
-1.0298492 1.3460721 -0.32886922 2
-0.98134148 1.8573447 -0.32862902 3
-1.0183432 2.5517082 -0.33051363 4
-1.0555609 3.7561641 -0.33051971 5
-0.89085031 6.679605 -0.33315066 6
-0.76689321 -3.5338068 -0.30848384 5
-0.65073705 -2.5343883 -0.31581059 4
-0.57238221 -1.8379971 -0.32103452 2.6666667
-0.64772898 -1.4073249 -0.32365713 1.5
-0.68196249 -1.0709041 -0.32458577 0.25
-0.58954376 1.0834087 -0.3295708 0
-0.64352143 1.3922052 -0.33006454 1.3333334
-0.58075148 1.7668424 -0.33051586 2.3333333
-0.49299994 2.0767953 -0.33099142 3
-0.64487725 2.6885929 -0.33097434 4
-0.65034974 3.8868804 -0.33259994 5
-0.41429421 6.8087344 -0.33589137 6
-0.51093704 14.972267 0.30626377 8
-0.42042363 12.442239 0.68994331 9
-0.12845261 6.8461084 -0.42751959 6
-0.21541008 18.741617 -0.49897957 7
-0.3670975 -1.6391953 -0.32228395 2
-0.36288604 -1.3755827 -0.32460046 1
-0.31595033 -1.1884811 -0.32569709 0
-0.18332209 1.3795094 -0.33728507 0.66666669
-0.13028619 1.7390199 -0.34362674 2
-0.13300979 2.1471837 -0.34526429 3
-0.22643672 2.7771184 -0.35484767 4
-0.15653092 2.8184986 -0.33563572 4
-0.1691689 3.9750295 -0.36336133 5
-0.18821973 14.965574 0.30671236 8
-0.15224782 12.442167 0.69020575 9
-0.13588701 8.0387449 1.1971035 12
-0.13603269 10.635153 0.91931099 10
-0.043117251 4.7773166 1.233655 15
-0.037646282 5.5516067 1.2282691 14
-0.02596892 6.593565 1.2607665 13
-0.089921489 8.0693245 1.3034905 12
0.37209445 6.9382906 -0.43320704 6
0.35930923 -5.9819074 -0.29835135 6
0.23668975 -3.6791732 -0.31353813 5
0.26637402 -2.6428473 -0.32030654 4
0.20337486 -2.0751638 -0.32596356 3
0.19011112 -1.6868166 -0.32713401 2
0.16318259 -1.3312149 -0.33084908 0.5
0.32724836 -1.1918443 -0.33007705 0
0.18803699 1.3221633 -0.35982877 0.5
0.22662914 1.7131124 -0.36474377 2
0.29798672 2.1236181 -0.37080523 3
0.20776436 2.7961817 -0.3797462 4
0.18155737 3.9845533 -0.39341694 5
0.13543187 14.960365 0.123577 8
0.14460686 12.436833 0.53690845 9
0.23992455 8.0285397 1.1970989 12
0.2270817 10.623565 0.83110958 10
0.26745662 4.7751203 1.2371376 15
0.26173314 5.5333557 1.2270871 14
0.2297924 6.5668435 1.2156528 13
0.44510201 -5.9805665 -0.29849339 6
0.6604324 -3.6589751 -0.31633851 5
0.65434533 -2.5989141 -0.32347783 4
0.50234622 -2.025305 -0.32675084 3
0.58977479 -1.801451 -0.32806531 2.5
0.61636823 -1.4393497 -0.33055925 1.5
0.55112106 -1.1029992 -0.33319747 0
0.51610124 1.1120564 -0.35973823 0
0.58696628 1.3083745 -0.36156392 1
0.50620079 1.6475897 -0.36499003 2
0.60835153 2.0649004 -0.37237662 3
0.6131233 2.7397556 -0.38014114 4
0.61831826 3.9666452 -0.39571831 5
0.56687671 14.976822 0.12446875 8
0.63743794 12.439391 0.53857255 9
0.77963489 -5.3258772 0.86641371 12
0.70739061 -4.2334437 1.0803663 14.5
0.64179283 7.9812541 1.1946459 12
0.44101319 8.0026817 1.1950529 12
0.57252139 10.635642 0.83388352 10
0.67750406 4.7195873 1.2359105 15
0.65782005 5.4844956 1.2256124 14
0.67618781 6.515667 1.2136325 13
0.88063216 6.9580812 -0.43636796 6
1.1382641 18.815351 -0.49992803 7
1.0059141 -15.976774 -0.23383665 7
0.8813436 -6.0017042 -0.30158693 6
1.0547612 -3.5935028 -0.31857765 5
1.0238535 -2.4951785 -0.3262144 4
0.99583256 -1.8547406 -0.33174694 3
0.96076375 -1.4153239 -0.3340199 2
0.96654856 -0.99587405 -0.33762231 0.75
1.0755807 -0.58196789 -0.34020907 0
1.19464 -0.31425887 -0.34634238 0
1.1930097 0.30331376 -0.35385454 0
1.0935224 0.5449003 -0.3555429 0
0.98579055 0.97752428 -0.35965592 0.80000001
1.0341423 1.3825567 -0.36588159 2
0.97929794 1.9220041 -0.37294051 3
1.0122805 2.635385 -0.38145739 4
1.0614325 3.9296927 -0.39997289 5
1.1848863 -9.9001436 0.20195587 8
0.99903589 14.977186 0.12543695 8
1.0114498 -8.1611996 0.54960454 9.333333
1.0240303 -6.9367638 0.63246059 10
0.88578647 -6.0255709 0.76386893 11
1.1009624 -5.9915814 0.76437068 11
0.99786299 12.44827 0.54075783 9
1.0082586 -5.2921839 0.86765075 12
1.000681 -4.7158847 0.95009053 13
0.97758085 -4.2448316 1.0175793 14
1.0677751 7.9070387 1.192062 12
0.99641043 10.639693 0.8376711 10
1.046012 4.6325603 1.2333498 15
1.0877249 5.3998547 1.2245985 14
1.0472556 6.4452224 1.2114544 13
1.3941048 6.9400673 -0.43917263 6
1.2422951 -16.057098 -0.23494998 7
1.3229308 -5.9904723 -0.30479205 6
1.4473202 -3.4925699 -0.32218903 5
1.3810403 -2.3453264 -0.33021235 4
1.3173399 -1.6571281 -0.33505791 3
1.3477906 -1.3692644 -0.33712667 2.5
1.3841734 -1.0291581 -0.34125626 2
1.3935863 -0.57415789 -0.34393913 1.25
1.3613099 -0.16516966 -0.3486861 0.66666669
1.3605808 0.15448405 -0.35228163 0.66666669
1.4091173 0.59340578 -0.35660851 1.3333334
1.3823886 1.04245 -0.36380953 2
1.4991003 1.5557059 -0.3703025 3
1.3181529 1.7127006 -0.37185025 3
1.3893167 2.4634202 -0.3807919 4
1.3461909 3.8473501 -0.3996681 5
1.3274353 -9.888999 0.20224482 8
1.4336495 14.983835 0.12668346 8
1.4121314 -8.1187496 0.45487994 9
1.3703963 -6.8781528 0.63298774 10
1.383015 -5.9533434 0.76735604 11
1.3587348 12.441104 0.54278791 9
1.3879737 -5.221384 0.87065208 12
1.5409076 -5.1930737 0.87300467 12
1.4297683 -4.6262298 0.95492065 13
1.3929503 -4.162148 1.0260108 14
1.4352672 7.839149 1.1920792 12
1.4206766 10.619088 0.84107298 10
1.3853067 4.5291586 1.2330415 15
1.4703071 5.2913966 1.2233119 14
1.4811765 6.3369374 1.2096684 13
1.9034779 3.6356204 -0.4000847 5
1.9056944 6.8699303 -0.44076505 6
1.8699028 -12.512314 -0.18417877 7
1.763918 -5.9345665 -0.30752531 6
1.8269958 -3.3437271 -0.32512859 5
1.7199142 -2.146184 -0.33504915 4
1.9527707 -1.9612947 -0.33820763 4
1.6485341 -1.3426086 -0.33931538 3
1.9006222 -1.0002917 -0.34624693 3
1.6664956 -0.49350244 -0.34874177 2
1.7073061 -0.21136755 -0.34892455 2
1.7238526 0.20815 -0.35644218 2
1.6593508 0.48905724 -0.35738677 2
1.9041524 1.0148113 -0.36594814 3
1.6656263 1.3827577 -0.36981913 3
1.8264254 2.1816061 -0.38097596 4
1.6201439 3.7340591 -0.39810967 5
1.7508193 -9.8225651 0.20264372 8
1.8724879 15.00045 0.12824376 8
1.8210263 -8.0550947 0.45621663 9
1.6667577 -6.822608 0.63410115 10
1.867414 -6.7936492 0.63628745 10
1.7930514 -5.8737898 0.77141142 11
1.721653 12.433841 0.5453679 9
1.7885057 -5.1373267 0.87714267 12
1.8124632 -4.5253558 0.96193403 13
1.7382854 -4.0509849 1.0309684 14
1.9349988 -3.9864988 1.0364696 14
1.8510832 7.7275414 1.1905257 12
1.7728931 10.619711 0.84629124 10
1.7890551 4.369451 1.2318237 15
1.8817141 5.1460447 1.223276 14
1.6771355 5.2213688 1.2226849 14
1.8950667 6.2188463 1.2106298 13
2.1724641 3.5020742 -0.40036708 5
2.2093837 -5.8605738 -0.31118074 6
2.085587 -3.2412379 -0.32941374 5
2.3160565 -3.0885978 -0.33064142 5
2.1587253 -1.7444234 -0.34087309 4
2.3443835 -1.5076815 -0.34377584 4
2.0764337 -0.56699777 -0.35087997 3
2.1503417 -0.22108245 -0.35507631 3
2.1455321 0.22140333 -0.35832453 3
2.0859625 0.57385761 -0.36294302 3
2.3857257 1.5631299 -0.3759993 4
2.1985269 1.8148642 -0.37819356 4
2.2139342 -9.7651482 0.20372069 8
2.2026935 15.003044 0.12946731 8
2.0861421 -8.0175953 0.45783493 9
2.3185489 -7.9669399 0.45868433 9
2.1678023 -6.7387166 0.639552 10
2.1511605 -5.7852297 0.77563125 11
2.2281101 12.440221 0.55059755 9
2.2097847 -5.0146933 0.88401771 12
2.1165047 -4.4332089 0.96947592 13
2.2913468 -4.3875365 0.97694033 13
2.2513778 -3.876312 1.0493256 14
2.2301962 -3.4363158 1.1115055 15
2.3928154 7.5419402 1.1880479 12
2.1798949 7.6270013 1.1899328 12
2.1626925 10.58943 0.85090327 10
2.1871696 4.1721878 1.2330962 15
2.1728706 5.0204196 1.2232391 14
2.2570438 6.0708857 1.2083466 13
2.4189637 6.7739296 -0.4428151 6
2.5139008 18.880165 -0.50234008 7
2.7707129 -12.392009 -0.18417093 7
2.6445436 -5.7339926 -0.31397739 6
2.557312 -2.9440162 -0.33476716 5
2.7775345 -2.7683923 -0.33756971 5
2.4568729 -1.3398713 -0.3463558 4
2.5945721 -1.0687876 -0.34950224 4
2.7411237 -0.68707383 -0.35481355 4
2.693388 0.95760095 -0.37235427 4
2.4975808 1.3860095 -0.37501946 4
2.6719799 3.1653359 -0.39917916 5
2.4219422 3.3348501 -0.39888498 5
2.6439331 -9.7061911 0.20492463 8
2.5367248 15.012981 0.13090019 8
2.5866048 -7.9254975 0.46101114 9
2.5681214 -6.6491523 0.64416975 10
2.5922585 -5.6690655 0.78354061 11
2.6456845 12.434976 0.55517101 9
2.5869963 -4.9019394 0.89429933 12
2.5914791 -4.2655349 0.98552567 13
2.6002026 -3.7211032 1.0627246 14
2.5571184 -3.2733526 1.1274754 15
2.7642701 -3.1709518 1.1414952 15
2.664269 7.4534392 1.1899843 12
2.5981412 10.566134 0.85823309 10
2.5918961 3.9183996 1.2330322 15
2.7112446 4.7277436 1.2229915 14
2.4694233 4.8617396 1.2217165 14
2.5702877 5.9308081 1.2080705 13
2.9224334 6.6262345 -0.44369069 6
3.0806715 -5.5885968 -0.31772342 6
2.9832926 -2.5739121 -0.34021717 5
3.1867344 -2.3720744 -0.34416911 5
2.8228016 -0.28430039 -0.35929042 4
2.8294373 0.29505771 -0.3648304 4
2.8000619 0.60726237 -0.36963269 4
3.100143 2.7405269 -0.39508998 5
2.8977649 2.964613 -0.39770299 5
3.0020893 -9.6443319 0.20590591 8
2.9859414 15.023355 0.13298365 8
3.0025146 -7.8426361 0.46449468 9
2.941982 -6.5678096 0.65046287 10
2.8831713 -5.6002584 0.79164279 11
3.0326514 -5.5438147 0.79423952 11
3.0167434 12.410129 0.5589816 9
3.0718102 -47.903 0.97947109 8
2.8363554 -4.8169475 0.90180236 12
2.9906504 -4.7602258 0.90704924 12
2.9672287 -4.1125059 1.0014242 13
2.8450224 -3.6108956 1.0759776 14
2.9953773 -3.5322542 1.0841323 14
2.9950662 -3.0300877 1.156589 15
3.059145 7.2640238 1.1873467 12
3.0381372 10.535097 0.86650461 10
3.099406 3.5169437 1.2352587 15
2.8814809 3.7077639 1.2351581 15
3.0070708 4.5312514 1.2231309 14
2.973264 5.7272549 1.208791 13
3.0729134 -47.907936 2.6577032 9
3.0724833 -47.889133 4.3406396 10
3.0721841 -47.872288 6.0331783 11
3.0727565 -47.868797 7.7416406 12
3.0723295 -47.849754 9.466156 13
3.4190009 6.4442534 -0.44450238 6
3.5186164 -5.4235291 -0.32246697 6
3.3514915 -2.1382439 -0.3457247 5
3.5167773 -1.9020486 -0.34909302 5
3.4853075 2.2739203 -0.39322981 5
3.3108397 2.521966 -0.39534017 5
3.4028127 -9.5841084 0.20741607 8
3.5557518 15.036922 0.13592656 8
3.3555455 -7.7738667 0.46838468 9
3.3853159 -6.4499912 0.65838456 10
3.4910514 12.397429 0.5654124 9
3.3007321 12.404278 0.56279552 9
3.4097688 -5.419076 0.80473626 11
3.4011362 -4.602376 0.9233067 12
3.2100639 -4.0089421 1.0138363 13
3.3903303 -3.9062283 1.0211741 13
3.2639852 -3.378999 1.0996606 14
3.2650416 -2.8457553 1.1753805 15
3.4491243 -2.7125866 1.1905812 15
3.4711003 7.0706663 1.1891261 12
3.4327648 9.3407288 1.141441 11
3.4023492 10.504193 0.87414849 10
3.4835062 3.1309206 1.2385066 15
3.2934847 3.3259413 1.2355628 15
3.3974583 4.2316861 1.2243556 14
3.3840117 5.475914 1.2092382 13
3.9033635 6.223124 -0.44491413 6
3.926981 18.948572 -0.50663203 7
3.6912694 -12.296715 -0.18578134 7
3.9467685 -5.2214093 -0.32725331 6
3.669363 -1.6545718 -0.35294923 5
3.7885556 -1.3889494 -0.35546288 5
3.9467819 -0.97774589 -0.36105204 5
3.9811208 1.1741859 -0.38352165 5
3.8960643 1.4645896 -0.38678581 5
3.76636 1.7382226 -0.38771001 5
3.6452708 2.0161667 -0.39148247 5
3.8093679 -9.5204897 0.20916998 8
3.7814615 15.021911 0.13701996 8
3.7946885 -7.6811104 0.47384861 9
3.8063099 -6.3387966 0.66813195 10
3.7774253 12.381028 0.5693717 9
3.7598755 -47.872734 0.98076785 8
3.8155944 -5.274498 0.81798005 11
3.7748168 -4.4391656 0.93983382 12
3.9262319 -4.3576427 0.94574594 12
3.7423196 -3.7223608 1.0419195 13
3.9790344 6.7759709 1.189618 12
3.807349 6.8759408 1.1887751 12
3.8084447 9.3108349 1.1557157 11
3.8513258 10.456488 0.88412249 10
3.8862746 2.5979571 1.2416102 15
3.6751692 2.8921602 1.2390522 15
3.8131521 3.8556852 1.2275429 14
3.882786 5.119626 1.2107987 13
3.7203572 5.2523627 1.2113428 13
3.7587869 -47.848049 2.6580241 9
3.7590108 -47.839912 4.3415627 10
3.7576649 -47.81189 6.0327015 11
3.757853 -47.803143 7.7399287 12
3.7584975 -47.800053 9.4670277 13
4.3722782 5.9637494 -0.44494531 6
4.3541679 -4.9742341 -0.33151552 6
4.0634794 -0.5490641 -0.36667418 5
4.1005487 -0.2538873 -0.36939332 5
4.1176629 0.28360325 -0.3748588 5
4.1016555 0.58387476 -0.37841406 5
4.0561724 0.88186264 -0.38132539 5
4.190783 -9.4739075 0.21128312 8
4.1298337 15.02511 0.13902961 8
4.0769491 -7.623189 0.4780184 9
4.2676845 -7.5824008 0.48104048 9
4.224834 -6.1995049 0.67765552 10
4.1609745 12.350461 0.57477987 9
4.1506987 -5.1436591 0.83019447 11
4.2223272 -4.2149358 0.96176052 12
4.2139788 -3.4374969 1.0727619 13
4.1923127 6.635427 1.1899067 12
4.2408805 9.1236477 1.1582534 11
4.2596822 10.393504 0.89307702 10
4.10041 10.431149 0.89037442 10
4.0717764 -2.4997628 1.2954084 15
4.2110858 -2.2102294 1.2892855 15
4.3627996 -1.8586209 1.2843199 15
4.3085947 1.7985094 1.2466193 15
4.1097274 2.2173228 1.243415 15
4.3941908 3.1522772 1.2306278 14
4.164196 3.4539008 1.228529 14
4.3218713 4.7395883 1.2126874 13
4.1152635 4.9265752 1.2117981 13
4.6394634 -12.203177 -0.18876462 7
4.7509255 -4.6995182 -0.3363055 6
4.6097116 -9.4006472 0.21341933 8
4.5998106 15.026429 0.14189892 8
4.6160302 -7.4926524 0.48634747 9
4.581459 -6.0912886 0.6881144 10
4.5520391 12.324441 0.5810622 9
4.4443855 -47.797058 0.98129827 8
4.55968 -4.9804173 0.84767234 11
4.4903293 -4.0723062 0.97668296 12
4.6492953 6.3005767 1.1906843 12
4.4011426 6.4888749 1.1902081 12
4.6190338 8.9075356 1.1574403 11
4.6448617 10.359525 0.90454561 10
4.4324574 -1.6838993 1.2836391 15
4.5172162 -1.3877724 1.2787154 15
4.6076164 -0.98827887 1.2737536 15
4.6727114 -0.58453035 1.2712348 15
4.6995296 -0.17639227 1.2676932 15
4.6849413 0.23168834 1.2623768 15
4.6419883 0.63732433 1.2587489 15
4.5499249 1.0807515 1.2536365 15
4.450243 1.4290277 1.2506342 15
4.7116475 2.6570084 1.235508 14
4.5159774 2.9741757 1.2320961 14
4.7222562 4.3201079 1.2142351 13
4.514348 4.53792 1.2122884 13
4.4459133 -47.803261 2.6596978 9
4.4455614 -47.789349 4.3432231 10
4.444191 -47.764507 6.0350757 11
4.4442282 -47.754597 7.7425475 12
4.4443731 -47.745735 9.4689026 13
4.8140988 5.6574531 -0.44385567 6
5.1355233 -4.3972201 -0.34163725 6
5.0384536 -9.3248005 0.21586196 8
5.0758939 15.020423 0.1449634 8
5.0051069 -7.3912582 0.49299484 9
4.8287654 -6.0061674 0.69543391 10
5.0198402 -5.9312348 0.70098782 10
4.9555302 12.311772 0.58868188 9
5.1323323 -47.756275 0.98271358 8
4.8446341 -4.8542423 0.86042947 11
5.058588 -4.7502875 0.87027705 11
5.0819893 5.9368215 1.1920574 12
4.8500504 6.1440959 1.1918949 12
4.9847817 8.6973181 1.1587566 11
5.0316525 10.312352 0.91604841 10
4.9415259 -2.4247928 1.2849753 14
5.0407877 -2.1868093 1.2822193 14
5.1686821 -1.8539398 1.2800851 14
5.1901836 1.5411016 1.2447795 14
5.1085863 1.7898343 1.2429278 14
4.9246449 2.2373171 1.2388277 14
5.0348063 3.9474242 1.2172598 13
4.8870826 4.125793 1.2151607 13
5.1321101 -47.744682 2.6611166 9
5.1328712 -47.742149 4.3460526 10
5.132051 -47.724945 6.0396523 11
5.131496 -47.710098 7.7473865 12
5.1306195 -47.692184 9.4728441 13
5.2358313 5.3198051 -0.44268417 6
5.4101639 19.07519 -0.51439989 7
5.4913158 -4.0563455 -0.34659341 6
5.3949618 -9.2572384 0.21798843 8
5.4408612 15.022264 0.14749889 8
5.4106107 -7.2922568 0.50108355 9
5.4212203 -5.7877655 0.71481991 10
5.3618145 12.285524 0.59638119 9
5.4306874 -4.5734081 0.88971895 11
5.5506072 5.4876437 1.1949015 12
5.3228235 5.7121658 1.1932402 12
5.5050616 8.3488312 1.1594819 11
5.3172054 8.4566698 1.1568973 11
5.3732133 10.250651 0.92570794 10
5.2177067 -1.6824244 1.2773523 14
5.2918053 -1.3746743 1.2730855 14
5.3690238 -0.96757704 1.268503 14
5.4213285 -0.57680011 1.2658857 14
5.433486 -0.18310966 1.2604014 14
5.4281716 0.24948359 1.2574816 14
5.385097 0.64020264 1.2527393 14
5.3161612 1.0066997 1.2476083 14
5.2524767 1.3140032 1.2463534 14
5.5680966 3.1353021 1.2227162 13
5.3733978 3.4683323 1.2211866 13
5.2011662 3.7247121 1.219171 13
5.982851 4.5346971 -0.43820331 6
5.6224546 4.9408116 -0.44046816 6
5.6240945 -12.102312 -0.19311726 7
5.8235421 -3.6860309 -0.35171789 6
5.646009 -9.2258739 0.21988149 8
5.8916211 -9.1769333 0.22148806 8
5.810195 15.018713 0.15015721 8
5.7664199 -5.6468906 0.72689384 10
5.8686304 12.225183 0.6056807 9
5.7222934 -4.4118147 0.90468323 11
5.927 -4.3030438 0.91653097 11
5.8702235 5.1303229 1.1968788 12
5.6703038 5.3677959 1.1965058 12
5.8265519 8.1163368 1.1608467 11
5.8634439 10.180455 0.94225103 10
5.9672871 2.3007226 1.2301898 13
5.8462753 2.5679259 1.2264966 13
5.6895299 2.9116418 1.2247877 13
5.817986 -47.661549 6.0424218 11
5.8195672 -47.665169 7.753726 12
5.8173456 -47.637695 9.4785233 13
6.2957392 4.0906534 -0.43460166 6
6.1345572 -3.2905354 -0.35728592 6
6.2258682 -9.1109543 0.22380118 8
6.1846156 15.014247 0.15295653 8
6.1905632 12.210416 0.61296374 9
6.1619458 -4.1749845 0.93080235 11
6.2501588 4.641253 1.1996028 12
6.0345683 4.9372211 1.1987064 12
6.1899538 7.8210921 1.1618321 11
6.2612348 10.098639 0.95509112 10
6.3846769 0.61908096 1.2452679 13
6.3258696 1.0243752 1.2414436 13
6.2390876 1.4401495 1.2378865 13
6.1183519 1.8632355 1.2334956 13
6.0345678 2.1282175 1.2320985 13
6.2751718 4.6245604 1.2011534 12
6.5829329 3.6291511 -0.43139279 6
6.6704273 -12.016091 -0.1993736 7
6.4174461 -2.8684688 -0.36301729 6
6.6618404 -2.4190249 -0.368469 6
6.4901543 -9.0721598 0.22595541 8
6.5707188 15.019842 0.1560567 8
6.6155863 12.16535 0.62208956 9
6.4435873 -4.0030766 0.94774681 11
6.5883913 7.4753222 1.1640061 11
6.6294308 10.033484 0.96862257 10
6.4221845 0.24933127 1.2496604 13
6.7297378 3.9128771 1.2054712 12
6.5206041 4.2466407 1.20242 12
6.5067358 -47.596283 9.4887543 13
7.1947131 2.122484 -0.4191961 6
7.0291824 2.6391633 -0.4233585 6
6.8250999 3.1425035 -0.42744708 6
6.9707727 19.192141 -0.52408004 7
6.90487 -1.9573961 -0.37575096 6
7.0789232 -1.4655069 -0.38132536 6
6.9555168 15.007833 0.15912758 8
7.0498085 12.117183 0.63192087 9
7.0258269 7.0320549 1.1652751 11
7.0050845 9.9640455 0.98309767 10
7.1389894 3.1112385 1.21217 12
6.9958806 3.4171722 1.2097087 12
6.8391538 3.7162402 1.2068886 12
7.3853865 0.51853377 -0.40293014 6
7.3715668 1.0563407 -0.40883368 6
7.2858725 1.5879025 -0.4130449 6
7.211834 -0.95764804 -0.38678277 6
7.3132396 -0.43828139 -0.39268732 6
7.2186575 15.004679 0.16133767 8
7.3855176 12.085204 0.64008641 9
7.4504967 6.5780172 1.1692058 11
7.3875465 9.8884401 0.99839509 10
7.5535612 1.94476 1.2224468 12
7.453588 2.2676432 1.2189336 12
7.3173723 2.6374276 1.2142304 12
7.229692 2.9050677 1.2143409 12
7.7852154 -11.920501 -0.20741582 7
7.721508 12.040774 0.64818037 9
7.9498053 5.9374042 1.1726501 11
7.7132783 6.2525496 1.1708375 11
7.6848345 9.8351736 1.0111767 10
7.8363261 0.16380641 1.2396439 12
7.7988214 0.57685012 1.2344888 12
7.7503076 1.0068609 1.2310538 12
7.6826973 1.3958919 1.2275995 12
7.6052155 1.7253757 1.2236943 12
8.1798811 11.980088 0.6597268 9
8.2709112 5.4633784 1.1755263 11
8.0714045 5.7603164 1.1733506 11
8.6401072 19.324957 -0.53665346 7
8.6562357 11.923779 0.6725772 9
8.7271099 4.6946006 1.1812804 11
8.5190668 5.0701137 1.1787984 11
9.0049496 -11.836564 -0.2179594 7
9.1452065 3.8245828 1.1882114 11
9.0031567 4.1529074 1.186066 11
8.860815 4.4017611 1.1815286 11
9.41675 11.013409 -0.34799126 7
9.5175257 9.9186544 0.15618564 8
9.5269852 9.9316845 0.63924587 9
