# .PCD v0.7 - Point Cloud Data file format
VERSION 0.7
FIELDS x y z intensity
SIZE 4 4 4 4
TYPE F F F F
COUNT 1 1 1 1
WIDTH 1384
HEIGHT 1
VIEWPOINT 0 0 0 1 0 0 0
POINTS 1384
DATA ascii
-32.929443 0.94154567 1.726071 9
-32.950325 1.4136481 1.7279032 9
-32.938629 1.8850611 1.7284002 9
-32.947056 2.3583515 1.730328 9
-32.945766 2.8320155 1.7321221 9
-32.953148 3.3076785 1.7347507 9
-32.955246 4.2623057 1.74049 9
-32.943363 4.740356 1.7432551 9
-32.963638 5.2251329 1.7481128 9
-32.964573 5.7093434 1.7523428 9
-32.959213 6.1948028 1.7566377 9
-32.958061 6.6835766 1.7615604 9
-32.970127 7.1780448 1.7676022 9
-32.972214 7.6736188 1.7735271 9
-32.979259 8.17379 1.7801434 9
-32.986771 8.677844 1.7872168 9
-32.99659 9.6967516 1.8024112 9
-33.001064 10.212625 1.8106643 9
-33.003551 10.732574 1.8192743 9
-32.998466 11.254861 1.8279386 9
-33.008499 11.787529 1.8379259 9
-33.00346 12.320323 1.8475709 9
-33.006664 12.861903 1.8581833 9
-33.018257 13.413061 1.8697927 9
-33.023308 13.968224 1.8815701 9
-32.803734 -19.804268 2.0305784 9
-32.834797 -48.12991 3.1321197 9
-32.802193 -15.565571 3.1923583 10
-32.813324 -15.000014 3.171494 10
-32.805016 -14.432934 3.1496904 10
-32.816532 -13.331836 3.111506 10
-32.827232 -12.792628 3.0941823 10
-32.84034 -12.259998 3.0779185 10
-32.83997 -11.727843 3.0612125 10
-32.835888 -11.199841 3.0449679 10
-32.836899 -10.678747 3.0299864 10
-32.839947 -10.163079 3.0159609 10
-32.847301 -9.6531391 3.0030856 10
-32.846489 -9.1449852 2.9901969 10
-32.843163 -8.6402292 2.9778082 10
-32.87463 -4.7304063 2.9086499 10
-32.888248 -4.2535706 2.9038045 10
-32.882481 -3.7758825 2.8978782 10
-32.889656 -3.301228 2.8937199 10
-32.889339 -2.8270841 2.8895252 10
-32.88504 -2.3538344 2.8855975 10
-32.903965 -1.8830073 2.88432 10
-32.888035 -1.4109156 2.8806002 10
-32.905769 -0.47035679 2.8793318 10
-32.91077 8.9963869e-05 2.8792703 10
-32.913914 0.47047958 2.8796551 10
-32.903187 0.94074982 2.8794317 10
-32.9147 1.4120508 2.8817644 10
-32.915607 1.8836508 2.8837788 10
-32.920074 2.8296657 2.8898804 10
-32.925694 3.3047566 2.8941553 10
-32.939102 3.7822709 2.8997416 10
-32.923843 4.258028 2.9034307 10
-32.924519 4.7374024 2.9091561 10
-32.947342 5.7060661 2.9244354 10
-32.953922 6.1934872 2.9326286 10
-32.951519 6.6819029 2.9406869 10
-32.954826 7.174336 2.9499259 10
-32.96151 7.670723 2.9601505 10
-32.965584 8.1699667 2.9708352 10
-32.952198 8.6682863 2.9806466 10
-32.963425 9.1768379 2.9933989 10
-32.966934 9.6875124 3.0061848 10
-32.981037 10.724664 3.0346596 10
-32.982441 11.248775 3.0495362 10
-32.994995 11.782053 3.0662432 10
-32.993397 12.315878 3.0824499 10
-32.997375 12.857562 3.1000082 10
-32.994381 13.402599 3.117763 10
-32.992989 13.954604 3.1365402 10
-33.001137 14.517482 3.1571224 10
-32.813747 -17.936644 3.2912838 10
-32.806324 -16.146059 3.2156744 10
-32.805199 -13.326642 4.3603849 11
-32.811775 -12.248789 4.3115792 11
-32.811329 -11.717089 4.2884183 11
-32.808788 -11.190096 4.2661066 11
-32.809093 -10.669222 4.2452636 11
-32.809612 -10.153229 4.2255192 11
-32.818439 -9.6442146 4.2078915 11
-32.817841 -9.136591 4.1900787 11
-32.840675 -8.6391792 4.1762552 11
-32.868038 -4.7292347 4.080164 11
-32.851124 -4.2485657 4.0697303 11
-32.869328 -3.7741907 4.0645261 11
-32.861305 -3.2982223 4.0569491 11
-32.875381 -2.8257475 4.0529652 11
-32.87812 -2.3532248 4.048439 11
-32.86797 -1.4099847 4.0400224 11
-32.865643 -0.93962824 4.0374269 11
-32.885307 -0.47003981 4.0383787 11
-32.895523 9.1413203e-05 4.0390115 11
-32.883553 0.4700239 4.0377674 11
-32.88979 0.94032174 4.0396013 11
-32.903385 1.4114968 4.0431857 11
-32.900665 1.8827029 4.0456147 11
-32.894646 2.3543658 4.0484881 11
-32.903214 2.8280749 4.0540128 11
-32.910496 3.7787945 4.0664415 11
-32.912071 4.2562881 4.0737062 11
-32.919361 4.7364163 4.0825605 11
-32.921669 5.2179437 4.0916886 11
-32.925858 5.7020493 4.1019492 11
-32.941525 6.6795244 4.126133 11
-32.924751 7.1674113 4.1365356 11
-32.932106 7.6634722 4.1509104 11
-32.942638 8.1638441 4.166657 11
-32.96389 8.6708984 4.184751 11
-32.949856 9.6819649 4.2167692 11
-32.95237 10.196444 4.2355342 11
-32.953281 10.715049 4.255147 11
-32.962776 11.241448 4.2769513 11
-32.963074 11.769996 4.2986689 11
-32.975727 12.30859 4.323133 11
-32.972527 12.847155 4.3466811 11
-32.964447 13.389678 4.3707585 11
-32.976139 13.946676 4.398674 11
-32.978737 14.50679 4.4266334 11
-32.827114 -48.117168 5.1754742 10
-32.805611 -11.188506 5.4997768 12
-32.800999 -10.666105 5.4722576 12
-32.804363 -10.151141 5.4474444 12
-32.817581 -9.6435184 5.4256063 12
-32.82056 -9.1369257 5.4033809 12
-32.80732 -8.6300058 5.3797908 12
-32.834824 -4.7242279 5.2570415 12
-32.831116 -4.2457724 5.2458105 12
-32.854992 -3.772362 5.240108 12
-32.838909 -3.2958136 5.2291489 12
-32.869652 -2.8251159 5.2267528 12
-32.840878 -2.3504426 5.2159944 12
-32.858456 -1.4095058 5.2096972 12
-32.870918 -0.93973136 5.2087603 12
-32.873886 -0.4698517 5.2074037 12
-32.877422 9.2911025e-05 5.2072196 12
-32.861885 0.46969232 5.2050986 12
-32.868923 1.4099483 5.210144 12
-32.889114 1.881948 5.2169418 12
-32.891022 2.3539877 5.2219343 12
-32.879005 2.8258505 5.2258129 12
-32.8885 3.300688 5.2342129 12
-32.892841 4.2535815 5.2520304 12
-32.891811 4.7322073 5.2621164 12
-32.898785 5.2140427 5.2746258 12
-32.898914 5.697084 5.2871923 12
-32.917793 6.186049 5.3039451 12
-32.903217 6.6714029 5.3164902 12
-32.921261 7.6605368 5.3528166 12
-32.923794 8.1587305 5.3717761 12
-32.934559 8.6627121 5.3933439 12
-32.934895 9.167901 5.4144835 12
-32.935703 9.6772757 5.4370027 12
-32.924366 10.187214 5.4588356 12
-32.943272 11.234165 5.5134907 12
-32.946762 11.76351 5.5419426 12
-32.952435 12.2992 5.5722122 12
-32.967613 12.844507 5.6055927 12
-32.954048 13.384689 5.6356034 12
-32.956253 13.93746 5.6698565 12
-32.969425 14.50185 5.7076111 12
-32.832794 -2.3497467 6.3996015 13
-32.848846 -1.4090225 6.3916965 13
-32.840363 -0.93880951 6.3865261 13
-32.852886 -0.46952656 6.3867683 13
-32.854389 9.4370967e-05 6.3861914 13
-32.848648 0.46948099 6.3855319 13
-32.862659 0.93945462 6.3900371 13
-32.848591 1.4090062 6.3904099 13
-32.828682 -4.7231145 6.4499779 13
-32.832455 -4.2457404 6.437748 13
-32.823879 -3.7686052 6.4244738 13
-32.812733 -3.2930243 6.4120722 13
-32.831268 -2.8216765 6.4068251 13
-32.877895 1.8812115 6.4005489 13
-32.864937 2.3520017 6.4038024 13
-32.869415 2.8248825 6.4117908 13
-32.87928 3.7748203 6.4320092 13
-32.886295 4.2525144 6.4445815 13
-32.871674 4.7290611 6.454288 13
-32.872513 5.2096043 6.468421 13
-32.890842 5.6953845 6.4874148 13
-32.888252 6.1801667 6.5037117 13
-32.897606 6.6699076 6.5238185 13
-32.905098 7.1623635 6.5450301 13
-32.89983 7.6551356 6.5651898 13
-32.897438 8.1517563 6.5874262 13
-32.910168 9.160511 6.6400495 13
-32.908382 9.6687107 6.6670947 13
-32.918365 10.18479 6.6981525 13
-32.925678 10.704877 6.7303352 13
-32.932285 11.229786 6.7640748 13
-32.931297 11.757319 6.7979894 13
-32.910599 12.282878 6.8295774 13
-32.90601 12.819763 6.866292 13
-32.933765 13.375675 6.9116368 13
-32.938633 13.929195 6.9541225 13
-32.94083 14.488424 6.9980068 13
-32.805111 -48.083405 7.2273512 11
-32.825512 -2.3491066 7.5990033 14
-32.821205 -1.8778948 7.5907168 14
-32.824589 -0.93830961 7.5816545 14
-32.825333 -0.46910739 7.5792623 14
-32.82365 9.5795629e-05 7.5778794 14
-32.826797 0.46914628 7.5791802 14
-32.840408 0.93877149 7.5844641 14
-32.854939 1.4092072 7.591536 14
-32.811031 -3.7669427 7.6270761 14
-32.818687 -2.8204541 7.6063023 14
-32.842369 2.3502648 7.6007929 14
-32.855465 2.8235364 7.612287 14
-32.859535 3.2974396 7.6232934 14
-32.86932 3.7734785 7.6372366 14
-32.862526 4.2492142 7.6489534 14
-32.863762 4.7276716 7.6641707 14
-32.86911 5.2087855 7.6820016 14
-32.869434 5.69137 7.7003312 14
-32.867924 6.1760116 7.7199197 14
-32.877434 6.6654563 7.7438092 14
-32.882111 7.6505904 7.7934566 14
-32.900784 8.1521349 7.8248353 14
-32.889694 8.6499538 7.8509588 14
-32.894157 9.1555405 7.8826375 14
-32.896423 9.6646509 7.9156809 14
-32.910793 10.181871 7.9535718 14
-32.906055 11.220196 8.0272036 14
-32.915806 11.751109 8.0700274 14
-32.921734 12.286325 8.1140261 14
-32.910423 12.820735 8.1559162 14
-32.919876 13.369246 8.2051477 14
-32.905834 13.914499 8.2507734 14
-32.925411 14.480779 8.3071489 14
-32.803493 9.7284137e-05 8.789609 15
-32.814133 0.46894258 8.7931538 15
-32.830223 0.93843305 8.7999754 15
-32.816257 1.4074756 8.8005571 15
-32.832443 1.8784173 8.8110561 15
-32.827824 2.8210123 8.8276272 15
-32.841557 3.2954609 8.8430014 15
-32.840824 3.7700064 8.856348 15
-32.851284 4.2475333 8.8745947 15
-32.857891 4.7265725 8.8937044 15
-32.841125 5.2040687 8.9083929 15
-32.855537 6.173347 8.9565983 15
-32.851101 6.6597471 8.9804878 15
-32.845894 7.1486864 9.0061684 15
-32.86042 7.6451159 9.0393047 15
-32.866039 8.1430674 9.0720778 15
-32.868366 8.643857 9.1060514 15
-32.885536 9.1526222 9.1463003 15
-32.869286 9.6561279 9.1794338 15
-32.803577 -48.079655 9.3000755 12
-32.875011 10.170216 9.2209167 15
-32.875927 10.687472 9.2633276 15
-32.883808 11.738998 9.3568735 15
-32.895031 12.275636 9.4093552 15
-32.880196 12.808201 9.4568605 15
-32.891193 13.356797 9.5143347 15
-32.900105 13.911243 9.5738525 15
-32.901882 14.469552 9.6339903 15
-32.769192 -28.437124 0.79513609 8
-32.772324 -27.628387 0.78445566 8
-32.783054 -26.845053 0.77437705 8
-32.7798 -26.068439 0.76436538 8
-32.778992 -25.311281 0.75479752 8
-32.791298 -24.580519 0.74589777 8
-32.78405 -23.850689 0.73690522 8
-32.717793 -37.829239 0.92959237 8
-32.730003 -36.767395 0.91361386 8
-32.731438 -35.727009 0.89802849 8
-32.733814 -34.719578 0.88313061 8
-32.760693 -33.767445 0.86950898 8
-32.742004 -32.796562 0.85527164 8
-32.752468 -31.882023 0.84236085 8
-32.762474 -30.991884 0.82996643 8
-32.76852 -30.121584 0.81797552 8
-32.771717 -29.271156 0.80639488 8
-32.794548 -18.540667 1.99465 9
-32.734581 -30.089233 2.3715472 9
-32.74292 -29.24431 2.3404813 9
-32.752048 -28.421146 2.3107321 9
-32.744476 -27.603834 2.2810204 9
-32.765377 -26.829523 2.2544472 9
-32.765572 -26.056095 2.2275398 9
-32.769405 -25.30287 2.2019398 9
-32.76984 -24.563442 2.1771257 9
-32.777203 -23.844746 2.1537426 9
-32.778847 -23.136602 2.1309125 9
-32.786457 -22.446651 2.1093628 9
-32.78833 -21.766066 2.088305 9
-32.798653 -21.10367 2.0686061 9
-32.79607 -20.445017 2.048888 9
-32.794785 -19.164572 2.0119851 9
-32.69846 -37.805546 2.676559 9
-32.70866 -36.742104 2.632818 9
-32.705921 -35.697865 2.5899646 9
-32.712608 -34.695824 2.5496874 9
-32.717323 -33.721497 2.510977 9
-32.717972 -32.771271 2.4735966 9
-32.732952 -31.861835 2.438839 9
-32.72438 -30.954676 2.4038 9
-32.753864 -23.826805 3.5734179 10
-32.756142 -23.119631 3.5362475 10
-32.7668 -22.432281 3.5014427 10
-32.771713 -21.754143 3.4674246 10
-32.774738 -21.087412 3.4345565 10
-32.770905 -20.428482 3.4022822 10
-32.780418 -19.78937 3.3726513 10
-32.783932 -19.157425 3.3436089 10
-32.781315 -18.532404 3.3151183 10
-32.799885 -16.729509 3.2389519 10
-32.714703 -30.944344 3.9832461 10
-32.713337 -30.06855 3.929163 10
-32.720909 -29.223522 3.8783414 10
-32.731583 -28.402283 3.829952 10
-32.723007 -27.584658 3.7813046 10
-32.745125 -26.811888 3.7380936 10
-32.745449 -26.039062 3.6941814 10
-32.742035 -25.280727 3.6515954 10
-32.752094 -24.54916 3.6121709 10
-32.667416 -36.694454 4.3534942 10
-32.673183 -35.660839 4.2845778 10
-32.691788 -34.672474 4.2203031 10
-32.689842 -33.691929 4.1561852 10
-32.696327 -32.748379 4.0958304 10
-32.711414 -31.839676 4.0390701 10
-32.795647 -13.872126 4.3857369 11
-32.797382 -12.780424 4.3339272 11
-32.658634 -37.758167 4.4251575 10
-32.762173 -20.422184 4.7643113 11
-32.758953 -19.775578 4.7213345 11
-32.77713 -19.152647 4.6831183 11
-32.773556 -17.913908 4.6058035 11
-32.77029 -17.308376 4.5692673 11
-32.77557 -16.716387 4.535399 11
-32.776779 -16.130817 4.5023961 11
-32.777523 -15.553187 4.470715 11
-32.792507 -14.989837 4.4423127 11
-32.717052 -26.015442 5.1667442 11
-32.723087 -25.265081 5.1090651 11
-32.724613 -24.527563 5.0529904 11
-32.731586 -23.809622 4.9999671 11
-32.747768 -23.112776 4.9504499 11
-32.732273 -22.407709 4.89819 11
-32.746815 -21.73671 4.8524017 11
-32.753716 -21.073006 4.8073397 11
-32.697308 -30.926708 5.5701761 11
-32.691406 -30.047237 5.4942384 11
-32.70092 -29.20454 5.4239421 11
-32.712185 -28.384338 5.3568053 11
-32.710468 -27.573002 5.2903037 11
-32.700798 -26.774527 5.225193 11
-32.786545 -12.775634 5.5853581 12
-32.799213 -12.243549 5.5564499 12
-32.662361 -35.647732 5.9902668 11
-32.671143 -34.6493 5.8991241 11
-32.670219 -33.670444 5.8101664 11
-32.679497 -32.730289 5.7267599 11
-32.692459 -31.820024 5.647501 11
-32.75108 -18.513733 5.9798622 12
-32.758362 -17.301331 5.8867354 12
-32.761917 -16.708698 5.8430209 12
-32.760559 -16.122135 5.8002672 12
-32.785259 -15.556179 5.7638841 12
-32.768097 -14.978022 5.7218633 12
-32.780956 -14.421079 5.6867738 12
-32.777813 -13.863966 5.6505308 12
-32.784554 -13.317661 5.6175818 12
-32.645985 -37.742207 6.1854291 11
-32.655693 -36.679966 6.0859408 11
-32.721588 -23.093349 6.3726773 12
-32.724243 -22.401289 6.3091741 12
-32.73304 -21.72666 6.2493639 12
-32.717323 -21.048702 6.1873145 12
-32.740253 -20.407654 6.1349034 12
-32.747795 -19.768002 6.0818138 12
-32.741695 -19.131126 6.0283651 12
-32.693745 -26.767687 6.7287931 12
-32.703259 -26.003424 6.6524525 12
-32.699932 -25.24618 6.5765996 12
-32.699928 -24.508064 6.5044012 12
-32.715366 -23.796854 6.4380989 12
-32.771778 -11.701903 6.7750173 13
-32.774445 -11.177364 6.7411914 13
-32.771114 -10.655896 6.7078543 13
-32.77536 -10.141697 6.6777482 13
-32.786037 -9.6338053 6.6505909 13
-32.791382 -9.1283789 6.6239467 13
-32.786858 -8.624217 6.5968947 13
-32.666466 -30.896351 7.1661963 12
-32.659286 -30.016552 7.0685482 12
-32.676903 -29.181942 6.9801602 12
-32.688824 -28.362957 6.894218 12
-32.685638 -27.550968 6.80863 12
-32.741474 -16.69754 7.1626482 13
-32.744743 -16.11364 7.1114163 13
-32.759869 -15.543445 7.0649157 13
-32.746227 -14.96736 7.0143251 13
-32.75182 -14.407617 6.9699249 13
-32.749458 -13.851349 6.9258256 13
-32.75996 -12.764696 6.8466153 13
-32.769886 -12.232043 6.8107562 13
-32.63847 -34.613358 7.5875568 12
-32.64999 -33.648338 7.4763365 12
-32.66032 -32.709843 7.3695917 12
-32.6558 -31.783125 7.2640438 12
-32.719105 -21.04896 7.5884838 13
-32.71669 -20.392101 7.5185804 13
-32.716896 -19.748501 7.4520421 13
-32.7318 -19.124514 7.3914838 13
-32.722473 -17.884436 7.2691307 13
-32.740009 -17.290878 7.2165165 13
-32.63184 -37.724495 7.9592094 12
-32.632427 -36.652493 7.8293686 12
-32.629128 -35.610149 7.7042947 12
-32.679333 -24.491617 7.9708247 13
-32.694836 -23.780928 7.8898115 13
-32.689785 -23.069937 7.8071647 13
-32.707577 -22.388945 7.7331591 13
-32.701271 -21.704655 7.6565228 13
-32.750069 -11.168531 7.9989305 14
-32.758457 -10.651282 7.9623303 14
-32.758858 -10.136117 7.9257693 14
-32.777267 -9.6307745 7.8955016 14
-32.778088 -9.1242485 7.8628864 14
-32.775417 -8.6207981 7.8313127 14
-32.788765 -4.7171388 7.6509066 14
-32.797127 -4.2409611 7.637536 14
-32.796215 -3.2912014 7.611558 14
-32.663021 -27.5308 8.3421745 13
-32.674454 -26.750803 8.2454309 13
-32.685516 -25.988262 8.1525049 13
-32.679661 -25.229494 8.0591536 13
-32.71888 -15.523298 8.377779 14
-32.728947 -14.958786 8.3239479 14
-32.741512 -14.402428 8.2731504 14
-32.746101 -13.849302 8.222683 14
-32.738468 -12.755735 8.1243849 14
-32.745415 -12.222347 8.0812197 14
-32.755955 -11.695712 8.0410528 14
-32.634335 -30.86475 8.7766914 13
-32.644501 -30.001783 8.661953 13
-32.660088 -29.165775 8.5533609 13
-32.648335 -28.326683 8.442173 13
-32.710556 -19.111269 8.7694159 14
-32.712727 -18.490438 8.6973228 14
-32.710049 -17.876862 8.6268816 14
-32.720863 -16.686287 8.4986763 14
-32.730427 -16.105879 8.4396553 14
-32.799225 -1.4067477 8.7972908 15
-32.798443 -0.93751264 8.7923222 15
-32.626144 -33.62249 9.1580458 13
-32.621395 -32.669601 9.023385 13
-32.626728 -31.753603 8.8971024 13
-32.683491 -22.371508 9.1731377 14
-32.683701 -21.692066 9.0842113 14
-32.696537 -21.033535 9.0022812 14
-32.693924 -20.377028 8.9194622 14
-32.684559 -19.728123 8.8381014 14
-32.733749 -10.127868 9.1904612 15
-32.749496 -9.6221523 9.154707 15
-32.746746 -9.1150846 9.1159821 15
-32.751183 -8.6140079 9.0814285 15
-32.777058 -4.7152181 8.8761635 15
-32.771355 -4.2374144 8.856905 15
-32.785961 -3.7638752 8.8450241 15
-32.793888 -3.2908022 8.8332033 15
-32.79652 -2.8184054 8.8218117 15
-32.79446 -2.3467638 8.8110056 15
-32.797443 -1.8764379 8.8033934 15
-32.598164 -36.612663 9.5865698 13
-32.617943 -35.596622 9.440382 13
-32.620117 -34.592598 9.2955723 13
-32.662235 -25.214994 9.5610428 14
-32.65971 -24.475895 9.455802 14
-32.672905 -23.763979 9.3592205 14
-32.675198 -23.058668 9.2634354 14
-32.717033 -14.391001 9.5926371 15
-32.716995 -13.836355 9.5328808 15
-32.731274 -12.752341 9.4254379 15
-32.726879 -12.214857 9.3722134 15
-32.738438 -11.688906 9.3260183 15
-32.738697 -11.164125 9.2790012 15
-32.745876 -10.646688 9.2362967 15
-32.597435 -37.683357 9.7452221 13
-32.637711 -27.50835 9.8938293 14
-32.64735 -26.727514 9.7787485 14
-32.654041 -25.96216 9.6674414 14
-32.692329 -17.264156 9.9266787 15
-32.692493 -16.671061 9.852478 15
-32.698151 -16.089256 9.7830086 15
-32.70911 -15.517955 9.7180862 15
-32.717747 -14.952984 9.6553354 15
-32.617893 -29.976133 10.272053 14
-32.629135 -29.136955 10.142135 14
-32.626667 -28.306744 10.013341 14
-32.678059 -19.723328 10.252162 15
-32.678577 -19.091734 10.164701 15
-32.688263 -18.475786 10.083589 15
-31.838984 -48.135918 1.086231 8
-31.826874 -48.116158 3.1027689 9
-31.829147 -48.11813 5.1275935 10
-31.813692 -48.093311 7.1612382 11
-31.800238 -48.071487 9.2111273 12
-30.865396 -48.146217 1.0778348 8
-30.852932 -48.125362 3.0760515 9
-30.842859 -48.108223 5.0804877 10
-30.829025 -48.085213 7.0951514 11
-30.820646 -48.070702 9.127099 12
-29.887318 -48.121281 1.0690236 8
-29.890564 -48.125126 3.0498424 9
-29.875549 -48.099567 5.0353951 10
-29.861366 -48.07534 7.0314369 11
-29.845869 -48.048985 9.0425062 12
-28.941109 -48.119545 1.0610864 8
-28.935005 -48.108067 3.0236459 9
-28.929733 -48.097954 4.992837 10
-28.913393 -48.069431 6.9708338 11
-28.907106 -48.057613 8.9668846 12
-26.61039 -4.2181334 0.47283587 8
-26.561661 -4.2102089 1.4119943 9
-26.521749 -4.2036829 2.3519313 10
-26.466541 -4.1947322 3.2929003 11
-26.408298 -4.1852975 4.2375684 12
-26.402058 -4.1841068 5.1988482 13
-26.354342 -4.1763391 6.1631298 14
-26.322739 -4.1711216 7.1440597 15
-24.955423 -5.8079448 0.4513109 8
-24.947557 -5.4314656 0.44936273 8
-24.95496 -5.0606489 0.44780517 8
-24.946466 -4.6887765 0.44607687 8
-24.970409 -4.3247657 0.44503927 8
-24.946054 -5.8054962 1.3464277 9
-24.927629 -5.4268756 1.3407494 9
-24.935947 -5.0565577 1.3368267 9
-24.942616 -4.6878352 1.3331243 9
-24.945875 -4.3203135 1.3295435 9
-24.932804 -5.8021455 2.2438111 10
-24.930363 -5.4272203 2.2360165 10
-24.920755 -5.0532427 2.2280984 10
-24.936741 -4.6865129 2.2229748 10
-24.938744 -4.3188767 2.2171009 10
-24.909454 -5.7964411 3.1444728 11
-24.915335 -5.4236965 3.134738 11
-24.911242 -5.0510764 3.1244636 11
-24.9231 -4.6837287 3.1168947 11
-24.918299 -4.3151326 3.1079354 11
-24.886049 -5.7907238 4.0512061 12
-24.896679 -5.4193802 4.0395379 12
-24.896257 -5.0478005 4.0269895 12
-24.913013 -4.681612 4.0181174 12
-24.91497 -4.3143511 4.0077448 12
-24.88974 -5.7913094 4.9717588 13
-24.888937 -5.417439 4.9552407 13
-24.873089 -5.0428619 4.936862 13
-24.881428 -4.6754522 4.924396 13
-24.887785 -4.3094349 4.912622 13
-24.876585 -5.787972 5.9011698 14
-24.887295 -5.416821 5.8843517 14
-24.864899 -5.0409589 5.8610454 14
-24.87995 -4.6749473 5.8478832 14
-24.876053 -4.3071938 5.8315535 14
-24.842669 -5.0362043 6.7958274 15
-24.85519 -4.6700635 6.7799306 15
-24.875751 -4.3069286 6.7677002 15
-24.854815 -5.7826238 6.8423738 15
-24.865023 -5.4117079 6.8227925 15
-19.282627 8.8124924 0.37219301 8
-19.29632 8.8182487 1.1140229 9
-19.309591 8.8238115 1.8595754 10
-19.316854 8.8266211 2.6098962 11
-19.322847 8.828846 3.3670073 12
-19.328224 8.8307838 4.1328607 13
-19.348021 8.8393049 4.9132471 14
-19.352047 8.8406076 5.7031922 15
-18.578665 8.813673 0.36127412 8
-18.609142 8.8276272 1.0817989 9
-18.609528 8.827301 1.8043984 10
-18.613575 8.8287067 2.5319438 11
-18.625156 8.833684 3.2673795 12
-18.637358 8.8389521 4.0120201 13
-18.652742 8.8457174 4.7685866 14
-18.641968 8.8400631 5.53088 15
-17.84997 -48.065578 0.98453701 8
-17.843142 -48.04673 2.7762692 9
-17.069109 -48.057793 0.98037511 8
-17.068518 -48.055782 2.7635124 9
-17.058348 -48.026798 4.5507112 10
-17.059591 -48.029964 6.3511896 11
-17.048857 -47.999393 8.1619053 12
-17.044285 -47.986168 9.9943361 13
-16.295897 -48.048649 0.97640944 8
-16.291912 -48.036694 2.749819 9
-16.289326 -48.028839 4.5294633 10
-16.282604 -48.008808 6.3180604 11
-16.283476 -48.011162 8.1245995 12
-16.277533 -47.993416 9.9474821 13
-15.536899 -48.059605 0.97306961 8
-15.533151 -48.047932 2.7385273 9
-15.524993 -48.022625 4.5085487 10
-15.520286 -48.007988 6.2891817 11
-15.512877 -47.984993 8.0829 12
-15.509018 -47.972973 9.8973722 13
-14.775715 -48.041782 0.96935904 8
-14.775577 -48.041405 2.7268691 9
-14.767191 -48.014217 4.4885206 10
-14.606953 -25.086397 5.6883421 13
-14.763982 -48.003868 6.2614002 11
-14.606583 -25.085052 6.7483163 14
-14.594776 -25.064062 7.819416 15
-14.757235 -47.982006 8.0470953 12
-14.754577 -47.973454 9.8540173 13
-14.141832 -25.11001 0.54548359 8
-14.032459 -48.060814 0.96659613 8
-14.134486 -25.096312 1.5524318 9
-14.021667 -48.024097 2.7152359 9
-14.138743 -25.103212 2.5641975 10
-14.132768 -25.091944 3.5802464 11
-14.023373 -48.030193 4.4718266 10
-14.133209 -25.09206 4.6063528 12
-14.12116 -25.069988 5.6390171 13
-14.011818 -47.990871 6.2339602 11
-14.126746 -25.079227 6.6924973 14
-14.119132 -25.065018 7.7567253 15
-14.012485 -47.993404 8.0156212 12
-14.003537 -47.96302 9.8107939 13
-13.672236 -25.109388 0.54185575 8
-13.667464 -25.099993 1.5411102 9
-13.66687 -25.098269 2.5441778 10
-13.66211 -25.08889 3.5522921 11
-13.65689 -25.078663 4.5683074 12
-13.660785 -25.085173 5.5986662 13
-13.648024 -25.061077 6.6356564 14
-13.644023 -25.053064 7.6926408 15
-13.207547 -25.104288 0.53828961 8
-13.287607 -48.053696 0.96351349 8
-13.202582 -25.094244 1.5296926 9
-13.27814 -48.019905 2.7049737 9
-13.203872 -25.096092 2.5252528 10
-13.202862 -25.093565 3.5265665 11
-13.276629 -48.014877 4.4532661 10
-13.273177 -48.002842 6.2112322 11
-13.267221 -47.981758 7.9821939 12
-13.262493 -47.965118 9.7724628 13
-13.193422 -25.075014 4.5335293 12
-13.192794 -25.073193 5.5540509 13
-13.188297 -25.064018 6.5865736 14
-13.176636 -25.041216 7.6311278 15
-12.75245 -25.104132 0.53498745 8
-12.550778 -48.054073 0.96078074 8
-12.745253 -25.08939 1.5188062 9
-12.541078 -48.017597 2.6954296 9
-12.745934 -25.090157 2.5067441 10
-12.737487 -25.072945 3.4984088 11
-12.539276 -48.011368 4.4368267 10
-12.734854 -25.067181 4.4994364 12
-12.731478 -25.059942 5.5109458 13
-12.536244 -48.000408 6.1880708 11
-12.727441 -25.051401 6.5354962 14
-12.728879 -25.053625 7.5794153 15
-12.530274 -47.97823 7.9519787 12
-12.529909 -47.977501 9.7384911 13
-12.305758 -25.107737 0.53191513 8
-12.301813 -25.09915 1.5092574 9
-12.299912 -25.094728 2.490047 10
-12.295234 -25.084629 3.475836 11
-12.290068 -25.073536 4.4692712 12
-12.280435 -25.053322 5.4710217 13
-12.288229 -25.068661 6.4942164 14
-12.280617 -25.052557 7.5259356 15
-11.851021 -25.081381 0.52835459 8
-11.814782 -48.035614 0.95786744 8
-11.853559 -25.086241 1.4987873 9
-11.812471 -48.027115 2.6871462 9
-11.856744 -25.09248 2.4734089 10
-11.84767 -25.07276 3.4510353 11
-11.809361 -48.015385 4.4220881 10
-11.843065 -25.062496 4.4373469 12
-11.845329 -25.066763 5.4371061 13
-11.803001 -47.990433 6.1653533 11
-11.838102 -25.05094 6.4458237 14
-11.836775 -25.047594 7.4735579 15
-11.801744 -47.986248 7.9254961 12
-11.799664 -47.978714 9.7044802 13
-11.42625 -25.105841 0.52600765 8
-11.420166 -25.092001 1.4898629 9
-11.417195 -25.084995 2.4569767 10
-11.409293 -25.067154 3.4281163 11
-11.410695 -25.069757 4.4099631 12
-11.409276 -25.066151 5.4017167 13
-10.810242 2.3521826 -0.19317631 7
-10.848776 3.186307 -0.19712684 7
-10.864216 4.0533147 -0.2016789 7
-10.825009 4.9452567 -0.20632756 7
-10.839333 -27.955317 0.57456881 8
-10.836613 -26.804369 0.55336022 8
-10.850145 -25.77076 0.53450829 8
-10.818915 22.879267 0.473856 8
-11.088448 -48.034401 0.95549083 8
-10.82369 -26.772039 1.5626047 9
-10.833117 -25.729904 1.5100141 9
-10.813943 22.866432 1.358099 9
-10.818953 -27.902422 1.6200789 9
-11.082375 -48.00927 2.6779203 9
-10.806428 -27.869789 2.6675243 10
-10.809843 -26.737415 2.573015 10
-10.812483 -25.680489 2.4852886 10
-10.807837 -25.66905 3.4680362 11
-11.082108 -48.0093 4.4074039 10
-11.075564 -47.982147 6.1442437 11
-10.968719 -25.041904 6.3615375 14
-10.965479 -25.034052 7.3743138 15
-11.07402 -47.976662 7.897891 12
-11.070478 -47.962532 9.6691504 13
-10.525382 2.7815127e-05 -0.18373492 7
-10.63165 0.76057571 -0.18623304 7
-10.744799 1.5452251 -0.18968497 7
-10.42084 22.878096 0.47151896 8
-10.42821 22.891932 1.3514521 9
-10.79841 -29.07641 2.7686496 10
-10.799371 -26.711142 3.5882511 11
-10.787785 -29.047523 3.8604586 11
-10.792747 -27.834177 3.718673 11
-10.776113 -27.790943 4.7750201 12
-10.784114 -26.673029 4.6083269 12
-10.795725 -25.639877 4.455421 12
-10.767545 -28.992733 4.9552231 12
-10.780174 -25.602528 5.4499507 13
-10.763944 -27.759226 5.8424201 13
-10.768506 -26.634047 5.6368113 13
-10.758081 -28.966969 6.0642791 13
-10.757829 -26.607252 6.6795874 14
-10.766033 -25.568525 6.4562001 14
-10.739654 -28.917061 7.1807146 14
-10.748607 -27.719322 6.9201155 14
-10.7458 -25.520048 7.4721036 15
-10.737109 -26.555614 7.7301884 15
-10.715595 -28.851986 8.3073311 15
-10.730588 -27.672508 8.0104609 15
-10.18634 -1.4649708 -0.17889863 7
-10.375575 -0.74227291 -0.18127413 7
-10.096115 23.032602 0.47249389 8
-10.36844 -48.040203 0.95344257 8
-10.095718 23.029268 1.3517249 9
-10.362652 -48.014889 2.6705847 9
-10.358684 -47.998005 4.3932171 10
-10.356494 -47.989376 6.1264853 11
-10.350915 -47.965046 7.8717275 12
-10.351361 -47.968662 9.6404905 13
-9.7706881 -2.8699155 -0.17577069 7
-9.9846134 -2.1726685 -0.17706288 7
-9.8376617 23.34535 0.47678739 8
-9.649292 -48.029106 0.95124358 8
-9.8184013 23.297083 1.359887 9
-9.6463232 -48.016182 2.6635764 9
-9.6429873 -48.001457 4.3813353 10
-9.63764 -47.976734 6.107533 11
-9.6353283 -47.967113 7.8495431 12
-9.633358 -47.959232 9.6108294 13
-9.2458239 -4.2244043 -0.17375262 7
-9.525074 -3.5540848 -0.17467828 7
-8.9532747 -4.8915782 -0.17339045 7
-9.0222178 30.868793 0.61327052 8
-9.0280714 30.884659 1.7387965 9
-9.0316858 30.888617 4.0053515 11
-8.6281309 -5.5486403 -0.1732572 7
-8.5460634 30.872282 0.61190915 8
-8.5476379 30.873646 1.7321912 9
-8.5533895 30.890095 2.8582225 10
-8.553443 30.885916 3.9898379 11
-8.5579424 30.897772 5.1337099 12
-8.5606813 30.903206 6.2900186 13
-8.5614519 30.901468 7.4609575 14
-8.5619583 30.898705 8.6506786 15
-8.2605352 -6.188652 -0.17317179 7
-8.0744267 30.879091 0.61075115 8
-8.0773516 30.885798 1.7272857 9
-8.0748863 30.871843 2.8466461 10
-8.0809851 30.886068 5.1131678 12
-8.0847664 30.895897 6.2655067 13
-8.0879021 30.903204 7.4338646 14
-8.0903845 30.90793 8.6211891 15
-7.8770928 -6.8320203 -0.17372063 7
-7.7273784 16.961287 -0.30101523 7
-7.6024318 30.870983 0.60943234 8
-7.6047335 30.875658 1.7215286 9
-7.6085582 30.886505 2.8387551 10
-7.6078835 30.879034 3.9614148 11
-7.6146183 30.901632 5.0983138 12
-7.6151872 30.899118 6.2445774 13
-7.6189985 30.90971 7.4096279 14
-7.6213522 30.914299 8.5928812 15
-7.4754348 -7.4839931 -0.17495266 7
-7.2367544 31.30801 0.61699086 8
-7.2189193 31.225832 1.7361662 9
-7.2026672 31.150503 2.854322 10
-7.0261979 -8.1198988 -0.1762763 7
-6.9267521 18.629793 -0.31785345 7
-7.1825757 31.058561 3.9719429 11
-7.167264 30.987282 5.0961194 12
-7.1488919 30.902723 6.2251444 13
-7.1507106 30.905483 7.3845081 14
-7.1522055 30.906769 8.5626755 15
-6.5370088 -8.7471581 -0.17791837 7
-6.0225239 -9.3906832 -0.18039475 7
-5.9813476 20.457886 -0.33745691 7
-5.4608335 -10.026632 -0.18325016 7
-4.8523498 -10.660016 -0.18663219 7
-4.845974 -1.0534813 -0.2594521 6
-4.9315071 -0.70854259 -0.26086608 6
-5.0044222 -0.35766193 -0.26285419 6
-5.0618701 0.18139239 -0.26564068 6
-5.0775232 0.72942567 -0.26882765 6
-5.049541 1.0975101 -0.27069759 6
-5.0246029 1.4740717 -0.27412733 6
-4.9501653 1.8446896 -0.27629775 6
-4.864809 2.2197328 -0.27934656 6
-4.8480868 22.424719 -0.35957894 7
-4.4988632 -2.0536838 -0.25778878 6
-4.6466818 -1.7322321 -0.25886142 6
-4.7527838 -1.3947138 -0.25887394 6
-4.6522827 -25.014765 5.0000238 13
-4.6538253 -25.0243 5.9320035 14
-4.6527047 -25.019545 6.8760247 15
-4.2018576 -11.313724 -0.19098246 7
-4.1856432 -2.6894531 -0.25848672 6
-4.3588529 -2.3793671 -0.25845024 6
-4.2899485 -25.04892 0.49364311 8
-4.2884417 -25.041582 1.3821663 9
-4.2912159 -25.059235 2.27582 10
-4.2865934 -25.033726 3.1708636 11
-4.2877727 -25.042099 4.0774436 12
-4.2828169 -25.014668 4.9876966 13
-4.2854633 -25.031641 5.9190621 14
-4.2825131 -25.015959 6.8579717 15
-3.7891171 -3.2838092 -0.25952268 6
-3.9759059 -2.9762127 -0.25756264 6
-3.8071799 1.9185079 -0.073407441 7
-3.8055186 1.9174532 0.22466315 9
-3.9238334 -25.061022 0.49312428 8
-3.8105435 1.9197459 0.60104489 11.5
-3.9394746 39.90197 0.78109592 8
-3.8192194 1.9237821 0.98955745 14
-3.9200766 -25.038811 1.3791809 9
-3.9187653 -25.032219 2.2684526 10
-3.9405267 39.900635 2.1832016 9
-3.9188161 -25.034334 3.1639335 11
-3.9440801 39.924622 3.5928338 10
-3.9162056 -25.019464 4.0646467 12
-3.9151938 -25.014832 4.9764862 13
-3.945399 39.925861 5.010148 11
-3.9154758 -25.018478 5.9025469 14
-3.9468212 39.92804 6.4401174 12
-3.9135256 -25.0079 6.840169 15
-3.4877791 -11.946948 -0.19567242 7
-3.3291411 -3.8446269 -0.26215872 6
-3.5668142 -3.5682011 -0.26060972 6
-3.230083 -0.58166736 -0.28721854 5
-3.2847333 -0.23452052 -0.28809702 5
-3.3096552 0.11847489 -0.28992003 5
-3.3013039 0.59492284 -0.29353738 5
-3.2271404 1.0727001 -0.29730383 5
-3.4074562 1.9195652 -0.13504541 6.5
-3.4979811 24.575493 -0.38513643 7
-3.4172862 1.9194945 0.20680018 9
-3.5558136 -25.050663 0.49225345 8
-3.3540463 1.9244783 0.61429632 12
-3.3654659 39.918629 0.78167087 8
-3.3914771 1.9256872 0.97436237 14.5
-3.5536129 -25.037319 1.3765477 9
-3.5519614 -25.027845 2.2636173 10
-3.3663335 39.915245 2.1824269 9
-3.5527716 -25.035723 3.1577666 11
-3.3683319 39.925243 3.5894871 10
-3.5493393 -25.013742 4.0554643 12
-3.5491233 -25.014435 4.9662189 13
-3.3704283 39.936306 5.0062156 11
-3.5468707 -25.000813 5.8862348 14
-3.371382 39.933678 6.4339294 12
-3.547893 -25.010288 6.8266807 15
-3.0660954 -4.1000495 -0.26336569 6
-2.9302225 -1.4648231 -0.28610685 5
-3.1108642 -1.0336885 -0.28664094 5
-3.1279902 1.4255084 -0.30001035 5
-3.0069721 1.8727537 -0.18365456 6
-2.9881492 1.9233439 0.18756238 9
-3.0084338 -25.045376 0.4913297 8
-2.9559824 1.9264431 0.5959273 12.285714
-3.010174 1.9275701 0.89352798 14.5
-3.0079937 -25.044292 1.3736593 9
-3.0059941 -25.03138 2.2582066 10
-3.0053139 -25.027679 3.1485515 11
-3.0042565 -25.022196 4.0461431 12
-3.1845915 -25.014439 4.9570708 13
-3.1819971 -24.996809 5.8743863 14
-3.1822982 -25.001942 6.8117023 15
-2.7188799 -12.602728 -0.20149596 7
-2.4943476 -4.5776615 -0.26707751 6
-2.7922311 -4.3512888 -0.26540908 6
-2.4882023 -2.1546628 -0.28646737 5
-2.696794 -1.8702055 -0.28618172 5
-2.4399273 -0.26188686 -0.3015295 4
-2.4683208 0.22034822 -0.30474073 4
-2.4224601 0.61691403 -0.30685619 4
-2.5922713 1.9221263 -0.1448251 6.1999998
-2.6528368 5.8100305 -0.3259027 6
-2.5858102 1.9239246 0.20270699 9.2857141
-2.6185417 1.9274385 0.60122031 12.714286
-2.7906148 39.910374 0.78190756 8
-2.6066089 1.9283515 0.8713724 15
-2.7913682 39.905121 2.1807382 9
-2.7934661 39.919056 3.5862594 10
-2.7954779 39.931671 5.0014157 11
-2.7969642 39.936592 6.4286218 12
-2.1938753 -4.8180475 -0.27068213 6
-2.0926394 -2.597821 -0.28982514 5
-2.3419881 -2.3411286 -0.28793788 5
-2.0437472 -1.3109268 -0.29783291 4
-2.2221551 -1.0128071 -0.3002229 4
-2.3650284 -0.60174978 -0.29983726 4
-2.3334756 0.96342838 -0.3096095 4
-2.1545289 1.381207 -0.31369653 4
-2.1582501 1.9365467 -0.1639291 5.8571429
-2.0120335 2.1845794 -0.15346555 6
-2.0160563 2.609853 -0.1472055 6.1999998
-2.0180323 3.0115213 -0.16204064 6.1999998
-2.0213127 3.4032018 -0.13332523 6.5
-2.025975 3.7688253 -0.14392096 6.5
-2.2796488 6.1159534 -0.33200127 6
-2.1944582 1.9264495 0.20704491 9.5
-2.0062127 2.1695042 0.21011393 9.5
-2.0093286 2.581342 0.23227359 9.5
-2.0123425 2.9598603 0.20779659 9.125
-2.0167315 3.3945086 0.21303295 9
-2.0205259 3.757782 0.23016897 9
-2.1985347 1.9301683 0.62573504 13.5
-2.0069447 2.2637198 0.54829639 12.6
-2.0071561 2.623997 0.60017735 12.6
-2.0099652 2.9785645 0.57501012 12
-2.0106661 3.3593166 0.64606351 12.142858
-2.0112512 3.739435 0.60407221 11.5
-2.3261435 1.9227535 0.81146789 15
-2.0059302 3.0171845 0.88798571 14.333333
-2.0054932 3.4291766 0.97316736 14.333333
-2.0093262 3.7349248 0.98799211 14
-2.3248708 41.846195 0.82031047 8
-2.3001993 41.38063 2.2605565 9
-2.2762096 40.927719 3.6748056 10
-2.247081 40.382534 5.0546136 11
-2.2252307 39.9688 6.4293413 12
-1.8840845 26.927296 -0.41464227 7
-1.8624792 -5.0141764 -0.27298385 6
-1.7209815 -2.9048836 -0.29278794 5
-1.7397602 -1.7378572 -0.30179188 4
-1.9488801 -1.4564326 -0.29833126 4
-1.6826303 -0.95542216 -0.30719411 3
-1.8506342 -0.57788587 -0.30777395 3
-1.9292017 -0.2763637 -0.30877882 3
-1.7748246 0.31273651 -0.31489995 2.5
-1.8962326 0.59158319 -0.31478542 3
-1.7663432 0.96105415 -0.31828937 3
-1.626586 1.2116076 -0.32018062 3
-1.9148332 1.776421 -0.31918222 4
-1.8378941 2.09179 -0.18665543 5.5
-1.8226099 3.3307943 -0.32745084 5
-1.8746988 6.3933372 -0.33781677 6
-1.997167 1.9896603 0.24941826 10
-1.9930015 1.9847568 0.75722355 15
-1.9984267 2.1365066 0.60887653 13.333333
-1.996289 2.5059164 0.7445454 14
-1.998521 2.2981734 0.82056421 15
-1.999025 2.6234601 0.88925499 15
-1.9979209 2.8466258 0.87364006 14.5
-1.5207903 -5.2103429 -0.27652547 6
-1.4128807 -3.1018198 -0.29497278 5
-1.3390759 -2.0843034 -0.30314377 4
-1.4814811 -1.9784555 -0.30256942 4
-1.3754174 -1.3731478 -0.30848122 3
-1.3718534 -1.0478252 -0.31292787 2.3333333
-1.2981513 -0.6467613 -0.31608689 1.3333334
-1.4525434 -0.31439841 -0.31401992 1.5
-1.353924 0.2926105 -0.31952271 1
-1.3372096 0.6430037 -0.3221052 1.3333334
-1.3161716 1.0301038 -0.32579365 2
-1.4528612 1.4457306 -0.32373029 3
-1.2567043 1.6693022 -0.32905224 3
-1.3859358 2.3269866 -0.32966402 4
-1.5981691 3.4924092 -0.33065492 5
-1.3646599 3.6520462 -0.33504853 5
-1.4455544 6.6624708 -0.34457147 6
-1.1616366 -5.3887482 -0.28040102 6
-1.0850857 -3.2778778 -0.29862356 5
-0.99855697 -2.3022277 -0.30731612 4
-0.94849658 -1.7386122 -0.31421378 3
-1.0554367 -1.3762306 -0.31438985 2.3333333
-0.97937888 -0.97614676 -0.31834057 1
-1.0325587 -0.67253458 -0.31923336 0.25
-1.1964061 0.25830519 -0.3276768 0
-1.0709586 0.68265408 -0.3270421 0.25
-0.97618955 0.96862447 -0.32932577 0.75
-0.9808864 1.4040042 -0.3325187 2
-1.0174619 1.8526763 -0.33297279 3
-1.0554954 2.5392199 -0.3339566 4
-0.9823947 3.8485425 -0.34063455 5
-0.98928398 6.9165292 -0.35201693 6
-0.73796874 -3.4260933 -0.30257353 5
-0.62917805 -2.4873676 -0.31357059 4
-0.59327906 -1.9095688 -0.31718895 3
-0.61144441 -1.3816338 -0.32134461 1.5
-0.66149712 -1.0475934 -0.32282275 0.25
-0.62666684 1.0739453 -0.33446634 0
-0.59006709 1.4052496 -0.33595559 1.25
-0.55755031 1.6590501 -0.33836982 2
-0.57478684 2.0808663 -0.33929208 3
-0.69702196 2.720305 -0.34025437 4
-0.40689999 2.817071 -0.34405264 4
-0.57502353 4.0005035 -0.34544888 5
-0.50262547 7.1208758 -0.35853526 6
-0.3478927 -1.6190535 -0.32299757 2
-0.34195161 -1.3531564 -0.32450584 1
-0.29498833 -1.1695042 -0.32634068 0
-0.20935372 1.3620132 -0.34170139 0.5
-0.22328198 1.7513877 -0.34131455 2
-0.2364016 2.1808181 -0.34379649 3
-0.20583679 2.8657279 -0.34689483 4
-0.291803 4.0982547 -0.35055366 5
0.35411045 4.2574391 -0.40338776 5
0.079597317 7.3545327 -0.43690553 6
0.17692409 18.46196 -0.44807217 7
0.35375682 -5.8775306 -0.29830477 6
0.2481562 -3.6458006 -0.31494081 5
0.28652626 -2.6333137 -0.3235347 4
0.22581364 -2.0576754 -0.32801825 3
0.21664113 -1.6803937 -0.33132702 2
0.20218252 -1.3145818 -0.33410048 0.5
0.21401735 1.4408586 -0.36636025 0.5
0.19423263 1.8536108 -0.37165678 2
0.235836 2.277595 -0.37653193 3
0.14609605 2.9612641 -0.38367453 4
0.052231677 4.2233195 -0.39882889 5
0.25117338 14.779417 0.15460207 8
0.2564753 12.319736 0.55663389 9
0.35976753 -4.7914081 0.94631833 13
0.35606629 -4.3158579 1.0118141 14
0.14491288 7.9817147 1.1974565 12
0.26308575 9.2323923 1.0610385 11
0.18548609 10.565255 0.84482622 10
0.33122361 4.7869973 1.2333784 15
0.1622366 4.8001132 1.2345219 15
0.26310742 5.5432153 1.2261218 14
0.26112637 6.5408673 1.2129333 13
0.66167957 4.2730584 -0.40813074 5
0.61372674 7.4865556 -0.44623962 6
0.76096952 -12.766146 -0.19707848 7
0.43952698 -5.8922424 -0.29930946 6
0.54483831 -3.6799593 -0.32055345 5
0.68659514 -2.6226435 -0.33113411 4
0.53278214 -2.0268178 -0.33213538 3
0.62616873 -1.7489718 -0.33687469 2.3333333
0.62794477 -1.4153476 -0.3394624 1.3333334
0.59841561 -1.1014285 -0.34143788 0
0.70199084 1.1756748 -0.36893329 0
0.62458754 1.4049519 -0.37257281 0.75
0.56939965 1.7919631 -0.37502784 2
0.60155612 2.2568879 -0.38338423 3
0.570104 2.9663582 -0.39065507 4
0.74239773 -10.009114 0.19585815 8
0.67039722 14.728981 0.154029 8
0.67121273 -8.2290936 0.45005658 9
0.62205267 -6.9925818 0.62948173 10
0.58377117 -6.0550275 0.76084721 11
0.64933306 12.27394 0.5550155 9
0.59298378 -5.3377275 0.86381817 12
0.55446404 -4.7728715 0.94667184 13
0.60483533 -4.2965541 1.0140926 14
0.59450543 7.9196043 1.1912574 12
0.65613282 9.2127209 1.0609285 11
0.58446163 10.525457 0.84272885 10
0.63234806 4.7427711 1.2301749 15
0.61308283 5.4963856 1.2218883 14
0.67482275 6.4863791 1.2082661 13
0.97751266 4.2846384 -0.41451851 5
1.1712152 7.605792 -0.4569124 6
0.94220191 -12.733733 -0.19669896 7
0.8792873 -5.9732046 -0.30572861 6
0.95279878 -3.6542177 -0.32569063 5
1.0757101 -2.5444751 -0.33763945 4
1.0163066 -1.8962429 -0.34166211 3
0.99593616 -1.3614365 -0.34428829 1.75
1.0292745 -1.0107992 -0.34908986 0.75
1.1148305 -0.68096268 -0.35421479 0
1.1762791 0.71087724 -0.37071702 0
1.0003581 1.0266024 -0.373088 0.25
1.0088694 1.4452943 -0.3784683 1.5
0.92447692 1.6722522 -0.37963477 2
1.0325922 2.1200104 -0.38681751 3
0.9969815 2.9051495 -0.39669207 4
0.99211168 -9.9762745 0.19572721 8
1.0894004 14.700981 0.15391885 8
0.99629533 -8.2066488 0.45072651 9
0.97199905 -6.9510975 0.62945008 10
0.99749243 -6.0165367 0.76289725 11
0.99868006 12.255387 0.55524164 9
0.99572664 -5.2894812 0.86564898 12
1.0107059 -4.7077236 0.9486044 13
0.99042255 -4.2349782 1.0165428 14
1.0007389 7.8422823 1.1858126 12
1.0483472 9.1776857 1.0611166 11
1.083025 10.491367 0.84307402 10
1.0271254 4.6510029 1.2249422 15
0.96908092 5.4148345 1.2158113 14
1.126038 6.3873224 1.2017202 13
0.94754893 6.436419 1.2053307 13
1.5256004 2.7490268 -0.40473908 4
1.3119694 2.8153017 -0.4003222 4
1.2880013 4.2382898 -0.41740504 5
1.485319 18.324696 -0.44659525 7
1.3323735 -6.0188184 -0.31214535 6
1.3653086 -3.5992498 -0.33196956 5
1.360586 -2.4444222 -0.3419739 4
1.5441091 -2.3572972 -0.34471324 4
1.3991027 -1.6944543 -0.34902403 3
1.4374056 -1.3984649 -0.35158059 2.5
1.4287398 -1.0141231 -0.35763133 1.75
1.3721412 -0.56159145 -0.35871211 0.75
1.4440027 -0.18094495 -0.36505327 0.5
1.4574593 0.23478399 -0.37032813 0.5
1.4098554 0.5974555 -0.37497425 0.66666669
1.3733219 1.0304294 -0.37875783 1.3333334
1.3670026 1.3656472 -0.38369611 2
1.4407614 1.9079804 -0.39124289 3
1.3847179 -9.9335527 0.19587654 8
1.4022553 14.662786 0.15378472 8
1.3399496 -8.167181 0.45129544 9
1.3728466 -6.9022975 0.63112527 10
1.3862336 -5.9494929 0.76410574 11
1.4342749 12.213391 0.55532551 9
1.4164944 -5.2177629 0.86940265 12
1.4204537 -4.629343 0.95377654 13
1.4048721 -4.144628 1.0224348 14
1.4586349 6.2971959 1.198217 13
1.4741287 7.7304912 1.1806698 12
1.4382814 9.1245604 1.0612707 11
1.3802527 10.451612 0.84277022 10
1.428273 4.5270853 1.2217122 15
1.4903435 5.2600379 1.2087699 14
1.8151939 2.5825012 -0.40576756 4
1.7600327 4.1467972 -0.4238736 5
1.7484096 7.6808963 -0.46720636 6
1.8526146 -12.646607 -0.19667523 7
1.7948097 -6.0243454 -0.3184002 6
1.7772138 -3.4941554 -0.33863989 5
1.8199278 -2.2140429 -0.35124463 4
1.7995818 -1.3579893 -0.35929325 3
1.6315981 -0.85359716 -0.36074853 2
1.7622554 -0.58373636 -0.36478576 2
1.8795744 -0.19795629 -0.37204868 2
1.8893104 0.24760632 -0.37595245 2
1.8124264 0.64842963 -0.38061333 2
1.697988 0.93438733 -0.38318512 2
1.8759246 1.5087765 -0.39201942 3
1.7155374 1.7082429 -0.39469844 3
1.7819537 -9.9090948 0.19666287 8
1.7154081 14.630836 0.153855 8
1.8184539 -8.0876436 0.45194995 9
1.7730747 -6.8375883 0.63337708 10
1.797774 -5.8723536 0.76792377 11
1.7816792 12.170206 0.55557042 9
1.7538221 -5.1455112 0.87394458 12
1.8120835 -4.5322375 0.96092278 13
1.7719688 -4.0426135 1.0307568 14
1.9806925 -3.9644094 1.0342358 14
1.8488206 6.1645188 1.1935942 13
1.9532264 7.575995 1.1741096 12
1.7961957 7.6356654 1.1770062 12
1.7996445 9.0911875 1.0651067 11
1.9774451 10.383922 0.84540534 10
1.6795399 10.424896 0.84428877 10
1.8414911 4.3437448 1.2152461 15
1.8241018 5.1406684 1.2067984 14
2.1724083 2.3134332 -0.40662032 4
2.2238412 3.9997752 -0.42921442 5
2.3349049 7.6873927 -0.47573936 6
2.2758389 -6.0236683 -0.32637116 6
2.1954877 -3.3652914 -0.34736955 5
2.0777073 -2.0352552 -0.35675403 4
2.3099413 -1.8188657 -0.36154014 4
2.0616789 -0.99262345 -0.36518162 3
2.2416213 -0.61852944 -0.37252223 3
2.3635108 -0.21457064 -0.38091746 3
2.3760767 0.26126564 -0.38511097 3
2.3287518 0.59936136 -0.38847178 3
2.1861031 1.0014721 -0.39020365 3
2.0277829 1.30344 -0.39155868 3
2.2102075 -9.8419209 0.19699436 8
2.1341741 14.594197 0.15419514 8
2.2065535 -8.0419321 0.45456931 9
2.1412289 -6.7701421 0.63650483 10
2.2152095 -5.7920203 0.77514017 11
2.2189629 12.12874 0.55723572 9
2.2544007 -5.0227857 0.88461721 12
2.0727384 -4.4699869 0.96951276 13
2.2895722 -4.3881664 0.97355014 13
2.202394 -3.9031701 1.0457673 14
2.3336995 5.9652581 1.1888341 13
2.1670947 6.0386195 1.1903111 13
2.251389 7.475688 1.1722612 12
2.2386918 9.0848856 1.0758791 11
2.2777236 10.349921 0.84786844 10
2.2320058 4.1382518 1.212974 15
2.1785116 4.972558 1.2024192 14
2.6424184 1.8242372 -0.40906733 4
2.4319789 2.0928531 -0.40972018 4
2.525779 3.8693352 -0.43246517 5
2.7920766 18.206259 -0.44714326 7
2.7658222 -12.541696 -0.1976155 7
2.7583554 -5.9683962 -0.33360064 6
2.4651687 -3.2437232 -0.35265461 5
2.7254972 -3.0971882 -0.35763896 5
2.659771 -1.410086 -0.37194008 4
2.6090894 -9.795208 0.19787239 8
2.5529521 14.549804 0.15466714 8
2.5951493 -7.9815607 0.45729017 9
2.5788598 -6.6790509 0.64147681 10
2.5876043 -5.698226 0.78180921 11
2.6559932 12.073958 0.55907297 9
2.6090145 -4.9185371 0.89398432 12
2.5828788 -4.2890506 0.98443276 13
2.5787265 -3.7499404 1.0610985 14
2.7241197 4.6644378 1.197976 14
2.6223664 5.8329787 1.1879655 13
2.6275256 7.321301 1.1686804 12
2.6539354 9.0837173 1.0888587 11
2.5789208 10.311945 0.85079193 10
2.6592669 3.8564718 1.2105527 15
2.5639448 4.770565 1.2004943 14
3.1422744 0.56380993 -0.40140435 4
3.0458131 1.0092648 -0.40525937 4
2.872345 1.4310473 -0.40710813 4
3.0913906 3.5231707 -0.43654564 5
2.8158371 3.7098527 -0.43488711 5
2.9345856 7.6575165 -0.48455617 6
2.9804091 -2.9330027 -0.36309543 5
2.9335635 -0.9342171 -0.38160878 4
3.0802395 -0.51357311 -0.38858011 4
3.1426861 -0.18259351 -0.39269581 4
3.1703649 0.22393234 -0.39802817 4
2.9752085 -9.7518244 0.19888027 8
2.9734914 14.50557 0.15536016 8
3.0170851 -7.9065957 0.46081495 9
2.9924746 -6.5970621 0.64863861 10
2.8991165 -5.6171293 0.78920883 11
3.1238356 -5.554625 0.79527509 11
3.0090926 12.035133 0.56142199 9
2.9025962 -4.826386 0.90361911 12
3.0964658 -4.7535496 0.90985882 12
2.9782047 -4.1311021 1.0003829 13
2.8689301 -3.6085651 1.0735791 14
3.0269322 -3.5385983 1.0840212 14
3.1319993 4.3808837 1.1964973 14
2.8857801 4.5625234 1.1982025 14
3.12866 5.5322995 1.1822355 13
2.9629357 5.6525679 1.1865454 13
3.02668 7.1317973 1.1649928 12
3.0812776 9.0874729 1.1049253 11
2.9772778 10.237449 0.85401762 10
3.0978169 3.4864271 1.2080964 15
2.9015467 3.6638155 1.2088326 15
3.5994897 3.0846124 -0.43899772 5
3.3605576 3.3215728 -0.43886334 5
3.5441508 7.5855355 -0.49341777 6
3.2542329 -5.8924189 -0.34201655 6
3.3438373 -2.6465216 -0.37162384 5
3.3805342 -9.6936617 0.20005737 8
3.3967388 14.462032 0.15628387 8
3.3824813 -7.8350353 0.46438691 9
3.4089947 -6.4967651 0.65643531 10
3.3613687 11.983757 0.56373572 9
3.3932347 -5.4681048 0.80269897 11
3.4397459 -4.6236968 0.92359757 12
3.2347677 -4.0139785 1.011622 13
3.4284682 -3.925642 1.0223899 13
3.3748109 -3.349632 1.1058557 14
3.4337192 4.1324301 1.1959589 14
3.3673005 5.3757091 1.181201 13
3.4124289 6.9198833 1.1613383 12
3.4119914 9.096468 1.119404 11
3.4825127 10.153567 0.86065274 10
3.4818463 3.0773962 1.207287 15
3.282033 3.2969015 1.2062254 15
3.8197758 2.8287885 -0.43882459 5
3.6981137 -12.453874 -0.20011945 7
3.7524843 -5.774693 -0.35055351 6
3.7894797 -2.2014389 -0.38366777 5
3.7581465 -9.650568 0.20157671 8
3.8238299 14.421601 0.15746731 8
3.7481194 -7.7717781 0.46917766 9
3.7267826 -6.4163637 0.66336638 10
3.9328301 -6.3449163 0.66702598 10
3.8058445 11.918703 0.56742519 9
3.7408676 -5.3475461 0.81336969 11
3.7928011 -4.4759793 0.93930823 12
3.7682822 -3.7454896 1.0410482 13
3.6419406 -3.1922276 1.1247525 14
3.9801385 3.5636899 1.1930186 14
3.7788708 3.7912977 1.1939777 14
3.7720847 5.0664024 1.178543 13
3.8002133 6.6786985 1.1581116 12
3.8580828 8.9989481 1.1292886 11
3.8254201 10.088422 0.86582899 10
3.9731383 -2.4988277 1.261191 15
3.9843123 2.3460598 1.2067671 15
3.8141482 2.6273885 1.2071021 15
3.6403184 2.8668981 1.2049813 15
4.3898053 -1.2422916 -0.40306497 5
4.3692579 1.9717153 -0.43812406 5
4.2156916 2.2763829 -0.43940687 5
4.0334287 2.5642402 -0.43982625 5
4.1481142 7.4466887 -0.50078195 6
4.1095967 18.082872 -0.44920531 7
4.24966 -5.614686 -0.3592304 6
4.0740199 -1.8142142 -0.39171195 5
4.2279105 -1.5305156 -0.39607346 5
4.1724286 -9.5806904 0.20305495 8
4.2515593 14.368701 0.15873754 8
4.2018185 -7.6785784 0.47539321 9
4.1859827 -6.2906046 0.6747815 10
4.2528706 11.84666 0.57163042 9
4.1263552 -5.2076983 0.8271085 11
4.3239045 -5.1467724 0.83632296 11
4.1965327 -4.287334 0.95930129 12
4.0042944 -3.6173968 1.0562315 13
4.2025075 -3.5047753 1.0705094 13
4.3278604 3.1139035 1.1941204 14
4.1500864 3.3598599 1.1943119 14
4.2477551 4.6354842 1.1758373 13
4.3136687 6.302495 1.1530058 12
4.1463618 6.443521 1.1559998 12
4.3107505 8.7366667 1.1248842 11
4.1327605 8.8465071 1.1268575 11
4.3290286 9.9969091 0.87534362 10
4.1734724 10.026576 0.87227207 10
4.1512299 -2.1363993 1.2527417 15
4.2994995 -1.7993929 1.248338 15
4.3792238 -1.5792848 1.2450343 15
4.3788266 1.4622645 1.2123643 15
4.233736 1.8465846 1.2099991 15
4.0698953 2.2056906 1.2095385 15
4.5152154 -0.93527484 -0.40866408 5
4.5943913 -0.61335647 -0.41215813 5
4.6735582 -0.28663874 -0.41775665 5
4.7262959 0.31866017 -0.42530105 5
4.7139645 0.6580857 -0.42886204 5
4.6558213 0.99275291 -0.4304868 5
4.6142249 1.3336284 -0.43588632 5
4.4974484 1.6552855 -0.43647879 5
4.7417397 7.2467999 -0.50697589 6
4.6707463 -12.399934 -0.2045745 7
4.7436028 -5.4136658 -0.36816674 6
4.6027474 -9.5247116 0.20516826 8
4.6866693 14.325457 0.16035396 8
4.4865265 -7.6065369 0.47920555 9
4.6890116 -7.5727701 0.4830493 9
4.5571856 -6.1700711 0.68432105 10
4.6125283 11.782209 0.57536185 9
4.6385007 -5.0133243 0.8489989 11
4.5872903 -4.0892243 0.98124534 12
4.4750652 -3.3424933 1.0913436 13
4.7609696 2.3596365 1.1957177 14
4.6199489 2.6273146 1.1942621 14
4.4380097 2.9370267 1.1932293 14
4.619638 4.2502599 1.1767092 13
4.738904 5.9660034 1.1524024 12
4.5084462 6.1553473 1.1528703 12
4.6064939 8.5556974 1.1229712 11
4.6759458 9.9141436 0.88174564 10
4.618196 -2.8184783 1.2525606 14
4.7384052 -2.5970399 1.2500062 14
4.4485412 -1.3564317 1.2426916 15
4.5335531 -0.96606576 1.2358943 15
