# .PCD v0.7 - Point Cloud Data file format
VERSION 0.7
FIELDS x y z intensity
SIZE 4 4 4 4
TYPE F F F F
COUNT 1 1 1 1
WIDTH 1358
HEIGHT 1
VIEWPOINT 0 0 0 1 0 0 0
POINTS 1358
DATA ascii
-1.5527905 -0.41511202 -0.31359625 0
1.3570046 -0.45291632 -0.38340408 0
1.4487066 -0.46385226 -0.38589215 0
1.5487819 -0.4439286 -0.38729134 0
1.639869 -0.45736307 -0.38992223 0
1.7596294 -0.43682161 -0.39227191 0
1.8631996 -0.44842556 -0.39512387 0
1.9654583 -0.45069346 -0.39670223 0
2.0781934 -0.44795933 -0.39917889 0
-2.0561216 -0.35667667 -0.30127171 0
-1.9744453 -0.34250721 -0.30277717 0
-1.8791405 -0.3444463 -0.30481157 0
-1.7496315 -0.35891101 -0.30805853 0
-1.6428244 -0.34590957 -0.31026113 0
-1.5551046 -0.35080647 -0.3116143 0
-1.4364219 -0.34578043 -0.31466991 0
-1.33535 -0.33153573 -0.31767061 0
-1.2633394 -0.31732279 -0.3194851 0
-1.1548414 -0.30428061 -0.31999922 0
1.3725237 -0.35119858 -0.37969252 0
1.4471282 -0.34818491 -0.38172004 0
1.5433283 -0.35150918 -0.38455489 0
1.6291498 -0.35052928 -0.38614753 0
1.7411736 -0.35359898 -0.389153 0
1.8614223 -0.3477307 -0.39225632 0
1.977826 -0.33249953 -0.3934955 0
2.0386662 -0.36404699 -0.39649335 0
2.163518 -0.34349054 -0.39751235 0
2.2484119 -0.32401624 -0.39935571 0
-2.0697663 -0.26810145 -0.30047956 0
-1.9576831 -0.26319814 -0.30290687 0
-1.8626264 -0.28644302 -0.30490804 0
-1.7245591 -0.28640205 -0.30720705 0
-1.6492131 -0.27388573 -0.30866656 0
-1.5674314 -0.27851114 -0.31068999 0
-1.4460932 -0.27222154 -0.31338251 0
-1.3404084 -0.26224649 -0.31536451 0
-1.2566221 -0.25107515 -0.31697237 0
-1.1673182 -0.24604736 -0.31974953 0
1.395035 -0.25238556 -0.37994391 0
1.468872 -0.24401069 -0.38143933 0
1.5519283 -0.24871957 -0.38288394 0
1.6403711 -0.25036377 -0.38498613 0
1.7550205 -0.25110984 -0.38649964 0
1.8647286 -0.24953838 -0.3890076 0
1.9768611 -0.24888542 -0.3910442 0
2.0543485 -0.2511929 -0.39380747 0
2.1662636 -0.24926195 -0.39572859 0
2.2501802 -0.2425905 -0.3976202 0
2.3299689 -0.23425177 -0.39934358 0
1.3962927 -0.15047295 -0.37632689 0
1.4489131 -0.14909162 -0.37853184 0
1.5400214 -0.15480302 -0.37925807 0
1.6298389 -0.14483973 -0.38052529 0
1.745337 -0.14166708 -0.38300046 0
1.8453417 -0.16117148 -0.38571942 0
1.9742658 -0.15574801 -0.38806692 0
2.0547483 -0.15212907 -0.39111876 0
2.1656449 -0.13974464 -0.39342764 0
2.2499211 -0.14517708 -0.39562699 0
2.334197 -0.15060957 -0.39782634 0
2.4202919 -0.15619013 -0.39991403 0
1.3875855 -0.049650185 -0.37211618 0
1.4593258 -0.052224658 -0.37418729 0
1.5412618 -0.05516538 -0.37609723 0
1.632153 -0.04571661 -0.37921992 0
1.7424883 -0.045634508 -0.3808457 0
1.8511134 -0.057349104 -0.38393712 0
1.9744186 -0.056591619 -0.38597378 0
2.0674388 -0.044395741 -0.3876785 0
2.1515915 -0.046206292 -0.38973072 0
2.2357447 -0.048016835 -0.391783 0
2.3198977 -0.049827382 -0.39383522 0
2.4590871 -0.043876488 -0.39659733 0
2.5452709 -0.042302478 -0.39918077 0
1.3771496 0.04925023 -0.36931723 0
1.4484178 0.051804535 -0.37114295 0
1.5514375 0.050421711 -0.37369111 0
1.6398013 0.049348116 -0.37555692 0
1.755827 0.046148103 -0.37840363 0
1.8571622 0.053121068 -0.38016257 0
1.9555947 0.05591457 -0.3821722 0
2.0517933 0.043966081 -0.38470092 0
2.1359103 0.045773897 -0.38681099 0
2.2512527 0.054867558 -0.38946873 0
2.3602707 0.050997037 -0.39251122 0
2.4752197 0.057769336 -0.39527714 0
2.5553241 0.040508725 -0.39747223 0
2.6756248 0.076629654 -0.39947182 0
-1.1261119 0.195337 -0.30624616 0
1.3595439 0.14645065 -0.3664709 0
1.4489892 0.15610306 -0.36867505 0
1.56681 0.15636492 -0.372659 0
1.6327101 0.14534576 -0.37516025 0
1.7490495 0.14232756 -0.37748051 0
1.8482383 0.15901428 -0.37848487 0
1.9422504 0.15313713 -0.37999499 0
2.0358644 0.14583072 -0.38236159 0
2.1194134 0.15181687 -0.38421109 0
2.2506549 0.14513536 -0.38792893 0
2.3761237 0.15322368 -0.39073041 0
2.4704785 0.15925075 -0.39284828 0
2.572824 0.14742282 -0.39586523 0
2.6623607 0.15255436 -0.39776182 0
2.7462542 0.17712069 -0.3989706 0
-1.427091 0.26861775 -0.30038232 0
-1.3394971 0.25885934 -0.30295244 0
-1.2696649 0.25437358 -0.30426309 0
-1.154161 0.23810509 -0.30595127 0
1.345557 0.25762421 -0.36473873 0
1.4525254 0.24579075 -0.36702761 0
1.5730447 0.24963887 -0.36946252 0
1.6600316 0.25124463 -0.37123543 0
1.7396799 0.25063109 -0.37270918 0
1.8411413 0.2652781 -0.3740643 0
1.9244564 0.24544033 -0.37660855 0
2.048748 0.25070721 -0.37957183 0
2.1626904 0.24558601 -0.3825393 0
2.2648907 0.24402244 -0.3848083 0
2.3479555 0.25297335 -0.38654423 0
2.4358103 0.26244107 -0.38838324 0
2.5378468 0.23671536 -0.39139196 0
2.6269865 0.24503088 -0.39323735 0
2.7161262 0.25334635 -0.3950828 0
2.8366778 0.25111744 -0.39785588 0
-1.3529314 0.31535652 -0.30255067 0
-1.2769012 0.31205437 -0.30349228 0
1.282591 0.3875038 -0.35901126 0
1.3428627 0.34804595 -0.36184281 0
1.4474512 0.34823993 -0.36392039 0
1.5381813 0.34683716 -0.36580962 0
1.6399409 0.36012733 -0.3677702 0
1.7523781 0.35042319 -0.37020206 0
1.8686163 0.36163232 -0.37201014 0
1.9407638 0.33662841 -0.37557027 0
2.0608985 0.35743019 -0.37727794 0
2.1489928 0.35696936 -0.37948012 0
2.2363267 0.33860934 -0.3817741 0
2.3559246 0.36841825 -0.38389024 0
2.4263918 0.34975681 -0.38640535 0
2.5515594 0.34935826 -0.38913554 0
2.6625831 0.33855298 -0.39192882 0
2.7847373 0.34039965 -0.39454636 0
2.8734124 0.35124052 -0.39624032 0
2.9678688 0.34128737 -0.39859036 0
3.0505633 0.37296143 -0.39990503 0
-1.0167048 0.4921535 -0.30267173 0
1.2548282 0.44873166 -0.35718831 0
1.3454521 0.45957679 -0.35890248 0
1.4677426 0.46087262 -0.36084238 0
1.5419825 0.4354707 -0.36311817 0
1.6657947 0.45153251 -0.36579856 0
1.7447333 0.45959839 -0.36733976 0
1.8397449 0.45660472 -0.36946329 0
1.9326818 0.45047131 -0.37107992 0
2.0179741 0.45517969 -0.37273344 0
2.1393256 0.45698318 -0.3752175 0
2.2467098 0.43977314 -0.37899214 0
2.3535898 0.45553678 -0.38111991 0
2.4631205 0.44533575 -0.38404164 0
2.5509062 0.46120918 -0.38574207 0
2.6553154 0.44094959 -0.38897565 0
2.7433331 0.45556939 -0.39065063 0
2.8390689 0.4506692 -0.39304826 0
2.934988 0.44433263 -0.39536321 0
3.0232322 0.45769551 -0.39702973 0
3.1461842 0.46117344 -0.39889142 0
3.2165589 0.48706013 -0.39944533 0
-1.03774 0.53764194 -0.30183262 0
-0.97442526 0.57493031 -0.30322307 0
1.1830407 0.57279688 -0.35221937 0
1.2491037 0.53971046 -0.35379466 0
1.3548912 0.55113661 -0.35692152 0
1.4485916 0.55339408 -0.35949242 0
1.5399438 0.55069357 -0.36100084 0
1.6474395 0.56281155 -0.36318099 0
1.7643741 0.55735123 -0.36570206 0
1.8399355 0.55592036 -0.36860391 0
1.9693009 0.54615545 -0.37067547 0
2.0743914 0.54649377 -0.37267113 0
2.1605003 0.55271292 -0.3747896 0
2.2520669 0.54191047 -0.37619177 0
2.3152497 0.55716139 -0.37719333 0
2.4352961 0.54925853 -0.37981966 0
2.550354 0.55635071 -0.38227046 0
2.6413031 0.54313868 -0.38540959 0
2.7621987 0.55427098 -0.38783041 0
2.8496389 0.5366931 -0.39056128 0
2.9552863 0.54910821 -0.39285174 0
3.0776203 0.55645001 -0.39594471 0
3.1779716 0.57470298 -0.3977043 0
-1.0356112 0.6061765 -0.30112854 0
-0.94250381 0.63856947 -0.30139542 0
-0.89656335 0.67321193 -0.30041829 0
1.0768765 0.68318969 -0.3417173 0
1.147701 0.65353626 -0.34808889 0
1.2469132 0.65184087 -0.35123131 0
1.3599893 0.65837556 -0.35377175 0
1.4351534 0.64226019 -0.35603559 0
1.553001 0.64127207 -0.35957572 0
1.6607655 0.64818239 -0.36187959 0
1.7483659 0.65494907 -0.36365661 0
1.8389171 0.65771204 -0.36477146 0
1.933079 0.66021508 -0.36698845 0
2.0472722 0.65882993 -0.37004918 0
2.1460023 0.65700072 -0.37159464 0
2.2573874 0.6468634 -0.37492701 0
2.3745203 0.6437217 -0.37698826 0
2.4687285 0.65027392 -0.37906671 0
2.5664775 0.65657502 -0.38161215 0
2.6611936 0.64040947 -0.38349628 0
2.7476795 0.66122144 -0.38507199 0
2.8500817 0.64280081 -0.38775417 0
2.9418879 0.64139736 -0.38957477 0
3.0288792 0.66036546 -0.39120093 0
3.1359682 0.65082443 -0.39406735 0
-0.84695578 0.73625302 -0.30087498 0
1.0477322 0.75450814 -0.34217772 0
1.1549535 0.75610733 -0.34575775 0
1.2700437 0.76471591 -0.34819728 0
1.3380798 0.73693269 -0.35025629 0
1.442595 0.75538796 -0.35262686 0
1.5485115 0.74964267 -0.35525581 0
1.665629 0.74826831 -0.35812315 0
1.7472857 0.74051374 -0.36132386 0
1.8632977 0.75505966 -0.36319858 0
1.9745165 0.75442606 -0.36530516 0
2.0505795 0.74191874 -0.36741608 0
2.1653872 0.77114475 -0.36863491 0
2.2312572 0.74960852 -0.37099504 0
2.329807 0.74035686 -0.37432 0
2.4429657 0.76365322 -0.37565923 0
2.5211463 0.74211675 -0.37771666 0
2.6354814 0.75521463 -0.37981611 0
2.7502685 0.76712632 -0.38199896 0
2.8433483 0.75657076 -0.38504431 0
2.9427774 0.73805839 -0.38855052 0
3.0690906 0.76197684 -0.39095607 0
3.1079803 0.72444451 -0.39185113 0
-0.70755887 0.8688814 -0.30024546 0
0.88612026 0.88930857 -0.33639681 0
0.95784855 0.84761095 -0.33887559 0
1.0511347 0.85333508 -0.33990243 0
1.1626581 0.86439759 -0.34192896 0
1.2437317 0.84175175 -0.34609392 0
1.3433799 0.8522312 -0.34774104 0
1.4445378 0.84835947 -0.34990764 0
1.5635084 0.85768527 -0.35296044 0
1.6435375 0.83820122 -0.35534811 0
1.7359679 0.84826303 -0.35674801 0
1.8302112 0.85386682 -0.3590529 0
1.9504513 0.8495881 -0.36195645 0
2.0564685 0.85422564 -0.36316717 0
2.1381531 0.84767163 -0.36574847 0
2.2474108 0.85858011 -0.36811897 0
2.3526509 0.860542 -0.37078932 0
2.4410501 0.84374696 -0.37350756 0
2.5577648 0.85331482 -0.37573612 0
2.6666708 0.84741527 -0.37872949 0
2.7588232 0.85500824 -0.38047481 0
2.848737 0.86062497 -0.38193849 0
2.9577665 0.84755421 -0.38442484 0
3.0281382 0.84432089 -0.38600025 0
-0.61661047 0.94926149 -0.30331179 0
-0.56864208 0.96887928 -0.30106798 0
0.74777502 0.97361296 -0.32904193 0
0.85211587 0.94538808 -0.3341569 0
0.95312244 0.94686878 -0.33675143 0
1.0561972 0.96443576 -0.33830649 0
1.1326069 0.94633365 -0.34005839 0
1.2484598 0.95558167 -0.3412734 0
1.3547015 0.94814271 -0.34493199 0
1.4617759 0.96374935 -0.3473078 0
1.5470157 0.93714809 -0.34989724 0
1.6382862 0.94315225 -0.35208476 0
1.7362163 0.95052683 -0.35394979 0
1.8436196 0.94170874 -0.35679391 0
1.9339576 0.95329094 -0.35883373 0
2.0603838 0.96121758 -0.36212748 0
2.1540699 0.93087178 -0.36390489 0
2.2819834 0.94759989 -0.36575261 0
2.370852 0.96466732 -0.36722502 0
2.4443917 0.95427489 -0.37031281 0
2.5513773 0.95401645 -0.37261307 0
2.6475205 0.94726151 -0.3745375 0
2.7398951 0.94337255 -0.37718448 0
2.8186865 0.94044012 -0.37949792 0
2.9447052 0.94498903 -0.38222894 0
-0.64280367 1.0052513 -0.30092767 0
-0.50963134 1.0064359 -0.30227631 0
-0.45219275 1.0295051 -0.30142969 0
-0.35230386 1.0772645 -0.30382624 0
-0.29134548 1.0898888 -0.30229619 0
0.46978703 1.0977172 -0.31995794 0
0.54694903 1.0797533 -0.32441702 0
0.65359098 1.0464115 -0.32640904 0
0.7486915 1.0416307 -0.32868627 0
0.84269357 1.0502515 -0.33102703 0
0.94619346 1.0551478 -0.33204058 0
1.035459 1.0391504 -0.33580223 0
1.1523247 1.0503426 -0.33814651 0
1.2500107 1.0524576 -0.33991951 0
1.3653278 1.0560932 -0.34098545 0
1.4480084 1.0393248 -0.34466803 0
1.5460079 1.0438833 -0.34735629 0
1.6490942 1.046083 -0.3492071 0
1.7480893 1.0569794 -0.3511281 0
1.8458302 1.0417631 -0.35341364 0
1.9646072 1.0574266 -0.35508442 0
2.0271535 1.0393813 -0.35818747 0
2.1414008 1.0462456 -0.36108333 0
2.2316904 1.0411266 -0.36376905 0
2.330615 1.0469521 -0.36543846 0
2.4281237 1.0492975 -0.36714387 0
2.5261946 1.0490059 -0.36919603 0
2.6348407 1.0499898 -0.3718439 0
2.7411559 1.0472361 -0.37412643 0
2.8566425 1.0541853 -0.37628359 0
2.9120603 1.0181377 -0.37877932 0
-0.41275549 1.1160605 -0.30054587 0
-0.33871627 1.1453878 -0.30121002 0
-0.24961592 1.1422391 -0.30327508 0
-0.15807003 1.1579274 -0.30482012 0
-0.053687513 1.153234 -0.30943474 0
0.049230188 1.1572453 -0.30791977 0
0.14570738 1.1573681 -0.31265649 0
0.24594875 1.1469952 -0.31441614 0
0.34971407 1.1559167 -0.31542888 0
0.4422752 1.1530806 -0.31891462 0
0.55595189 1.151575 -0.32111314 0
0.643875 1.1469109 -0.324577 0
0.75252563 1.1614619 -0.32649428 0
0.85288966 1.1408213 -0.32917431 0
0.94015658 1.1503396 -0.33029404 0
1.0443646 1.1425492 -0.33226794 0
1.1459717 1.1500438 -0.33428541 0
1.2610058 1.1520665 -0.33783808 0
1.3404548 1.1338789 -0.33957186 0
1.4337773 1.1421778 -0.34111959 0
1.5339603 1.1517448 -0.34281805 0
1.6478163 1.1472636 -0.34697875 0
1.7665178 1.1564437 -0.34962788 0
1.8625598 1.1610128 -0.35044247 0
1.9366418 1.1337129 -0.35369119 0
2.0290234 1.1298267 -0.35483682 0
2.1297534 1.146197 -0.35706866 0
2.2476783 1.1480417 -0.36054093 0
2.3652134 1.1448637 -0.36364976 0
2.4700618 1.1523372 -0.36599168 0
2.5708361 1.1548647 -0.36789504 0
2.6703348 1.1539598 -0.37006164 0
2.7716615 1.1626546 -0.372289 0
2.8222971 1.1483405 -0.37413031 0
-0.33261496 1.2446004 -0.3009946 0
-0.27256307 1.250349 -0.30035484 0
-0.15007447 1.2701128 -0.30167642 0
-0.055430952 1.2565353 -0.30380592 0
0.046758998 1.2474101 -0.30600864 0
0.15282299 1.2472247 -0.30935267 0
0.24695134 1.2393135 -0.31102052 0
0.35191816 1.2706786 -0.31205258 0
0.45374128 1.264794 -0.3158153 0
0.54898983 1.2524791 -0.31947505 0
0.6576457 1.2394394 -0.32114533 0
0.74635357 1.2377248 -0.32421085 0
0.85799611 1.2471607 -0.32687578 0
0.94694126 1.251685 -0.32757932 0
1.0407642 1.2543776 -0.33021277 0
1.1478096 1.2517047 -0.33219606 0
1.2433468 1.2355664 -0.33417633 0
1.3461313 1.2432785 -0.33727756 0
1.4463707 1.2391776 -0.33909827 0
1.5485154 1.2517 -0.34112263 0
1.6631814 1.2487612 -0.3441388 0
1.7665163 1.268124 -0.34653395 0
1.834601 1.2237101 -0.34993601 0
1.9308026 1.2444061 -0.35043412 0
2.0507526 1.2399501 -0.35318497 0
2.1469336 1.2565148 -0.35482615 0
2.2584898 1.2575995 -0.35738859 0
2.3494651 1.2538972 -0.35986054 0
2.459033 1.2490131 -0.36234471 0
2.5488982 1.2567817 -0.36464444 0
2.6395838 1.2624352 -0.36696684 0
2.7261539 1.2481794 -0.36887082 0
-0.16369709 1.3003007 -0.30256712 0
-0.046192057 1.336309 -0.30302441 0
0.051687196 1.3285277 -0.3035301 0
0.15249915 1.3408743 -0.30580765 0
0.24982007 1.3365813 -0.30821529 0
0.33489695 1.3463104 -0.31071427 0
0.44036594 1.3355563 -0.31491411 0
0.55432868 1.3482589 -0.31620446 0
0.64439714 1.3508309 -0.31853387 0
0.75233239 1.3544651 -0.31954876 0
0.84350234 1.3523487 -0.3233102 0
0.94760633 1.3573798 -0.32416657 0
1.0520898 1.3324656 -0.32826087 0
1.1531897 1.3555387 -0.33001068 0
1.2521607 1.3655689 -0.33149233 0
1.3519853 1.3453195 -0.33359393 0
1.4529012 1.3378923 -0.33643302 0
1.5557044 1.352354 -0.33809489 0
1.6628202 1.3572799 -0.34127188 0
1.736513 1.33355 -0.34430441 0
1.8359532 1.3378232 -0.34619728 0
1.9566065 1.3416762 -0.34869134 0
2.0533004 1.3651729 -0.34996048 0
2.1596134 1.3700691 -0.35184216 0
2.2551286 1.3564301 -0.35580489 0
2.3512588 1.3537619 -0.35722402 0
2.4431188 1.3453531 -0.35967886 0
2.5515394 1.3578224 -0.36272565 0
2.6544476 1.3321061 -0.36479577 0
-0.025975052 1.4540319 -0.30177018 0
0.062034853 1.4455422 -0.30295658 0
0.15153845 1.4538367 -0.3025893 0
0.24648124 1.4516864 -0.30545783 0
0.34238216 1.4454373 -0.30808949 0
0.45520899 1.4497937 -0.31081435 0
0.54137218 1.4503415 -0.31259465 0
0.64431745 1.4679719 -0.31501177 0
0.7470234 1.4422095 -0.31749034 0
0.84795779 1.4324253 -0.32048577 0
0.94820708 1.4595147 -0.3224113 0
1.0485045 1.4368339 -0.3238796 0
1.1458217 1.4487038 -0.32741886 0
1.2534231 1.4562755 -0.32896116 0
1.3527598 1.4447279 -0.33198515 0
1.4560523 1.4540815 -0.33341882 0
1.5523386 1.431664 -0.33575055 0
1.6592735 1.4634131 -0.33698097 0
1.7528764 1.459262 -0.34083939 0
1.8535658 1.4335549 -0.34397388 0
1.948898 1.4631622 -0.34516266 0
2.0711541 1.4643984 -0.34767029 0
2.1549366 1.4703661 -0.34947172 0
2.2422526 1.4528341 -0.35147503 0
2.3359852 1.4354135 -0.35493636 0
2.4369094 1.4497677 -0.35745236 0
2.5426145 1.4518046 -0.3596085 0
2.60711 1.403288 -0.36353797 0
-0.027537324 1.5391008 -0.30077353 0
0.060718037 1.5394641 -0.30066377 0
0.14853401 1.5324033 -0.3004801 0
0.24937549 1.5348579 -0.30372387 0
0.35045645 1.5284052 -0.30617687 0
0.44931793 1.5277876 -0.30852479 0
0.55645984 1.5272204 -0.3106747 0
0.6538378 1.5587294 -0.31273851 0
0.74975085 1.5348544 -0.31597921 0
0.85081822 1.5497075 -0.31743678 0
0.95582724 1.5430444 -0.32052419 0
1.0456238 1.5508357 -0.32250619 0
1.146831 1.5433657 -0.32369798 0
1.2369056 1.5594565 -0.32648444 0
1.349676 1.5413095 -0.32724956 0
1.4541827 1.5297393 -0.33233961 0
1.5469159 1.552493 -0.3333317 0
1.6500208 1.5592405 -0.33511075 0
1.7579716 1.56567 -0.33701053 0
1.8513678 1.5407919 -0.34079054 0
1.9477438 1.5745249 -0.34251967 0
2.0384302 1.5383816 -0.34496334 0
2.1164534 1.5422825 -0.34609491 0
2.2458887 1.5638597 -0.34874046 0
2.3664672 1.5589939 -0.35113716 0
2.4485681 1.5288174 -0.35444504 0
0.25064173 1.6158159 -0.30144197 0
0.35420409 1.6524737 -0.30356637 0
0.45061374 1.6390591 -0.30622098 0
0.54681742 1.658583 -0.30708608 0
0.65943217 1.6372621 -0.31133956 0
0.75670421 1.64663 -0.31328624 0
0.84286237 1.6644716 -0.31482473 0
0.94741857 1.637229 -0.3166655 0
1.0320181 1.6608412 -0.31872141 0
1.1375052 1.6645509 -0.32149738 0
1.246151 1.6229079 -0.324119 0
1.346435 1.6453128 -0.32738233 0
1.4559307 1.6387992 -0.32693225 0
1.5683953 1.64294 -0.33180937 0
1.6673861 1.6733851 -0.33281085 0
1.7368852 1.654066 -0.3347986 0
1.8409547 1.6472168 -0.33731088 0
1.9508632 1.6714474 -0.33932984 0
2.0469992 1.6388916 -0.34345937 0
2.1409771 1.6315746 -0.34462413 0
2.2558281 1.6586078 -0.34574729 0
2.3332677 1.6248002 -0.34910762 0
0.27689889 1.7048023 -0.30129153 0
0.36519989 1.7654593 -0.3011252 0
0.45451561 1.750044 -0.302782 0
0.56444997 1.7455915 -0.30491993 0
0.64928228 1.7561055 -0.30786955 0
0.75336319 1.7697141 -0.31068206 0
0.85119838 1.7615316 -0.31207094 0
0.94478589 1.7403224 -0.31500638 0
1.0488672 1.7276355 -0.31656256 0
1.1480918 1.7672592 -0.31938216 0
1.2503103 1.7338461 -0.32178766 0
1.3494332 1.7574251 -0.32281268 0
1.4437088 1.7476918 -0.326004 0
1.5453286 1.7393186 -0.32759583 0
1.6471338 1.7631538 -0.32975093 0
1.7517681 1.749506 -0.33252397 0
1.8614427 1.7388986 -0.33565101 0
1.9680616 1.7610033 -0.33746177 0
2.0610785 1.7534792 -0.33972698 0
2.1509645 1.7490244 -0.34255224 0
2.2221062 1.7188082 -0.3449446 0
0.35362074 1.8422704 -0.30006176 0
0.48397678 1.8364184 -0.30300546 0
0.5450418 1.8275089 -0.30284482 0
0.644449 1.8265465 -0.30520338 0
0.74418867 1.8356707 -0.30887058 0
0.84459627 1.8621936 -0.30912587 0
0.9610374 1.8322564 -0.31320673 0
1.0467099 1.8537985 -0.3132998 0
1.1456692 1.8491266 -0.31590548 0
1.2608445 1.8527391 -0.31949517 0
1.3584375 1.8499808 -0.32126486 0
1.4653172 1.8392905 -0.32326689 0
1.5624806 1.8368937 -0.32646561 0
1.6552689 1.863187 -0.32716507 0
1.7452145 1.8281788 -0.33042562 0
1.8490684 1.855685 -0.33198482 0
1.9595172 1.8572319 -0.33546102 0
2.0331559 1.8350074 -0.33741608 0
0.55661643 1.9164104 -0.30127275 0
0.66204756 1.9381936 -0.30242598 0
0.74613482 1.9738783 -0.30510393 0
0.85058188 1.9490592 -0.30706549 0
0.96308023 1.9502233 -0.30983257 0
1.044299 1.9569246 -0.31116152 0
1.1418387 1.9348227 -0.31296882 0
1.2393719 1.9567029 -0.31526357 0
1.3466214 1.9486138 -0.31874171 0
1.4453064 1.9567982 -0.32038903 0
1.5544869 1.9367226 -0.32252812 0
1.6478455 1.9597971 -0.32478827 0
1.759992 1.934278 -0.32768527 0
1.8534966 1.9415832 -0.32960641 0
1.9221773 1.9016514 -0.33211231 0
0.76057839 2.0564778 -0.30325186 0
0.85329551 2.0340157 -0.30494085 0
0.95384967 2.0636849 -0.30485132 0
1.0629352 2.062253 -0.30907723 0
1.1645063 2.0392785 -0.31094134 0
1.261055 2.0684929 -0.31260762 0
1.3635153 2.0346627 -0.31622884 0
1.4578037 2.0775294 -0.31845111 0
1.5478399 2.0636897 -0.31962088 0
1.6398386 2.0432408 -0.32170981 0
1.7458147 2.0356216 -0.32606259 0
1.8165779 2.0745246 -0.32680413 0
0.77320504 2.137568 -0.30134541 0
0.84485686 2.1417968 -0.30279425 0
0.94039136 2.1630599 -0.30214208 0
1.0487181 2.1465807 -0.30610812 0
1.147437 2.150187 -0.3070187 0
1.2438666 2.178231 -0.30889553 0
1.3496011 2.1440747 -0.31232965 0
1.4424374 2.1258616 -0.31613412 0
1.5392145 2.1439395 -0.31811926 0
1.6431074 2.1399243 -0.31943858 0
1.7927067 2.1695349 -0.32217923 0
1.8573825 2.1519411 -0.3255114 0
0.86621082 2.2421057 -0.30092677 0
0.93143475 2.2659595 -0.3008436 0
1.0533026 2.2283273 -0.30287683 0
1.127071 2.2256496 -0.30691746 0
1.2532606 2.2693446 -0.30634847 0
1.3459268 2.2437689 -0.30928543 0
1.4508899 2.2335401 -0.31214234 0
1.542199 2.2546558 -0.31532559 0
1.6442051 2.2393103 -0.31739026 0
1.7419043 2.2576759 -0.31855521 0
1.873885 2.2348833 -0.32293373 0
1.9628805 2.2634628 -0.32472822 0
1.0683563 2.3114533 -0.30047461 0
1.1567411 2.3423221 -0.30358425 0
1.2614235 2.3637516 -0.30478325 0
1.3550594 2.334105 -0.30745071 0
1.4423882 2.3410099 -0.30957803 0
1.5386177 2.3685749 -0.3110095 0
1.6624292 2.3333931 -0.31587139 0
1.7700067 2.3748965 -0.31625459 0
1.8301895 2.3486848 -0.31819984 0
1.9374114 2.3446565 -0.3208456 0
2.0355287 2.3583446 -0.32369173 0
1.2659224 2.4562552 -0.30276561 0
1.3620526 2.4254346 -0.30554634 0
1.4367515 2.461571 -0.30609095 0
1.5467091 2.4572833 -0.30862391 0
1.652957 2.4287162 -0.31262583 0
1.7403152 2.4428053 -0.31473848 0
1.8447114 2.4383919 -0.31616917 0
1.9415957 2.4916527 -0.31675485 0
2.0490267 2.4437771 -0.32122588 0
2.1459453 2.4506609 -0.32345992 0
1.2691969 2.5515764 -0.30094483 0
1.354913 2.5389373 -0.30213743 0
1.4502231 2.5824447 -0.30364829 0
1.5313494 2.5528934 -0.30559954 0
1.6476161 2.5363884 -0.30877993 0
1.7459998 2.5525978 -0.31138012 0
1.858513 2.5311899 -0.31437019 0
1.9741793 2.5711174 -0.31515408 0
2.0821161 2.519778 -0.31951195 0
2.154758 2.5577061 -0.32065868 0
2.2357728 2.5532434 -0.32254785 0
1.3538142 2.6267264 -0.3009834 0
1.4732212 2.6680028 -0.30212656 0
1.5569353 2.6380818 -0.30420935 0
1.6646322 2.6730537 -0.30653939 0
1.7539425 2.6581402 -0.30774438 0
1.851523 2.6386333 -0.31163877 0
1.9404263 2.6428211 -0.31340963 0
2.0293579 2.642983 -0.31443998 0
2.1978798 2.6598754 -0.31844506 0
2.2730575 2.6335492 -0.32126549 0
2.3555429 2.6900203 -0.32133177 0
1.5383935 2.7394545 -0.30175024 0
1.6477593 2.7616053 -0.3030498 0
1.7620423 2.755657 -0.3059839 0
1.8561131 2.7272415 -0.30885905 0
1.94489 2.7579281 -0.31051385 0
2.0405781 2.7379322 -0.31255704 0
2.1293786 2.7598441 -0.313537 0
2.2557616 2.729924 -0.3179116 0
2.3286161 2.7640564 -0.31893244 0
2.4150667 2.7579963 -0.32072741 0
1.5602401 2.8255942 -0.30020151 0
1.6493903 2.8564918 -0.30119404 0
1.766855 2.852042 -0.30377892 0
1.861043 2.835429 -0.30540788 0
1.9702522 2.8801336 -0.30700561 0
2.0531585 2.8531122 -0.31063449 0
2.1268263 2.8536139 -0.31137994 0
2.2016902 2.8254323 -0.31338128 0
1.7660536 2.9441924 -0.3009344 0
1.8620588 2.927315 -0.30417812 0
1.9493853 2.9089985 -0.30636451 0
1.5566903 -4.5040655 -0.24974835 0
1.3520029 -4.417201 -0.24210241 0
1.4722956 -4.4659061 -0.24643865 0
1.5280344 -4.421154 -0.25683337 0
1.0854042 -4.3065867 -0.23275623 0
1.1572461 -4.3292074 -0.23484999 0
1.2338619 -4.3644629 -0.23968497 0
1.3440746 -4.3546271 -0.24851166 0
1.4546124 -4.3423734 -0.25906396 0
0.86964154 -4.2046189 -0.22501829 0
0.94440717 -4.2579198 -0.2285708 0
1.0399202 -4.2547197 -0.23475128 0
1.1365381 -4.25174 -0.24206254 0
1.2401359 -4.2693167 -0.25025982 0
1.3577602 -4.2196341 -0.26473537 0
1.4688518 -4.249917 -0.27146608 0
0.66752946 -4.1098242 -0.21820903 0
0.75522536 -4.1473007 -0.22241466 0
0.83284163 -4.1774225 -0.22614208 0
0.95259428 -4.1537809 -0.23947348 0
1.0456808 -4.1489749 -0.24737367 0
1.1471786 -4.1712561 -0.25310236 0
1.2569218 -4.1422801 -0.26544464 0
1.3618306 -4.1308327 -0.27456489 0
1.4392604 -4.1642985 -0.27878243 0
0.44899184 -4.0302877 -0.21253023 0
0.5559532 -4.027926 -0.21954153 0
0.6301024 -4.0636849 -0.22073521 0
0.74995106 -4.0632038 -0.23186517 0
0.86793029 -4.0507364 -0.24343187 0
0.9527995 -4.0225325 -0.25253212 0
1.0570574 -4.0704913 -0.25679356 0
1.1619936 -4.0367646 -0.26979429 0
1.2713956 -4.0505786 -0.27762884 0
1.3334839 -4.0448489 -0.28178242 0
1.409669 -4.07868 -0.28609875 0
0.26696131 -3.9192498 -0.20717062 0
0.35634929 -3.9729571 -0.21066174 0
0.44286972 -3.9757762 -0.21801019 0
0.55119038 -3.9235337 -0.23077232 0
0.64252955 -3.9559057 -0.23403417 0
0.73885608 -3.9511089 -0.24388635 0
0.83528441 -3.9435375 -0.25204048 0
0.9321602 -3.9353974 -0.260288 0
1.0377282 -3.957834 -0.26798669 0
1.1396365 -3.9233129 -0.28038341 0
1.2444218 -3.964642 -0.28538159 0
1.3426075 -3.9759636 -0.29120752 0
0.068548806 -3.8308604 -0.20079874 0
0.16583757 -3.8590927 -0.20668237 0
0.2604599 -3.8240066 -0.21726358 0
0.34764636 -3.8759277 -0.22114891 0
0.4391841 -3.8602808 -0.23012169 0
0.53893805 -3.8363063 -0.2396189 0
0.65752828 -3.8725412 -0.24472374 0
0.76072067 -3.815213 -0.2603153 0
0.85373431 -3.8491154 -0.26597261 0
0.94995087 -3.8463438 -0.27303442 0
1.0519714 -3.8250647 -0.28438634 0
1.1460119 -3.8427544 -0.28938434 0
1.2471193 -3.8757935 -0.29467589 0
-0.066328928 -3.7078719 -0.20407704 0
0.040215999 -3.7367866 -0.20914407 0
0.14731529 -3.7467349 -0.21699598 0
0.254529 -3.7369123 -0.22649407 0
0.36344612 -3.7497432 -0.23709856 0
0.46955335 -3.7288423 -0.24640918 0
0.55517668 -3.7571373 -0.24954847 0
0.64708668 -3.7575881 -0.25686449 0
0.74332678 -3.7279758 -0.26854289 0
0.86263716 -3.7615199 -0.27487534 0
0.9670918 -3.7240191 -0.28898907 0
1.0585293 -3.7442698 -0.29403305 0
1.1202445 -3.7563524 -0.29685733 0
-0.14500721 -3.6824107 -0.20069265 0
-0.064783737 -3.6214335 -0.21371034 0
0.039282996 -3.649837 -0.21836622 0
0.13466525 -3.6423397 -0.22743367 0
0.24859813 -3.6498175 -0.23572458 0
0.35076946 -3.6189661 -0.25083226 0
0.45855454 -3.6414754 -0.25518638 0
0.56414866 -3.6389203 -0.26409915 0
0.64635819 -3.6497078 -0.26968145 0
0.75326151 -3.6419344 -0.27756727 0
0.8426466 -3.6743507 -0.28274244 0
0.94460034 -3.6374006 -0.29703793 0
-0.34076798 -3.5163488 -0.20415463 0
-0.26665634 -3.5424225 -0.2044037 0
-0.15703408 -3.5555651 -0.21341109 0
-0.063238546 -3.5349951 -0.22334363 0
0.038349994 -3.5628872 -0.22758839 0
0.13907439 -3.5296841 -0.24077173 0
0.24266724 -3.5627227 -0.24495509 0
0.34231842 -3.531781 -0.25998804 0
0.44755572 -3.5541089 -0.26396358 0
0.5506413 -3.5518243 -0.27298909 0
0.6533733 -3.5398965 -0.28253156 0
0.76910073 -3.5475132 -0.29116812 0
0.84960294 -3.5868568 -0.29131159 0
-0.43642664 -3.4666829 -0.20057401 0
-0.36679205 -3.4417937 -0.20901068 0
-0.26023477 -3.4570961 -0.21465103 0
-0.16073263 -3.4490521 -0.2245473 0
-0.061693355 -3.4485567 -0.23297691 0
0.045240004 -3.4515002 -0.24016885 0
0.13565169 -3.4428177 -0.25023651 0
0.23673634 -3.4756284 -0.25418559 0
0.33386731 -3.4445961 -0.26914385 0
0.43655691 -3.466742 -0.27274078 0
0.52597016 -3.4459467 -0.28288165 0
0.63727701 -3.4526784 -0.29097599 0
0.71718889 -3.4675274 -0.2938551 0
0.82896364 -3.4997218 -0.29906747 0
-0.6105957 -3.3088207 -0.20424272 0
-0.54100865 -3.3312292 -0.20662878 0
-0.44923934 -3.3737428 -0.20944026 0
-0.34698629 -3.3327065 -0.2229057 0
-0.25381321 -3.3717692 -0.22489835 0
-0.16360451 -3.3424747 -0.23548467 0
-0.060148165 -3.3621182 -0.24261022 0
0.035706744 -3.3455513 -0.25070736 0
0.132229 -3.3559518 -0.25970131 0
0.23694937 -3.36257 -0.26682076 0
0.35007969 -3.3605385 -0.27893952 0
0.46268097 -3.3287463 -0.29072201 0
0.56881088 -3.3500361 -0.29729217 0
-0.74334347 -3.2415442 -0.20139214 0
-0.67494547 -3.2638323 -0.20158634 0
-0.54997897 -3.2399595 -0.21622394 0
-0.42677626 -3.2634685 -0.2233218 0
-0.33811983 -3.247556 -0.2329784 0
-0.23766005 -3.2591736 -0.23876953 0
-0.15039803 -3.2336962 -0.24873036 0
-0.058602974 -3.2756798 -0.25224349 0
0.027002135 -3.2395003 -0.26107627 0
0.16200803 -3.2371309 -0.27505097 0
0.25791839 -3.2483814 -0.28335842 0
0.36414018 -3.2689703 -0.28917122 0
0.46042579 -3.2776942 -0.2961002 0
-0.81169027 -3.126029 -0.20725191 0
-0.74633133 -3.1509871 -0.2107532 0
-0.64569491 -3.1596782 -0.21589167 0
-0.55753469 -3.1473794 -0.22610268 0
-0.45948014 -3.1611376 -0.23200186 0
-0.35073367 -3.1506853 -0.24227385 0
-0.24428011 -3.1430585 -0.25201651 0
-0.1463882 -3.1475635 -0.2584334 0
-0.056027655 -3.1316159 -0.26829898 0
0.033684984 -3.128139 -0.27369913 0
0.13950393 -3.1617477 -0.28191236 0
0.2599054 -3.1497316 -0.29460013 0
0.35322738 -3.1709642 -0.29894942 0
-1.0169864 -3.0121815 -0.20370546 0
-0.95348728 -3.0379369 -0.2061289 0
-0.85787863 -3.0621383 -0.21067512 0
-0.74815029 -3.060957 -0.22059502 0
-0.6324178 -3.0567374 -0.2282225 0
-0.54271811 -3.0637302 -0.23652059 0
-0.4568707 -3.0411625 -0.24533838 0
-0.3621856 -3.0536377 -0.25145924 0
-0.24988821 -3.028666 -0.26436028 0
-0.14171277 -3.0466464 -0.26985273 0
-0.054582551 -3.0535762 -0.27723435 0
0.063399121 -3.0556409 -0.28608865 0
0.16331065 -3.0382609 -0.29738018 0
-1.1539336 -2.9255939 -0.20140457 0
-1.0590101 -2.9493282 -0.20574963 0
-0.94894856 -2.9494541 -0.21625538 0
-0.84021276 -2.9449203 -0.22538705 0
-0.74899173 -2.9718957 -0.23095179 0
-0.6551531 -2.9537127 -0.23795822 0
-0.5480901 -2.9705698 -0.2463094 0
-0.44752291 -2.9209917 -0.25936446 0
-0.35101449 -2.9592597 -0.26269329 0
-0.25769243 -2.9511731 -0.27314982 0
-0.1575436 -2.9335206 -0.28169501 0
-0.05312087 -2.9719985 -0.28676933 0
0.010557806 -2.9495504 -0.29254067 0
-1.249097 -2.8623085 -0.20045161 0
-1.1428629 -2.8379085 -0.21202548 0
-1.0526046 -2.8461654 -0.21902178 0
-0.961312 -2.8474743 -0.22609366 0
-0.85530382 -2.8428066 -0.2354594 0
-0.73956788 -2.8485038 -0.24632294 0
-0.65249765 -2.822145 -0.2539368 0
-0.55149752 -2.8735473 -0.25746438 0
-0.45187941 -2.8459489 -0.26771513 0
-0.33931297 -2.8601668 -0.27477527 0
-0.26149777 -2.8383627 -0.28502843 0
-0.15320028 -2.8525531 -0.29149827 0
-0.051659189 -2.8904207 -0.29630429 0
-1.3309075 -2.7243769 -0.20776877 0
-1.25527 -2.7677319 -0.21061319 0
-1.1477219 -2.7364113 -0.22267592 0
-1.0424427 -2.7378252 -0.23169327 0
-0.95393932 -2.7602906 -0.23685949 0
-0.86130649 -2.7302525 -0.24688041 0
-0.76250553 -2.7531998 -0.25382924 0
-0.64800096 -2.735635 -0.26516587 0
-0.54012728 -2.7600336 -0.27020851 0
-0.44488907 -2.7391486 -0.2804012 0
-0.34737921 -2.7591701 -0.28648239 0
-0.24508032 -2.7329087 -0.29802436 0
-1.5161973 -2.6117339 -0.20801225 0
-1.4393187 -2.6512663 -0.20795065 0
-1.3482246 -2.6625164 -0.21385744 0
-1.258341 -2.672231 -0.22092126 0
-1.1512575 -2.6382875 -0.23336767 0
-1.0365185 -2.62764 -0.24406552 0
-0.94872659 -2.6677372 -0.24780737 0
-0.85017425 -2.642576 -0.25874352 0
-0.74239963 -2.6498063 -0.2659471 0
-0.64684606 -2.6466315 -0.27522013 0
-0.54725671 -2.6458399 -0.28140461 0
-0.45036337 -2.6530645 -0.29034206 0
-0.33970428 -2.6979442 -0.29414147 0
-1.6369457 -2.5200891 -0.20584714 0
-1.5458828 -2.5493381 -0.2113878 0
-1.4559674 -2.5498261 -0.21950829 0
-1.361364 -2.5510731 -0.22497708 0
-1.2436632 -2.545856 -0.23656495 0
-1.1519221 -2.539845 -0.2440099 0
-1.062923 -2.559377 -0.25028154 0
-0.94471735 -2.5545731 -0.25985241 0
-0.85859489 -2.543524 -0.26878527 0
-0.76035047 -2.5494571 -0.27607909 0
-0.64963377 -2.5391142 -0.28723568 0
-0.55287111 -2.5348678 -0.29370007 0
-0.47241306 -2.5600088 -0.29971933 0
-1.761453 -2.435528 -0.20637594 0
-1.6483288 -2.4468384 -0.21380304 0
-1.5575211 -2.4745328 -0.21856338 0
-1.4636492 -2.4402592 -0.23039393 0
-1.3496673 -2.4357953 -0.23990712 0
-1.2617482 -2.4481938 -0.24525882 0
-1.1583732 -2.4601219 -0.25300363 0
-1.067902 -2.4470379 -0.26137635 0
-0.95982361 -2.4501019 -0.2695291 0
-0.84937024 -2.4582152 -0.2789855 0
-0.74388963 -2.4306242 -0.29166844 0
-0.65715408 -2.4585476 -0.29308403 0
-1.9173083 -2.3203659 -0.20608696 0
-1.8434997 -2.3658242 -0.20625244 0
-1.7449307 -2.3412955 -0.21784347 0
-1.6611061 -2.3437014 -0.22609212 0
-1.5644766 -2.3711627 -0.22955287 0
-1.4531463 -2.3458257 -0.24143624 0
-1.3702286 -2.3604293 -0.24756789 0
-1.2561947 -2.3402846 -0.25759962 0
-1.157169 -2.3685596 -0.26308772 0
-1.0597657 -2.3368387 -0.27434251 0
-0.96552896 -2.3646061 -0.27980921 0
-0.85366321 -2.3605185 -0.28831029 0
-2.0295982 -2.219794 -0.20698184 0
-1.953138 -2.2411101 -0.21034203 0
-1.8454207 -2.2660787 -0.21777786 0
-1.7604948 -2.2261372 -0.22946441 0
-1.6428452 -2.2307258 -0.23865286 0
-1.5469562 -2.2644892 -0.24371904 0
-1.4397849 -2.2515645 -0.25268823 0
-1.3436723 -2.2403214 -0.26109084 0
-1.2592092 -2.2423835 -0.26964584 0
-1.1481516 -2.2674067 -0.27609578 0
-1.0352896 -2.2312479 -0.28990266 0
-0.94611746 -2.2442007 -0.29400489 0
-0.84532028 -2.2715774 -0.29764056 0
-2.05636 -2.1854179 -0.20791095 0
-1.9683367 -2.1527343 -0.21834989 0
-1.8527607 -2.1467819 -0.22936563 0
-1.7411598 -2.1380413 -0.24125104 0
-1.6558603 -2.1566 -0.24548897 0
-1.5333186 -2.1413143 -0.25769562 0
-1.4527268 -2.1678672 -0.26043427 0
-1.3484163 -2.1422658 -0.27088404 0
-1.237743 -2.132334 -0.28256679 0
-1.1403745 -2.1369762 -0.29055801 0
-1.0535222 -2.1563461 -0.29469594 0
-1.9298697 -2.080667 -0.2298239 0
-1.8422853 -2.0441141 -0.24078199 0
-1.7501576 -2.0574043 -0.24890143 0
-1.6568257 -2.0345137 -0.26020142 0
-1.5545098 -2.054868 -0.26522976 0
-1.443657 -2.0574608 -0.2738398 0
-1.3526095 -2.0501487 -0.28148472 0
-1.2432395 -2.0357563 -0.29072571 0
-1.1744856 -2.0914948 -0.29452303 0
-2.0133431 -1.9080904 -0.24268188 0
-1.9443505 -1.9512933 -0.24400748 0
-1.8516726 -1.9678358 -0.2495476 0
-1.7545466 -1.9467778 -0.25959414 0
-1.6491917 -1.9386957 -0.27116159 0
-1.5408114 -1.9484036 -0.27911603 0
-1.4350787 -1.9401476 -0.28633624 0
-1.3438314 -1.9478908 -0.29233372 0
-1.2181326 -1.9664347 -0.29836908 0
-1.1933686 -1.9895095 -0.29915044 0
-1.9368964 -1.8533875 -0.25535211 0
-1.8419782 -1.8486369 -0.26416069 0
-1.7446027 -1.8540493 -0.27148455 0
-1.6379991 -1.8437881 -0.28207085 0
-1.5417423 -1.8388687 -0.29232711 0
-1.4667768 -1.8823127 -0.29301065 0
-1.3587804 -1.8786765 -0.29767126 0
-1.8364787 -1.7655303 -0.27271232 0
-1.7571813 -1.7384549 -0.283176 0
-1.6446458 -1.7478282 -0.29174155 0
-1.5871731 -1.7865955 -0.29342747 0
-1.7332863 -1.6519531 -0.29401383 0
-1.6937691 -1.6998472 -0.29463989 0
-1.8434006 -1.5568476 -0.2962819 0
-1.7878022 -1.5997401 -0.29456496 0
-3.1483283 -1.1516645 -0.29696333 0
-3.0279272 -1.1321723 -0.29993841 0
-3.203429 -1.0943549 -0.29616606 0
-3.1448653 -1.0408832 -0.29470327 0
-3.0346262 -1.0610354 -0.29765365 0
-2.9498425 -1.0313932 -0.29876029 0
-2.8626072 -1.0239038 -0.29974404 0
-3.1626787 -0.95559871 -0.29194477 0
-3.0457096 -0.96799457 -0.29473352 0
-2.9602699 -0.94084024 -0.29593489 0
-2.8690014 -0.95727849 -0.29873854 0
-2.7852261 -0.90718627 -0.29867446 0
-3.1690614 -0.85934663 -0.28910303 0
-3.0600796 -0.85332322 -0.29144496 0
-2.97017 -0.85116851 -0.29350841 0
-2.8824699 -0.84847641 -0.29545155 0
-2.7640965 -0.84221601 -0.29782602 0
-2.6999588 -0.87941355 -0.29986182 0
-3.1738241 -0.76384544 -0.28726578 0
-3.0713463 -0.73914611 -0.28891927 0
-2.9823189 -0.76304317 -0.29141855 0
-2.8514328 -0.75103688 -0.29396385 0
-2.7155292 -0.75723934 -0.2968457 0
-2.6259742 -0.75252771 -0.29861346 0
-2.5399256 -0.7278676 -0.29988974 0
-3.1728058 -0.6680966 -0.28479064 0
-3.0749984 -0.64745629 -0.28643656 0
-2.9871311 -0.65138429 -0.28833759 0
-2.8433185 -0.654127 -0.29154807 0
-2.7240541 -0.65556669 -0.29454404 0
-2.6368954 -0.65464777 -0.2964204 0
-2.5495296 -0.65231985 -0.29840076 0
-2.4623489 -0.61123616 -0.2992377 0
-3.1671832 -0.55884331 -0.2821784 0
-3.0719373 -0.55559826 -0.28432798 0
-2.9447908 -0.55413288 -0.28710902 0
-2.8425722 -0.53482479 -0.28885928 0
-2.7260411 -0.55370027 -0.29185307 0
-2.638752 -0.555592 -0.29382971 0
-2.5515573 -0.55640316 -0.29579556 0
-2.4644425 -0.53740692 -0.29728714 0
-2.3729258 -0.53530085 -0.2986874 0
-2.2970157 -0.5008651 -0.29892263 0
-3.1448832 -0.43035915 -0.27771258 0
-3.0714471 -0.46513894 -0.28096431 0
-2.9836097 -0.45183808 -0.28261489 0
-2.8422682 -0.44278416 -0.2856465 0
-2.7195899 -0.45171878 -0.28872615 0
-2.6340449 -0.45698532 -0.29094627 0
-2.5463231 -0.44176769 -0.29245612 0
-2.457963 -0.44456768 -0.29433066 0
-2.3666835 -0.45005757 -0.29726383 0
-2.2188261 -0.4176769 -0.29947573 0
-3.1262708 -0.33698517 -0.27510428 0
-3.0699189 -0.35313785 -0.27692676 0
-2.9851427 -0.36497033 -0.27975145 0
-2.8533578 -0.3488577 -0.28263146 0
-2.7200763 -0.35235223 -0.28597817 0
-2.6321952 -0.34096709 -0.28780136 0
-2.5422978 -0.34783587 -0.2897701 0
-2.456244 -0.35404682 -0.29209921 0
-2.3528299 -0.34334695 -0.29424042 0
-2.2397461 -0.36401376 -0.29693058 0
-2.139323 -0.33962885 -0.29889569 0
-3.1222348 -0.24626958 -0.27401513 0
-3.055784 -0.24108192 -0.27532792 0
-2.9702933 -0.2557973 -0.2771045 0
-2.8616319 -0.25652868 -0.27951106 0
-2.7371342 -0.24869031 -0.28209364 0
-2.6208701 -0.24457294 -0.28479543 0
-2.538027 -0.25526628 -0.28760928 0
-2.4500573 -0.24642281 -0.28955996 0
-2.3502076 -0.25313726 -0.29224804 0
-2.2329669 -0.28924122 -0.2964665 0
-2.1513665 -0.27867135 -0.29847303 0
-2.0600243 -0.2968761 -0.29998717 0
-3.1018023 -0.17778049 -0.27181751 0
-3.0559175 -0.14584543 -0.27115408 0
-2.9552748 -0.14815912 -0.27378857 0
-2.8671186 -0.14373761 -0.27574161 0
-2.7820523 -0.15950455 -0.27866644 0
-2.6598048 -0.1525028 -0.28136665 0
-2.53773 -0.14548197 -0.28360558 0
-2.4290464 -0.13926031 -0.28605703 0
-2.3407948 -0.13419926 -0.28790468 0
-3.0594051 -0.065724187 -0.26972792 0
-2.953434 -0.063441075 -0.27226514 0
-2.8653769 -0.06154985 -0.27437368 0
-2.7773197 -0.059658617 -0.27648222 0
-2.660527 -0.06335815 -0.27940187 0
-2.5418839 -0.048394177 -0.28199661 0
-2.4250913 -0.0520937 -0.28491628 0
-2.3370342 -0.05020247 -0.28702483 0
-3.041126 0.043422241 -0.2682828 0
-2.9331176 0.0418786 -0.27068296 0
-2.8449898 0.040617026 -0.27264887 0
-2.7568617 0.039355446 -0.27461478 0
-2.6687343 0.038093869 -0.27658069 0
-2.5608475 0.027625881 -0.27933383 0
-2.450006 0.035306498 -0.28162092 0
-2.3292329 0.05334847 -0.28356975 0
-3.0147033 0.15112066 -0.26510361 0
-2.9180794 0.14628187 -0.26757956 0
-2.8304093 0.14188644 -0.26982611 0
-2.7381172 0.15686937 -0.27198598 0
-2.6504166 0.15184194 -0.27415657 0
-2.5627162 0.14681453 -0.27632716 0
-2.4750156 0.1417871 -0.27849779 0
-2.3655295 0.13552848 -0.28122348 0
-2.2800817 0.17980008 -0.2808347 0
-3.0220125 0.21664049 -0.26506993 0
-2.9694712 0.25580135 -0.2643806 0
-2.8592739 0.24647956 -0.26692653 0
-2.7493327 0.2565144 -0.26853657 0
-2.6180723 0.24426824 -0.27158034 0
-2.5313318 0.25450054 -0.27364066 0
-2.4440017 0.24572359 -0.27578166 0
-2.3566716 0.2369466 -0.27792272 0
-2.2507622 0.27180028 -0.27936381 0
-2.1359048 0.27666855 -0.28137818 0
-2.0637245 0.28242698 -0.28409934 0
-1.9598621 0.27284589 -0.2878457 0
-1.8532991 0.26043424 -0.28898641 0
-1.7721004 0.28132772 -0.28835091 0
-1.6562994 0.27512789 -0.29255235 0
-1.5434284 0.26399732 -0.29603386 0
-1.4769555 0.27248359 -0.29638985 0
-2.9590619 0.36172163 -0.2611509 0
-2.8692286 0.35073364 -0.26353154 0
-2.7593093 0.347525 -0.2663725 0
-2.6609838 0.34501866 -0.26859465 0
-2.5514169 0.34907523 -0.27062637 0
-2.4328103 0.35965967 -0.27277362 0
-2.3278708 0.33541641 -0.27580106 0
-2.2355676 0.35023144 -0.27817935 0
-2.1464365 0.35641566 -0.27990595 0
-2.031518 0.35239354 -0.28205782 0
-1.9471562 0.35209885 -0.28386882 0
-1.8644676 0.35093224 -0.28575113 0
-1.7595105 0.345146 -0.28796637 0
-1.6494105 0.34988061 -0.29073077 0
-1.5431718 0.3367593 -0.29580855 0
-1.4672178 0.34542009 -0.29614618 0
-1.3592068 0.35810027 -0.29793853 0
-1.2491616 0.34832579 -0.29939345 0
-2.9323514 0.44399169 -0.25978857 0
-2.840924 0.45099354 -0.26173511 0
-2.7488894 0.45662445 -0.26367044 0
-2.6564007 0.46076596 -0.26557463 0
-2.5702794 0.44582844 -0.26793817 0
-2.457144 0.43840063 -0.27131867 0
-2.3393798 0.44744748 -0.27396876 0
-2.225986 0.4457171 -0.27615216 0
-2.1757598 0.45489225 -0.27587032 0
-2.0585608 0.44893852 -0.27890754 0
-1.9526126 0.45523041 -0.28128839 0
-1.8485744 0.45346841 -0.28347045 0
-1.7556412 0.44447163 -0.28690487 0
-1.6555235 0.43620878 -0.28882605 0
-1.5531054 0.41711226 -0.29040495 0
-1.4645799 0.40839466 -0.2970151 0
-2.914089 0.50548214 -0.25875652 0
-2.8521693 0.55807018 -0.25866026 0
-2.7294116 0.53406841 -0.26223639 0
-2.6488011 0.56440032 -0.26262084 0
-2.5290086 0.55126661 -0.26562759 0
-2.4436636 0.5326553 -0.26795372 0
-2.3454611 0.5467658 -0.26956692 0
-2.2527914 0.5592708 -0.27187476 0
-2.1542549 0.55556267 -0.27426252 0
-2.0564444 0.54174948 -0.2770932 0
-1.9698378 0.54937005 -0.27848524 0
-1.8567898 0.54092252 -0.2818979 0
-1.7530792 0.54899359 -0.28487182 0
-1.6866329 0.58965349 -0.28299785 0
-1.2433618 0.58531731 -0.29484326 0
-1.1403852 0.56829733 -0.29693523 0
-1.0466549 0.54716879 -0.29830483 0
-0.96412253 0.54595792 -0.29687977 0
-2.8518469 0.65040922 -0.25606963 0
-2.7704742 0.645823 -0.25775209 0
-2.6547685 0.64549476 -0.26074901 0
-2.5631444 0.63630146 -0.26300445 0
-2.4550295 0.64709717 -0.2654345 0
-2.3437407 0.64162064 -0.26766905 0
-2.2363586 0.65824747 -0.26966685 0
-2.119556 0.65279311 -0.27281582 0
-2.0400443 0.65158737 -0.27478516 0
-1.93185 0.64443177 -0.27717561 0
-1.8426325 0.64410698 -0.27876574 0
-1.7560383 0.64235443 -0.28092322 0
-1.6597297 0.66142559 -0.2830162 0
-1.5263515 0.67261112 -0.28835785 0
-1.4406707 0.66944635 -0.28866023 0
-1.3422437 0.65839201 -0.29120487 0
-1.2584648 0.65422714 -0.29265109 0
-1.15285 0.64195853 -0.2942327 0
-1.0716801 0.65430665 -0.29658568 0
-0.97539604 0.66881341 -0.2990593 0
-0.88996017 0.66836083 -0.29825348 0
-2.8214164 0.72182214 -0.25479829 0
-2.7475281 0.76609093 -0.25527689 0
-2.6472256 0.73810548 -0.25821105 0
-2.5496552 0.75045651 -0.26000467 0
-2.4526303 0.7601735 -0.26197204 0
-2.3696697 0.73445988 -0.26463869 0
-2.2744787 0.7407794 -0.26699075 0
-2.1653636 0.75693619 -0.26839381 0
-2.065469 0.75542355 -0.27063823 0
-1.9722743 0.75367713 -0.27298635 0
-1.8621353 0.74214965 -0.27662891 0
-1.7397239 0.74308276 -0.27877885 0
-1.6314032 0.7469945 -0.28204992 0
-1.5649836 0.75176996 -0.28270349 0
-1.4521972 0.74185735 -0.28597274 0
-1.3316284 0.74016637 -0.28878385 0
-1.2547147 0.75494838 -0.28860888 0
-1.1416581 0.75566548 -0.29260412 0
-1.0375447 0.74256164 -0.29675707 0
-0.94882762 0.75084692 -0.29745543 0
-0.85188961 0.76723814 -0.29807165 0
-0.77980489 0.79385656 -0.29817861 0
-2.7420661 0.84987336 -0.25268 0
-2.63624 0.84488183 -0.25539351 0
-2.5384548 0.85383034 -0.25761938 0
-2.4378843 0.8590042 -0.25966397 0
-2.3482144 0.84024471 -0.26199773 0
-2.2515461 0.849374 -0.26378852 0
-2.1403661 0.87094498 -0.26692635 0
-2.0261562 0.85416859 -0.27069655 0
-1.9412028 0.85546303 -0.27245411 0
-1.8320296 0.85468823 -0.27448416 0
-1.7429099 0.84359986 -0.27611479 0
-1.6505264 0.84312952 -0.2782715 0
-1.5417954 0.84177756 -0.28018525 0
-1.4498485 0.84313858 -0.28218395 0
-1.350888 0.85137051 -0.28453508 0
-1.2342021 0.84645653 -0.28714803 0
-1.1482319 0.85212088 -0.29044655 0
-1.0414325 0.84071898 -0.29332507 0
-0.94830233 0.84604353 -0.29445478 0
-0.85380089 0.84468126 -0.29649007 0
-0.75466806 0.85505325 -0.29761249 0
-0.67834312 0.88352132 -0.29848686 0
-2.7191272 0.92890769 -0.25139099 0
-2.6606848 0.95159906 -0.25193948 0
-2.5480235 0.95270252 -0.25468132 0
-2.4517467 0.95698243 -0.25679412 0
-2.3610978 0.96076065 -0.25918448 0
-2.2672262 0.96056604 -0.26149747 0
-2.173532 0.95776111 -0.26429299 0
-2.045264 0.93642104 -0.26805609 0
-1.951385 0.95247078 -0.26816636 0
-1.8609847 0.95073396 -0.26992252 0
-1.7571579 0.94269943 -0.27306956 0
-1.6568661 0.95084286 -0.27497202 0
-1.5373446 0.9381603 -0.27863982 0
-1.4483446 0.94813049 -0.28021082 0
-1.3363101 0.95626992 -0.28294569 0
-1.2410156 0.95990139 -0.28494373 0
-1.1405514 0.94468564 -0.2882086 0
-1.0573528 0.96138775 -0.2883943 0
-0.93748504 0.9409079 -0.29256618 0
-0.84471363 0.947936 -0.29430857 0
-0.75361419 0.95793116 -0.29486543 0
-0.65853363 0.9469611 -0.29834729 0
-0.54067779 0.97378826 -0.29853511 0
-2.6402996 1.0391424 -0.25059295 0
-2.5396678 1.0619069 -0.25163749 0
-2.4417913 1.0622555 -0.2539078 0
-2.3454292 1.0605397 -0.25690532 0
-2.2449665 1.0540344 -0.25953642 0
-2.1444514 1.0445775 -0.26183867 0
-2.032012 1.0381141 -0.26358819 0
-1.9277829 1.0402764 -0.26730734 0
-1.8644127 1.0647683 -0.267142 0
-1.7432159 1.047267 -0.26966351 0
-1.6512555 1.0532814 -0.2745176 0
-1.5496454 1.0465302 -0.27553698 0
-1.4392344 1.034856 -0.27909496 0
-1.3528481 1.0619739 -0.27858958 0
-1.2429806 1.0497292 -0.2822907 0
-1.1527342 1.0485324 -0.28397918 0
-1.0401307 1.0438637 -0.28663421 0
-0.95935863 1.0492082 -0.28855705 0
-0.84759337 1.0562266 -0.29074925 0
-0.74091202 1.0399143 -0.29372773 0
-0.65317541 1.0643083 -0.29477456 0
-0.55690831 1.0576521 -0.29791692 0
-0.46284941 1.0706062 -0.29891312 0
-0.35205278 1.0594316 -0.29918417 0
-2.6124811 1.1068563 -0.24822994 0
-2.5608249 1.1635759 -0.24834864 0
-2.4462769 1.1626161 -0.25192869 0
-2.3423388 1.154577 -0.25411341 0
-2.2461205 1.1474932 -0.25649193 0
-2.1435406 1.1538174 -0.25849065 0
-2.0497479 1.1412865 -0.26113939 0
-1.9343754 1.1508588 -0.26293051 0
-1.8380158 1.1530678 -0.26663712 0
-1.7657677 1.1638843 -0.26689813 0
-1.641593 1.1431835 -0.27040458 0
-1.5409508 1.1398304 -0.27282697 0
-1.4435778 1.1500138 -0.27455598 0
-1.343277 1.1345336 -0.2785033 0
-1.2668135 1.1590638 -0.27809456 0
-1.1366643 1.1407459 -0.28264007 0
-1.051916 1.1506064 -0.28347129 0
-0.95080972 1.1339332 -0.28705361 0
-0.86487257 1.1635774 -0.28870231 0
-0.75007629 1.1546938 -0.29145363 0
-0.63952267 1.147243 -0.2934747 0
-0.54972583 1.1459707 -0.29568353 0
-0.46348336 1.1642803 -0.29713789 0
-0.37714732 1.1537862 -0.29771486 0
-2.5275378 1.2459271 -0.247953 0
-2.4696376 1.2616913 -0.24783498 0
-2.3633358 1.2503958 -0.25104338 0
-2.2573454 1.2501233 -0.25317511 0
-2.1660225 1.2677566 -0.2545518 0
-2.0710089 1.2523946 -0.25690114 0
-1.9603401 1.2475313 -0.26073268 0
-1.8482982 1.2675267 -0.26178983 0
-1.7505453 1.2586802 -0.26481286 0
-1.6592077 1.2457521 -0.26733255 0
-1.5587528 1.2417625 -0.2697112 0
-1.4434097 1.2547818 -0.27220294 0
-1.347759 1.2411588 -0.27486485 0
-1.2403432 1.2448126 -0.27791217 0
-1.1519525 1.2599772 -0.27803758 0
-1.0430224 1.2439106 -0.28190976 0
-0.95231682 1.2404569 -0.28458008 0
-0.83882892 1.23506 -0.28727388 0
-0.74276847 1.2655795 -0.28785312 0
-0.64884979 1.2440826 -0.29100713 0
-0.55824667 1.242329 -0.29254544 0
-0.43942893 1.2425185 -0.29637757 0
-0.35538605 1.2353027 -0.29714721 0
-0.24230467 1.2574611 -0.29829246 0
-0.14363497 1.2896026 -0.29969156 0
-2.4521682 1.3425431 -0.24623363 0
-2.3470681 1.3589319 -0.24849737 0
-2.2367821 1.352627 -0.25052288 0
-2.1258228 1.3487291 -0.25351849 0
-2.0474918 1.3475081 -0.25592604 0
-1.9619498 1.3594265 -0.25712603 0
-1.8645175 1.3587347 -0.25951135 0
-1.7466238 1.3510467 -0.2629624 0
-1.6632707 1.3524144 -0.26496097 0
-1.5509093 1.3482115 -0.26716554 0
-1.4537244 1.3582159 -0.26925054 0
-1.3508869 1.3557429 -0.27212462 0
-1.2447627 1.341944 -0.27448463 0
-1.1423318 1.3406249 -0.27726701 0
-1.0634485 1.3538556 -0.27896538 0
-0.95787811 1.3444639 -0.28175649 0
-0.85570961 1.3595371 -0.28371784 0
-0.74495131 1.339031 -0.28592142 0
-0.65176219 1.3339556 -0.28786132 0
-0.56048405 1.3634617 -0.29123747 0
-0.44543871 1.3512372 -0.29346302 0
-0.34584156 1.3499607 -0.29569471 0
-0.25225583 1.3483225 -0.29633024 0
-0.15171137 1.3620279 -0.29870278 0
-0.063674897 1.368006 -0.29899043 0
0.0049159732 1.3733828 -0.29997832 0
-2.423667 1.4186502 -0.24569686 0
-2.3667538 1.4544249 -0.24449593 0
-2.255851 1.453854 -0.24744542 0
-2.1483364 1.4506409 -0.25037646 0
-2.0432014 1.4446478 -0.25308815 0
-1.9472495 1.4621363 -0.25484771 0
-1.8225603 1.4519315 -0.25879303 0
-1.7362117 1.4522697 -0.2601088 0
-1.633171 1.4404489 -0.26286313 0
-1.5556905 1.4617857 -0.26488623 0
-1.4492971 1.4545064 -0.26689479 0
-1.3531547 1.4588157 -0.26882613 0
-1.2473738 1.4453666 -0.27141732 0
-1.1456877 1.4488411 -0.27456453 0
-1.0367175 1.4333022 -0.27797738 0
-0.94936353 1.4554425 -0.27802727 0
-0.84660119 1.4583026 -0.2803309 0
-0.75653845 1.4424804 -0.28303561 0
-0.65570658 1.4378335 -0.28597027 0
-0.53613907 1.4497105 -0.2901085 0
-0.45519137 1.4317478 -0.29159951 0
-0.34480017 1.4519157 -0.29194161 0
-0.25022653 1.4661245 -0.29246485 0
-0.15750833 1.4667567 -0.29461032 0
-0.077418044 1.4402027 -0.29816365 0
0.0258861 1.4447598 -0.29895133 0
-2.3223243 1.5443281 -0.24401617 0
-2.258708 1.5489775 -0.24571323 0
-2.171608 1.5589064 -0.24670902 0
-2.0691166 1.5536394 -0.24970399 0
-1.9570569 1.559076 -0.25256947 0
-1.8525504 1.5419022 -0.25532502 0
-1.7306204 1.5485891 -0.25798759 0
-1.6386163 1.5308771 -0.26161665 0
-1.5517426 1.5460269 -0.26221997 0
-1.4605035 1.5521278 -0.26325026 0
-1.3626028 1.5562224 -0.26580769 0
