# .PCD v0.7 - Point Cloud Data file format
VERSION 0.7
FIELDS x y z intensity
SIZE 4 4 4 4
TYPE F F F F
COUNT 1 1 1 1
WIDTH 142
HEIGHT 1
VIEWPOINT 0 0 0 1 0 0 0
POINTS 142
DATA ascii
-33.781734 8.4050779 0.59504139 8
-33.7225 7.8781514 1.8031099 9
-33.758575 8.3987169 3.0311277 10
-33.71595 7.876071 4.2395792 11
-33.637856 6.8464904 5.4266553 12
-33.732296 8.3912621 6.7443862 13
-33.742912 8.9093237 8.0440826 14
-33.662605 7.8624783 9.2508507 15
-33.561131 5.3397851 0.58479279 8
-33.45026 3.8552568 1.7585288 9
-33.503464 4.8385139 4.1488848 11
-33.485107 5.3267164 7.8196225 14
-33.451328 4.8304024 9.0486593 15
-33.321487 1.9139167 0.57941872 8
-33.373409 2.8791571 2.9260247 10
-33.267818 1.9107012 4.0884066 11
-33.365536 3.3610559 5.3060098 12
-33.384815 3.8472919 6.5262551 13
-33.243301 1.9091562 7.6843576 14
-33.239117 1.908868 8.9179363 15
-33.109543 -0.95008689 0.57972115 8
-33.19865 0.47627011 1.7392191 9
-33.152691 9.3460199e-05 2.9004345 10
-33.03484 -1.4222674 4.0622258 11
-33.017788 -1.4215059 5.236639 12
-33.149815 0.47553459 6.443511 13
-33.029625 -0.94767594 7.6301298 14
-32.853291 -4.2642951 0.58561033 8
-32.952511 -2.8426759 1.7381567 9
-32.941307 -2.8416641 2.8974276 10
-32.804928 -4.2577939 5.2465076 12
-32.801498 -4.2572908 6.4365773 13
-32.989193 -1.4201903 8.8499165 15
-32.790409 -4.255794 7.6409049 14
-32.772491 -4.2534099 8.862196 15
-32.001305 -15.24246 4.3792334 11
-31.9991 -15.8077 0.6516434 8
-31.995506 -15.806079 1.898643 9
-31.970308 -15.79378 3.1478844 10
-31.995678 -15.239909 5.6400638 12
-31.951681 -15.785037 6.9553108 13
-31.890276 -16.327806 8.3003998 14
-31.994497 -14.680679 9.4585009 15
-31.603008 -21.061617 0.70106918 8
-31.684479 -19.828775 1.9945108 9
-31.626856 -20.429783 3.3305297 10
-31.702631 -19.213926 4.5858521 11
-31.63409 -19.798693 7.2892323 13
-31.665283 -19.192631 9.9559755 15
-31.558485 -21.03371 6.0441346 12
-31.573242 -20.39677 8.7143612 14
-24.642269 -7.6538091 0.46390966 8
-24.627268 -7.6491337 1.3647872 9
-24.62512 -7.6484523 2.2690885 10
-24.614452 -7.6451235 3.1777096 11
-24.60713 -7.6428351 4.0939646 12
-24.606678 -7.6426792 5.0213118 13
-24.607634 -7.6429605 5.9616795 14
-24.57707 -7.633451 6.9085779 15
-13.177321 -26.12306 0.55053669 8
-13.172801 -26.1173 1.5722637 9
-13.170823 -26.116594 2.5978417 10
-13.167111 -26.112473 3.6292284 11
-13.162822 -26.107224 4.6690269 12
-12.685272 -26.093485 7.8118677 15
-11.087896 30.247757 2.8187616 10
-11.096123 30.262779 3.9578519 11
-11.096196 30.248051 6.2627306 13
-11.096248 30.240587 7.4366264 14
-11.098736 30.239622 8.6309633 15
-10.620378 30.29574 5.0857472 12
-9.9379578 -25.88323 6.4356213 14
-9.9374981 -25.886894 7.4646249 15
-9.2093744 -26.174858 0.52043003 8
-9.1915712 -26.129322 1.487107 9
-9.1899195 -26.129818 2.4583411 10
-9.1813984 -26.110765 3.4330454 11
-9.1711216 -26.086752 4.4139409 12
-9.1577444 -26.053932 5.4021888 13
-3.5407877 1.6944845 0.20461546 9
-3.242444 1.7287747 -0.19422387 6
-3.2390473 1.7265012 0.45014387 11
-3.1369715 1.7311966 0.061408222 8
-2.8751912 1.7533441 0.71634227 13.5
-2.7906873 1.7585391 -0.0587392 7
-2.4093781 -25.302336 0.46883851 8
-2.409126 -25.323042 1.357839 9
-2.4051797 -25.304543 2.2481203 10
-2.4035439 -25.310781 3.14569 11
-2.4021046 -25.319323 4.0518556 12
-2.302886 1.8020941 -0.25709441 5
-2.353102 3.1079767 -0.20483972 6
-2.2632418 1.8243746 -0.10244307 6.5
-2.3025618 2.551703 -0.060553741 7
-2.3582995 3.3072991 -0.0711753 7
-2.2635915 1.8243831 0.10105838 8.5
-2.3107216 2.6355624 0.060837977 8
-2.3552444 3.2044983 0.069246963 8
-2.2631459 1.8237556 0.30562574 10.5
-2.3487918 3.1954315 0.20782304 9
-2.3533404 3.2011745 0.34772784 10
-2.2594271 1.8205109 0.5124554 12.5
-2.2872775 2.3920026 0.40656704 11
-2.2629886 1.8230712 0.725887 14.5
-2.3253064 2.892921 0.72200823 13
-2.3571553 3.3036869 0.64319897 12
-2.3330028 3.0784554 1.0357987 15
-2.399888 -25.319862 4.9671898 13
-0.43232211 4.879427 1.3160137 15
-0.41283137 6.7403054 1.3183994 13
-0.26058275 5.6566443 1.3121071 14
-0.39365837 8.2702131 1.3188931 12
2.2272661 -3.8222811 1.0148505 14
2.8997462 9.2500048 1.1422493 11
3.0253234 -2.9432607 1.1225821 15
3.3606489 -9.3082924 0.1683775 8
3.4087143 -3.8151264 0.98424065 13
3.9258206 -4.2610283 0.9055239 12
4.0019531 -2.4820466 1.250085 15
4.8030024 -2.5133462 1.2354512 14
5.0868702 -7.1565194 0.44634262 9
5.1404409 12.438135 0.62961441 9
5.7339435 -5.5268598 0.67787814 10
5.9413514 -8.8715258 0.17142396 8
6.0580773 15.249782 0.19397181 8
6.37112 0.057503298 1.2083157 13
7.7394261 0.075234704 1.1861987 12
7.9494405 9.8228693 1.0247538 10
8.4702206 15.212872 0.19694394 8
9.0835943 9.7034922 0.14034927 8
9.0872478 9.7050867 0.60768789 9
9.698122 1.6546564 1.1503241 11
19.214258 -4.5534496 0.2509138 8
19.243631 -4.5583253 0.94407511 9
19.209923 -4.258122 1.6296792 10
39.269455 19.335697 0.47193989 8
39.304001 19.351311 2.0057147 9
40.95171 17.316784 3.5999014 10
41.789589 16.273756 2.0583398 9
43.930275 13.56814 0.50737548 8
44.407352 13.020589 2.1315525 9
45.353294 11.89618 3.808759 10
