# .PCD v0.7 - Point Cloud Data file format
VERSION 0.7
FIELDS x y z intensity
SIZE 4 4 4 4
TYPE F F F F
COUNT 1 1 1 1
WIDTH 1382
HEIGHT 1
VIEWPOINT 0 0 0 1 0 0 0
POINTS 1382
DATA ascii
-33.039436 -1.8975966 0.58083481 8
-33.086143 -1.4245574 0.58042002 8
-33.144032 -0.47548711 0.57934159 8
-33.164429 9.0461879e-05 0.57884103 8
-32.814034 -4.7385583 1.7456582 9
-32.851963 -4.2640676 1.7434069 9
-32.891422 -3.7904224 1.7416046 9
-32.924866 -3.316596 1.7398492 9
-33.004684 -2.3708842 1.7381169 9
-33.025021 -1.8967342 1.7367631 9
-33.060299 -1.4234178 1.7365581 9
-33.087425 -0.94943303 1.7362874 9
-33.141548 -0.47544047 1.7377945 9
-33.175354 9.1963382e-05 1.7385985 9
-32.804024 -4.7370567 2.9077914 10
-32.851456 -4.2639451 2.9054461 10
-32.871548 -3.7880788 2.901294 10
-32.914478 -3.3154995 2.8997664 10
-32.977314 -2.3688786 2.8964968 10
-33.013897 -1.8960619 2.8962176 10
-33.048252 -1.4228721 2.8963408 10
-33.088589 -0.9494471 2.8975894 10
-33.130043 -0.47526464 2.8995342 10
-33.197426 0.47624394 2.9038742 10
-32.84597 -4.2631764 4.0739717 11
-32.873497 -3.7882497 4.0694079 11
-32.902859 -3.3142791 4.0659237 11
-32.941582 -2.8416419 4.064446 11
-32.973808 -2.3685865 4.0630054 11
-33.009434 -1.8957714 4.0628238 11
-33.081028 -0.94921046 4.0650234 11
-33.112797 -0.47500625 4.066884 11
-33.150459 9.4963958e-05 4.0703115 11
-33.187843 0.47609779 4.074553 11
-32.85693 -3.7862866 5.2447815 12
-32.882668 -3.312196 5.239953 12
-32.931454 -2.8407228 5.2398901 12
-32.966721 -2.3680367 5.2387533 12
-33.004578 -1.8954575 5.239109 12
-33.05637 -0.94848329 5.2392731 12
-33.099949 -0.47481081 5.2437768 12
-33.13435 9.6496588e-05 5.2479105 12
-33.158531 0.47566867 5.2515149 12
-33.194473 0.95247567 5.2580662 12
-32.843082 -3.7846367 6.4326062 13
-32.87775 -3.3116498 6.4286199 13
-32.919102 -2.8396108 6.4272747 13
-32.940189 -2.3660898 6.4233007 13
-32.984707 -1.8942819 6.4252248 13
-33.033176 -1.4221402 6.4292378 13
-33.0583 -0.94851869 6.4300289 13
-33.093754 -0.47471094 6.4341564 13
-33.119453 9.7993252e-05 6.4377127 13
-32.834225 -3.7835608 7.6368661 14
-32.865402 -3.3103545 7.631474 14
-32.900753 -2.837981 7.6286368 14
-32.944309 -2.366344 7.6292763 14
-32.974533 -1.8936619 7.6284008 14
-33.003273 -1.4208245 7.6287541 14
-33.075241 -0.47443402 7.6375256 14
-33.113045 9.9557408e-05 7.6446881 14
-33.144554 0.47545019 7.6519818 14
-33.178059 0.95196366 7.6613145 14
-32.824638 -3.7823999 8.8598957 15
-32.852905 -3.3090429 8.8529825 15
-32.896843 -2.8375962 8.8521357 15
-32.929867 -2.3652644 8.8501701 15
-32.954723 -1.8924888 8.8478432 15
-33.02343 -0.94747776 8.8537521 15
-33.047707 -0.47402757 8.8567381 15
-33.104328 0.00010116853 8.8702173 15
-33.137386 0.47533831 8.8792181 15
-33.160736 0.951446 8.8874435 15
-33.196785 1.4291637 8.9009199 15
-32.404526 -10.576208 0.61392456 8
-32.653759 -7.1346822 0.595976 8
-32.697403 -6.6544871 0.59410894 8
-32.73423 -6.1745481 0.59225315 8
-32.782745 -5.6981649 0.59073591 8
-32.64386 -7.1324639 1.763574 9
-32.667736 -6.6483932 1.7586809 9
-32.73217 -6.1741009 1.7563565 9
-32.736721 -5.6901069 1.7511955 9
-32.782421 -5.2149258 1.7486162 9
-32.631924 -7.1298027 2.9345927 10
-32.671558 -6.6491141 2.928436 10
-32.695984 -6.1672201 2.9215589 10
-32.734718 -5.6896987 2.9165895 10
-32.776329 -5.2138991 2.912499 10
-32.62257 -7.1277051 4.1122899 11
-32.651707 -6.6450176 4.1026893 11
-32.69331 -6.1666555 4.0955486 11
-32.736355 -5.6899242 4.0894642 11
-32.77219 -5.2131796 4.0833483 11
-32.798153 -4.7361507 4.0768738 11
-32.600567 -7.1228414 5.2974343 12
-32.637753 -6.6421194 5.2866182 12
-32.688538 -6.1656952 5.2791471 12
-32.718239 -5.6867156 5.2693992 12
-32.737774 -5.2076468 5.2591472 12
-32.783894 -4.7340326 5.2542853 12
-32.601254 -7.1229372 6.4987369 13
-32.644753 -6.6434865 6.4869142 13
-32.689716 -6.1658587 6.476779 13
-32.711285 -5.6854472 6.4634004 13
-32.750168 -5.2095571 6.4548278 13
-32.7924 -4.7352014 6.4482803 13
-32.585278 -7.1193886 7.7125964 14
-32.625278 -6.6394644 7.6978984 14
-32.658573 -6.1599231 7.6832857 14
-32.702637 -5.6838818 7.6728525 14
-32.722713 -5.2051282 7.6584291 14
-32.768345 -4.731668 7.6516147 14
-32.569435 -7.115871 8.9451094 15
-32.612793 -6.6368632 8.9291162 15
-32.639526 -6.1562696 8.9105082 15
-32.696236 -5.6827083 8.901988 15
-32.716267 -5.2040405 8.8853712 15
-32.753159 -4.7294145 8.8752289 15
-32.058109 -15.269133 0.64747339 8
-32.097237 -14.727056 0.64308161 8
-32.123615 -14.185313 0.63861513 8
-32.167252 -13.65695 0.63466734 8
-32.206985 -13.132143 0.63081533 8
-32.251503 -12.614165 0.62721825 8
-32.284168 -12.096241 0.62355232 8
-32.323223 -11.585204 0.62016892 8
-32.364388 -11.078993 0.61698103 8
-32.202587 -50.546246 1.129935 8
-32.044308 -15.262681 1.8875197 9
-32.07513 -14.717017 1.8758694 9
-32.119076 -14.183392 1.8655084 9
-32.163841 -13.65557 1.8556964 9
-32.194756 -13.127209 1.8455824 9
-32.239475 -12.609495 1.8367387 9
-32.27132 -12.091451 1.8276321 9
-32.328526 -11.587115 1.8204185 9
-32.355968 -11.076109 1.8119763 9
-32.399174 -10.574449 1.80486 9
-32.013729 -15.248248 3.129477 10
-32.06525 -14.712593 3.1127346 10
-32.114014 -14.181245 3.096571 10
-32.149525 -13.649563 3.0799634 10
-32.180359 -13.121394 3.063736 10
-32.229744 -12.605732 3.0500677 10
-32.269241 -12.090699 3.0362382 10
-32.298344 -11.576309 3.0221949 10
-32.343094 -11.071704 3.0103674 10
-32.372047 -10.565589 2.9978004 10
-32.193436 -50.536343 3.2236047 9
-32.054867 -14.707934 4.3564219 11
-32.097195 -14.173907 4.3332701 11
-32.130405 -13.641517 4.3100643 11
-32.163921 -13.114745 4.2880559 11
-32.196438 -12.592742 4.267035 11
-32.246422 -12.08217 4.2494173 11
-32.283512 -11.571008 4.2311587 11
-32.330402 -11.067358 4.2152243 11
-32.369583 -10.564773 4.1993012 11
-32.195175 -50.543556 5.3260379 10
-32.09425 -14.172696 5.5818176 12
-32.112221 -13.633863 5.549531 12
-32.160587 -13.113438 5.5239897 12
-32.202129 -12.595007 5.4986963 12
-32.23954 -12.079617 5.4741006 12
-32.272305 -11.567 5.4500952 12
-32.300293 -11.057052 5.4266415 12
-32.357883 -10.560941 5.409472 12
-32.051884 -14.706677 5.6113892 12
-32.143574 -13.106558 6.7706017 13
-32.200005 -12.594217 6.7429113 13
-32.219524 -12.072143 6.7092137 13
-32.259457 -11.562409 6.6814704 13
-32.311531 -11.060898 6.6578751 13
-32.350239 -10.558434 6.6331224 13
-32.028221 -14.69593 6.8757176 13
-32.072083 -14.162998 6.8399959 13
-32.099174 -13.628399 6.8025537 13
-32.19862 -50.553497 7.4424624 11
-32.174507 -12.584279 7.9982233 14
-32.214817 -12.070403 7.9635496 14
-32.245651 -11.557472 7.9285383 14
-32.285378 -11.051946 7.8976769 14
-32.328751 -10.551411 7.8696141 14
-32.014683 -14.689828 8.1581554 14
-32.057388 -14.1566 8.1156311 14
-32.097694 -13.627845 8.0746889 14
-32.130058 -13.101101 8.0339012 14
-32.244099 -11.556926 9.1984015 15
-32.28384 -11.051419 9.1627321 15
-32.311703 -10.545837 9.1259241 15
-32.179173 -50.527512 9.5712423 12
-32.035206 -14.146897 9.4087467 15
-32.08263 -13.621522 9.363493 15
-32.13443 -13.102942 9.32197 15
-32.163284 -12.579931 9.2761984 15
-32.201797 -12.065552 9.2356005 15
-31.668009 -20.455568 0.69514072 8
-31.708523 -19.843462 0.68891239 8
-31.740652 -19.236002 0.68273932 8
-31.780613 -18.642685 0.6769647 8
-31.843515 -18.071136 0.67189509 8
-31.887047 -17.496389 0.66662413 8
-31.937723 -16.933163 0.66171032 8
-31.966955 -16.366001 0.65654808 8
-31.75086 -19.242512 1.9803176 9
-31.783415 -18.644619 1.9646642 9
-31.828609 -18.062935 1.9504333 9
-31.865091 -17.484571 1.9362868 9
-31.9128 -16.920147 1.9234246 9
-31.960346 -16.362791 1.911123 9
-31.600807 -21.060589 2.0280361 9
-31.649662 -20.444115 2.0113661 9
-31.918947 -16.923607 3.1909847 10
-31.946865 -16.356064 3.1691778 10
-31.679802 -19.826202 3.3050389 10
-31.724106 -19.226618 3.2797658 10
-31.771147 -18.637709 3.255863 10
-31.816175 -18.056141 3.2328043 10
-31.856052 -17.479839 3.2102439 10
-31.618347 -20.424686 4.6580939 11
-31.685064 -19.829865 4.6247697 11
-31.756002 -18.629114 4.5536647 11
-31.808069 -18.0518 4.5227427 11
-31.857985 -17.481129 4.4929242 11
-31.87991 -16.903116 4.4605608 11
-31.940699 -16.353086 4.4349818 11
-31.968596 -15.793086 4.4061303 11
-31.617342 -20.424442 5.9979172 12
-31.665827 -19.818188 5.9518037 12
-31.714317 -19.22134 5.9077096 12
-31.741222 -18.620745 5.8615785 12
-31.78455 -18.03871 5.8204074 12
-31.836618 -17.469637 5.7826638 12
-31.890469 -16.908915 5.7469997 12
-31.926756 -16.346125 5.7098913 12
-31.958759 -15.788381 5.6737156 12
-31.72736 -18.612907 7.183146 13
-31.767735 -18.029432 7.1322088 13
-31.815426 -17.458244 7.0851679 13
-31.863024 -16.894571 7.0402789 13
-31.90243 -16.333847 6.9956899 13
-31.98579 -15.235331 6.9136362 13
-31.687994 -19.205719 7.2366524 13
-31.850708 -16.888248 8.3531075 14
-31.930367 -15.774665 8.2502747 14
-31.975309 -15.230474 8.2037754 14
-31.633673 -19.798805 8.6509905 14
-31.678556 -19.200335 8.5862799 14
-31.732321 -18.616119 8.5268097 14
-31.757957 -18.024151 8.4625578 14
-31.805418 -17.452988 8.4068289 14
-31.9174 -15.768416 9.5672016 15
-31.965858 -15.226108 9.5144587 15
-31.700174 -18.597565 9.8812571 15
-31.752127 -18.021114 9.8150625 15
-31.803434 -17.452143 9.751729 15
-31.836287 -16.880814 9.685751 15
-31.882385 -16.323952 9.62673 15
-31.212944 -26.424786 0.76121813 8
-31.262924 -25.707006 0.75266314 8
-31.318335 -25.008869 0.74456459 8
-31.382057 -24.331408 0.73697472 8
-31.419477 -23.647232 0.72906935 8
-31.463615 -22.981504 0.72161639 8
-31.531158 -22.344906 0.71497798 8
-31.56418 -21.695459 0.70782357 8
-31.251545 -25.698462 2.1662216 9
-31.302708 -24.997137 2.1439855 9
-31.354328 -24.310598 2.1226993 9
-31.413496 -23.643364 2.1027977 9
-31.473829 -22.989546 2.0838065 9
-31.511219 -22.331303 2.0641093 9
-31.553589 -21.688663 2.0455341 9
-31.233393 -25.684349 3.5833089 10
-31.28673 -24.985126 3.5472465 10
-31.340452 -24.300526 3.5127444 10
-31.399042 -23.633116 3.4802353 10
-31.44696 -22.970501 3.4479375 10
-31.504684 -22.327202 3.4180574 10
-31.553057 -21.68878 3.3884506 10
-31.593458 -21.056133 3.3592503 10
-31.465616 -22.300045 4.7749286 11
-31.533417 -21.675768 4.7368021 11
-31.565647 -21.038038 4.6950755 11
-31.219515 -25.67375 5.0082765 11
-31.273605 -24.975399 4.9582763 11
-31.3326 -24.295132 4.9111662 11
-31.381029 -23.620193 4.8644309 11
-31.440184 -22.966131 4.8213124 11
-31.266773 -24.970699 6.3817158 12
-31.309187 -24.277674 6.3179369 12
-31.357161 -23.602867 6.2579365 12
-31.41213 -22.946224 6.2018561 12
-31.462814 -22.298597 6.1473436 12
-31.525911 -21.671095 6.0975623 12
-31.210686 -25.667315 6.4454551 12
-31.459679 -22.296915 7.5348315 13
-31.49865 -21.652851 7.4682593 13
-31.554836 -21.031727 7.4085398 13
-31.59972 -20.413464 7.3488083 13
-31.248621 -24.956964 7.8176951 13
-31.297346 -24.269196 7.7412863 13
-31.350027 -23.598141 7.6690807 13
-31.406576 -22.942762 7.6008983 13
-31.53981 -21.022167 8.7882366 14
-31.283556 -24.259216 9.1826162 14
-31.337923 -23.589689 9.0975904 14
-31.388754 -22.930342 9.0151939 14
-31.436655 -22.281153 8.9354935 14
-31.486423 -21.644951 8.8597269 14
-31.234829 -24.946728 9.2731218 14
-30.98357 -29.439438 0.79832047 8
-31.047686 -28.664898 0.78864664 8
-31.102446 -27.900381 0.77912533 8
-31.157263 -27.15378 0.7699818 8
-31.140924 -50.461216 1.1181104 8
-30.854912 -31.047861 0.81889963 8
-30.9282 -30.24206 0.80863082 8
-30.848753 -31.043049 2.3480151 9
-30.908484 -30.224058 2.3187175 9
-30.968594 -29.426397 2.2907033 9
-31.017893 -28.638491 2.2630911 9
-31.084496 -27.885302 2.2378824 9
-31.148655 -27.147228 2.2135718 9
-31.192669 -26.408491 2.1888711 9
-31.1429 -50.469101 3.1906741 9
-30.828907 -31.024464 3.88061 10
-30.894485 -30.211668 3.8333218 10
-30.946497 -29.406599 3.7864311 10
-31.010094 -28.632401 3.7429445 10
-31.081562 -27.883703 3.7022674 10
-31.127415 -27.129665 3.6603365 10
-31.179346 -26.398094 3.6208682 10
-31.05337 -27.859438 5.1713176 11
-31.109501 -27.115007 5.1147113 11
-31.155897 -26.379122 5.0589371 11
-31.135778 -50.462242 5.2700496 10
-30.801308 -30.998085 5.4194722 11
-30.87895 -30.197769 5.3557706 11
-30.936649 -29.398445 5.2914791 11
-30.995844 -28.620363 5.2302179 11
-30.984919 -28.611395 6.7298508 12
-31.034533 -27.843582 6.6525493 12
-31.097044 -27.105116 6.5812707 12
-31.156496 -26.38052 6.5124273 12
-30.807137 -31.005358 6.9766269 12
-30.862785 -30.183268 6.8898721 12
-30.932173 -29.395407 6.8099155 12
-31.125366 -50.450077 7.3609357 11
-31.138985 -26.366596 7.9776678 13
-31.196684 -25.65663 7.8966689 13
-30.90386 -29.369722 8.3385744 13
-30.971992 -28.600599 8.2447767 13
-31.023273 -27.834532 8.1506538 13
-31.082762 -27.093639 8.0626841 13
-30.828886 -30.151434 8.434803 13
-31.127035 -50.457554 9.4726181 12
-31.081095 -27.093182 9.5670805 14
-31.121878 -26.353025 9.4616146 14
-31.170099 -25.635605 9.3628263 14
-30.893831 -29.361439 9.8914394 14
-30.956047 -28.58703 9.7784166 14
-31.012981 -27.826368 9.6686611 14
-30.450693 -36.426582 0.89175719 8
-30.519922 -35.463753 0.87829733 8
-30.591778 -34.533497 0.86549973 8
-30.669176 -33.636921 0.85340881 8
-30.739258 -32.758137 0.84163433 8
-30.797941 -31.892017 0.83004791 8
-30.78146 -31.876438 2.3780432 9
-30.44278 -36.419258 2.5502212 9
-30.511595 -35.45607 2.5126331 9
-30.579538 -34.521542 2.4766846 9
-30.662577 -33.631401 2.4435558 9
-30.713314 -32.732086 2.4093819 9
-30.693926 -32.713036 3.9813044 10
-30.764996 -31.860882 3.9302747 10
-30.408344 -36.380207 4.2105026 10
-30.492821 -35.436264 4.150908 10
-30.561075 -34.50256 4.0919018 10
-30.628155 -33.595387 4.0354185 10
-30.683878 -32.703941 5.5628004 11
-30.743834 -31.840475 5.4897399 11
-30.405056 -36.378445 5.8835087 11
-30.469484 -35.411144 5.7966027 11
-30.55521 -34.49781 5.717679 11
-30.616951 -33.584831 5.6379781 11
-30.666945 -32.687523 7.1555119 12
-30.730118 -31.827784 7.0624337 12
-30.457777 -35.399567 7.4570799 12
-30.524645 -34.465176 7.3511429 12
-30.59713 -33.56485 7.2513738 12
-30.647263 -32.668194 8.7636557 13
-30.720692 -31.819551 8.6526709 13
-30.780218 -30.979692 8.5428085 13
-30.44594 -35.387859 9.1350012 13
-30.510284 -34.450871 9.0045853 13
-30.58543 -33.553787 8.8832617 13
-30.108082 -50.389202 1.1069614 8
-30.213793 -39.475216 0.93512261 8
-30.303028 -38.437485 0.92030007 8
-30.383503 -37.423527 0.90590113 8
-30.210478 -39.473557 2.6720278 9
-30.279308 -38.409863 2.6286972 9
-30.364307 -37.402176 2.5887969 9
-30.100615 -50.381588 3.157655 9
-30.256805 -38.383797 4.341157 10
-30.345648 -37.3815 4.2760987 10
-30.183762 -39.441299 4.4118161 10
-30.103058 -50.390583 5.217072 10
-30.326031 -37.359653 5.9717703 11
-30.169605 -39.425495 6.1620774 11
-30.251751 -38.379883 6.0653715 11
-30.094252 -50.380775 7.2872267 11
-30.384514 -36.356041 7.5665455 12
-30.151367 -39.404358 7.9250312 12
-30.224237 -38.347485 7.7983751 12
-30.302933 -37.333538 7.6792746 12
-30.093782 -50.384975 9.3771219 12
-30.210781 -38.332954 9.5522995 13
-30.291128 -37.321362 9.4070091 13
-30.371387 -36.342537 9.2686062 13
-30.128954 -39.377792 9.7044754 13
-29.089907 -50.308674 1.0959954 8
-29.091324 -50.316246 3.1271722 9
-29.081909 -50.305069 5.164587 10
-29.082489 -50.311234 7.2161779 11
-29.074221 -50.302135 9.2832232 12
-28.098743 -50.242397 1.0856957 8
-28.094324 -50.239845 3.0971014 9
-28.086262 -50.230789 5.1151166 10
-28.08359 -50.231419 7.1462564 11
-28.078381 -50.227543 9.1942215 12
-27.122189 -50.170486 1.0756149 8
-27.125978 -50.183113 3.0692985 9
-27.115335 -50.169029 5.0686984 10
-27.105019 -50.155598 7.0794234 11
-27.098549 -50.149323 9.1078043 12
-26.163389 -50.099876 1.0658859 8
-26.158731 -50.096825 3.0407033 9
-26.15407 -50.093773 5.0226235 10
-26.151024 -50.09388 7.0169935 11
-26.14835 -50.094727 9.0287848 12
-25.408661 -5.9348254 0.46580437 8
-25.411507 -5.935451 1.3778185 9
-25.406994 -5.9343562 2.2927432 10
-25.410213 -5.9350677 3.2139559 11
-25.413483 -5.9357905 4.1433692 12
-25.407698 -5.9343987 5.0815725 13
-25.406641 -5.9341097 6.0333323 14
-25.421713 -5.9375873 7.0049605 15
-24.657036 -7.2724791 0.46152806 8
-24.702988 -6.9026437 0.45983741 8
-24.735319 -6.5308404 0.45799798 8
-24.753977 -6.1575093 0.4560115 8
-24.660221 -7.2733974 1.3600544 9
-24.693939 -6.9000883 1.3556758 9
-24.716364 -6.5258045 1.3509895 9
-24.748865 -6.1562028 1.3471615 9
-24.66152 -7.2737584 2.2619674 10
-24.693142 -6.8998389 2.2549269 10
-24.710373 -6.5241923 2.2470918 10
-24.750404 -6.1565499 2.2418404 10
-24.633463 -7.2654638 3.1657617 11
-24.680111 -6.8961725 3.158097 11
-24.708803 -6.523746 3.1488457 11
-24.736847 -6.1531405 3.1402245 11
-24.62969 -7.2643294 4.0793457 12
-24.669537 -6.8931894 4.0685329 12
-24.693665 -6.5197163 4.0560513 12
-24.7208 -6.1491141 4.0449867 12
-24.627785 -7.2637444 5.0032282 13
-24.665586 -6.8920579 4.9896979 13
-24.671894 -6.513937 4.9709435 13
-24.717161 -6.1481719 4.9611707 13
-24.617676 -7.2607422 5.9376564 14
-24.653101 -6.8885412 5.921145 14
-24.671738 -6.5138631 5.9019599 14
-24.700888 -6.1440878 5.8866324 14
-24.613503 -7.2594886 6.8882289 15
-24.643211 -6.8857498 6.8675823 15
-24.658947 -6.5104532 6.8446231 15
-24.696329 -6.1429157 6.8292255 15
-20.051624 7.5182939 0.36366081 8
-20.050642 7.5175948 1.1122713 9
-20.060253 7.5208616 1.8645023 10
-20.072052 7.5249472 2.6223125 11
-20.059036 7.5197344 3.3833153 12
-20.074535 7.5251989 4.157671 13
-20.059374 7.5191731 4.9361968 14
-20.067297 7.5217891 5.73279 15
-14.18687 -49.211792 0.96054208 8
-14.187298 -49.225811 2.7509403 9
-14.176495 -49.200848 4.5454211 10
-14.171132 -49.194866 6.3516345 11
-14.16628 -49.190769 8.1733837 12
-13.409321 -49.149673 0.95477301 8
-13.406254 -49.151814 2.7350776 9
-13.403871 -49.156509 4.5224023 10
-13.395681 -49.139965 6.3183908 11
-13.38787 -49.12492 8.1289949 12
-13.164186 -26.113241 5.7225032 13
-12.460633 -1.7999715 -0.21674794 7
-12.540835 -0.90122855 -0.21799655 7
-12.562621 3.2845517e-05 -0.21929768 7
-12.536371 0.901115 -0.22081113 7
-12.47956 1.8035402 -0.22283262 7
-12.698717 -26.096989 0.54599726 8
-12.642765 -49.09985 0.94943941 8
-12.689216 -26.080801 1.5588576 9
-12.636666 -49.090488 2.7205589 9
-12.681387 -26.068069 2.5745668 10
-12.689504 -26.088182 3.6000996 11
-12.63614 -49.102867 4.4995904 10
-12.690179 -26.09301 4.6333694 12
-12.679433 -26.074352 5.6734519 13
-12.626448 -49.079651 6.2859621 11
-12.676399 -26.071623 6.7304645 14
-12.62502 -49.088741 8.0914698 12
-12.025359 -4.5059729 -0.21629846 7
-12.218853 -3.6043377 -0.21614146 7
-12.354204 -2.6999552 -0.21613306 7
-12.368212 2.7049153 -0.2249313 7
-12.201777 3.602721 -0.22708271 7
-12.023708 4.5107851 -0.2301086 7
-12.220214 -26.055382 0.54128408 8
-12.356657 22.151031 0.43577614 8
-12.209328 -26.035673 1.5454183 9
-12.360513 22.154455 1.3226353 9
-12.214003 -26.049204 2.5550284 10
-12.206579 -26.036926 3.5683856 11
-12.20957 -26.046919 4.593504 12
-12.20173 -26.033808 5.6258578 13
-12.201816 -26.037685 6.6757212 14
-12.203491 -26.045025 7.7440386 15
-11.786029 -5.40763 -0.21686491 7
-11.745926 -26.006319 0.53656644 8
-11.817008 22.298973 0.43451616 8
-11.877286 -49.025295 0.94381827 8
-11.749531 -26.018032 1.5340743 9
-11.816978 22.295324 1.3164934 9
-11.874967 -49.031147 2.7067707 9
-11.738965 -25.998325 2.5331261 10
-11.745095 -26.015678 3.5418899 11
-11.872368 -49.035912 4.4766102 10
-11.744308 -26.017719 4.5580463 12
-11.741367 -26.015026 5.5847011 13
-11.865612 -49.023567 6.2555585 11
-11.740175 -26.016266 6.6262374 14
-11.737313 -26.013865 7.6837831 15
-11.862022 -49.02446 8.0512152 12
-11.497703 -6.3080416 -0.2178335 7
-11.286198 -25.97353 0.53233075 8
-11.406027 22.690598 0.43819785 8
-11.28847 -25.982677 1.5221266 9
-11.40941 22.693357 1.3260883 9
-11.282917 -25.973795 2.5145533 10
-11.281759 -25.97508 3.5138142 11
-11.275467 -25.964546 4.5197749 12
-11.275915 -25.969612 5.5395017 13
-11.273889 -25.969015 6.5721793 14
-11.275576 -25.977062 7.6241927 15
-11.157654 -7.2055359 -0.21921052 7
-10.831117 -25.935999 0.52813554 8
-11.085483 30.255795 0.56282306 8
-11.128125 -48.989956 0.93914074 8
-10.828137 -25.932962 1.509776 9
-11.08418 30.244961 1.6884677 9
-11.120443 -48.972733 2.6936398 9
-10.828227 -25.937311 2.4955494 10
-10.830173 -25.946135 3.4883497 11
-11.114936 -48.965172 4.454318 10
-10.827803 -25.944641 4.488637 12
-11.093206 30.247419 5.1028118 12
-10.825467 -25.943279 5.5000205 13
-11.114053 -48.97813 6.2279563 11
-10.820024 -25.934502 6.5233154 14
-10.816361 -25.930082 7.5639033 15
-11.111951 -48.985855 8.0170517 12
-11.103187 -48.96434 9.820838 13
-10.77161 -8.1042356 -0.22117457 7
-10.609034 30.294289 0.56169569 8
-10.609051 30.286684 1.6831592 9
-10.611114 30.28488 2.8087685 10
-10.614386 30.286472 3.9416454 11
-10.620401 30.287931 6.23981 13
-10.622982 30.287294 7.4108858 14
-10.622786 30.278629 8.5987368 15
-10.339846 -9.0068913 -0.22382703 7
-10.385129 -25.904972 0.52420545 8
-10.135356 30.330076 0.56067151 8
-10.378596 -48.925144 0.93407774 8
-10.379566 -25.895403 1.4985607 9
-10.137206 30.327562 1.6782279 9
-10.372651 -48.915119 2.6811473 9
-10.389789 -25.925312 2.4796004 10
-10.136415 30.317125 2.7990258 10
-10.384027 -25.915289 3.4636199 11
-10.140812 30.32213 3.9279828 11
-10.370396 -48.922611 4.4355969 10
-10.378841 -25.906744 4.4556656 12
-10.14681 30.331831 5.0678782 12
-10.372921 -25.896408 5.4577761 13
-10.364194 -48.911552 6.1990862 11
-10.147164 30.32461 6.2177668 13
-10.374788 -25.905605 6.4777455 14
-10.374397 -25.909237 7.5134344 15
-10.147906 30.318438 7.3831573 14
-10.359968 -48.909996 7.9786253 12
-10.153247 30.325832 8.5709343 15
-10.358162 -48.92009 9.7802849 13
-9.8543625 -9.9095745 -0.22710592 7
-9.9454479 -25.874798 0.52042329 8
-9.6672964 30.372475 0.55991966 8
-9.6391659 -48.87915 0.92955333 8
-9.9470549 -25.883566 1.4892418 9
-9.6667938 30.362438 1.6733836 9
-9.6327496 -48.866203 2.6697128 9
-9.9446611 -25.881922 2.4613302 10
-9.6639347 30.344988 2.7895725 10
-9.9395876 -25.873312 3.4383795 11
-9.6734858 30.366339 3.9163833 11
-9.6304512 -48.874287 4.4173341 10
-9.9421768 -25.884727 4.4266787 12
-9.6695623 30.345448 5.0475073 12
-9.9361343 -25.873688 5.4221725 13
-9.6231308 -48.856934 6.173131 11
-9.668004 30.331869 6.1912298 13
-9.6743488 30.34289 7.3556094 14
-9.6207361 -48.864815 7.9470196 12
-9.676137 30.339521 8.5357494 15
-9.6158094 -48.860039 9.7387877 13
-9.3124142 -10.811797 -0.23106597 7
-9.5127363 -25.848143 0.51683635 8
-9.3296337 30.834442 0.5669986 8
-9.5104294 -25.846695 1.4788704 9
-9.3186264 30.789125 1.6904387 9
-9.5024891 -25.829927 2.4429262 10
-9.3079987 30.745047 2.8148589 10
-9.5036221 -25.8379 3.414964 11
-9.2941475 30.690336 3.9416409 11
-9.5038815 -25.843534 4.3956246 12
-9.2829981 30.644457 5.0756412 12
-9.501277 -25.841429 5.386055 13
-9.5016212 -25.847414 6.3919249 14
-9.2720928 30.599314 6.2191014 13
-9.4977465 -25.841991 7.4113784 15
-9.2589893 30.546848 7.3731713 14
-9.2493544 30.505659 8.5453663 15
-8.9538612 -29.437494 0.57635182 8
-9.0517921 -28.294838 0.55673164 8
-9.1278629 -27.182491 0.53759599 8
-8.9025812 -48.818642 0.92492348 8
-9.0355864 -28.250378 1.5920032 9
-9.117918 -27.158524 1.5378952 9
-8.9466867 -29.420872 1.6503123 9
-8.8975124 -48.812313 2.6585734 9
-8.9376612 -29.398155 2.7264893 10
-9.0205269 -28.209526 2.6281989 10
-9.1079569 -27.134514 2.5401444 10
-9.0954094 -27.102814 3.5458112 11
-8.9205942 -29.348951 3.8042223 11
-9.0111513 -28.18651 3.6701243 11
-8.8934221 -48.811451 4.398726 10
-9.0043688 -28.171671 4.720758 12
-9.0906973 -27.094549 4.561799 12
-8.9174824 -29.345814 4.8953838 12
-9.0854273 -27.084682 5.5882049 13
-8.9048004 -29.311195 5.9920731 13
-8.9939041 -28.145348 5.7796845 13
-8.8906975 -48.818237 6.1505494 11
-9.0755196 -27.061037 6.6245894 14
-9.1495771 -26.036045 6.4052324 14
-8.8962069 -29.29014 7.1045647 14
-8.9832916 -28.118629 6.8511071 14
-9.1423845 -26.021017 7.4241185 15
-8.8855801 -48.812038 7.9159431 12
-8.9747868 -28.098635 7.9399343 15
-9.0546045 -27.004572 7.6667995 15
-8.8854885 -29.262177 8.2317133 15
-8.8800459 -48.803791 9.7002306 13
-8.6923428 -11.687896 -0.235268 7
-8.021472 -12.572845 -0.24053411 7
-8.0168953 12.629603 -0.26579469 7
-8.1715088 -48.757854 0.92046225 8
-8.1674643 -48.757378 2.6479402 9
-8.1644039 -48.762878 4.3823595 10
-8.1568947 -48.741886 6.1245718 11
-8.154089 -48.749271 7.8849945 12
-8.1486025 -48.74086 9.6624994 13
-7.2958627 -13.472434 -0.24702527 7
-7.2744102 13.513535 -0.27092987 7
-7.4477053 -48.710365 0.91642016 8
-7.4419308 -48.698799 2.6376617 9
-7.4391146 -48.706764 4.3662524 10
-7.4344196 -48.702549 6.1045771 11
-7.4299803 -48.700249 7.8579888 12
-7.4242363 -48.689651 9.6292067 13
-6.486248 -14.340914 -0.25400519 7
-6.4717031 14.411994 -0.2767801 7
-6.5882707 39.59375 0.71955705 8
-6.7290497 -48.667461 0.91262734 8
-6.5937314 39.604782 2.1228843 9
-6.7238421 -48.659149 2.6289499 9
-6.5938768 39.58395 3.5293822 10
-6.7182131 -48.647877 4.3508182 10
-6.6019707 39.610477 4.9490185 11
-6.7128425 -48.638649 6.0828023 11
-6.6044874 39.6035 6.3774586 12
-6.7076216 -48.630768 7.8293734 12
-6.705781 -48.647831 9.5998468 13
-6.0118909 39.632889 0.72028995 8
-6.0175004 39.645863 2.1218905 9
-6.0206842 39.64283 3.528208 10
-6.0252657 39.648804 4.9441347 11
-6.0265594 39.633034 6.3692732 12
-5.5986233 -15.187166 -0.26179069 7
-5.2485771 -1.5487285 -0.28415266 6
-5.3367734 -1.1668876 -0.28433704 6
-5.4139109 -0.78254801 -0.28539208 6
-5.4209213 -0.38987502 -0.28420922 6
-5.4228606 0.19476782 -0.28486919 6
-5.3728819 0.77746493 -0.28565374 6
-5.3165798 1.1643854 -0.28686142 6
-5.2326016 1.5474551 -0.28801578 6
-5.5777993 15.265374 -0.28224024 7
-5.438118 39.680813 0.72135538 8
-5.4407244 39.673256 2.1206355 9
-5.4470253 39.69239 3.5269651 10
-5.4487543 39.678215 4.9392071 11
-5.4527988 39.680588 6.3653464 12
-4.86274 -2.6672437 -0.28604344 6
-5.0152087 -2.3009818 -0.28519672 6
-5.149621 -1.929879 -0.28488755 6
-5.1257234 1.9263864 -0.28936279 6
-5.0290251 41.057892 0.74667883 8
-5.0001755 40.793228 2.178124 9
-4.9730697 40.542973 3.5975239 10
-4.9341965 40.197639 4.9962268 11
-4.9104652 39.975071 6.4023151 12
-4.6430826 -16.049801 -0.27117586 7
-4.4834075 -3.3707983 -0.28819573 6
-4.6988592 -3.0331137 -0.28786719 6
-4.6088414 16.113249 -0.28816095 7
-4.0224934 -4.0396595 -0.29206944 6
-4.2706766 -3.7164407 -0.2904186 6
-4.1611271 1.6678234 -0.079988375 7
-4.1566901 1.6658944 0.23349054 9
-4.1573682 1.6660454 0.62880969 11.5
-4.1378255 1.66491 0.99674541 13.8
-4.2277756 1.6591214 1.2166407 15
-3.7558999 -4.3530946 -0.29427484 6
-3.7534437 1.6962457 -0.12087306 6.6666665
-3.78686 1.6945461 0.21636157 9
-3.7717288 1.6974347 0.62472874 11.8
-3.8016391 1.6907988 0.99094141 14.2
-3.5953727 -16.866907 -0.28126761 7
-3.4697473 -4.655158 -0.29698208 6
-3.2847996 -1.2311966 -0.30460933 5
-3.3371007 -0.98501313 -0.3025941 5
-3.4131203 -0.61988348 -0.30257428 5
-3.4560966 -0.24876095 -0.30272353 5
-3.4531379 0.12477741 -0.30270928 5
-3.4040432 0.61922652 -0.30383083 5
-3.3395426 0.98917723 -0.306086 5
-3.2631743 1.2285637 -0.30662966 5
-3.4182222 1.7188749 -0.1354752 6.5
-3.5587299 16.955851 -0.29460731 7
-3.396934 1.7207072 0.19866908 9
-3.4204726 1.721979 0.60629046 12
-3.3864193 1.7218832 0.96152854 14.6
-2.8274484 -5.2021885 -0.30282724 6
-3.1560504 -4.932775 -0.29946524 6
-2.8386281 -2.1326923 -0.30667812 5
-3.0269151 -1.8036221 -0.30508476 5
-3.17836 -1.4581828 -0.303202 5
-3.1670499 1.4610326 -0.30685976 5
-3.0199468 1.7401941 -0.15982023 6.1999998
-3.1199863 4.9403672 -0.3069827 6
-2.9796698 1.7564715 0.18115856 9
-3.1491086 -25.354183 0.47254208 8
-2.9678488 1.7527555 0.58073092 12.285714
-3.0238075 1.7530898 0.87176448 14.5
-3.1457856 -25.34461 1.3645178 9
-3.1451414 -25.35688 2.2610946 10
-3.1428185 -25.355602 3.1623962 11
-3.1415298 -25.362907 4.0728049 12
-3.1389394 -25.359808 4.9918647 13
-3.1361098 -25.355003 5.9229259 14
-3.135572 -25.369196 6.8739934 15
-2.4694247 -5.4340892 -0.30545592 6
-2.5280139 -2.5354314 -0.30871442 5
-2.6711283 -2.3221278 -0.30541804 5
-2.404037 -0.90120614 -0.31327489 4
-2.4699306 -0.63404453 -0.31194878 4
-2.5253091 -0.27319473 -0.31152129 4
-2.5238953 0.22769776 -0.31212136 4
-2.4504373 0.6320104 -0.31194583 4
-2.6210234 1.7800634 -0.14585155 6.1999998
-2.7747393 5.1857595 -0.30815956 6
-2.4229143 5.4346695 -0.31080118 6
-2.4157302 17.760944 -0.30110115 7
-2.5869877 1.7827816 0.21988836 9.5
-2.4088578 3.8213794 0.39547592 10
-2.7791069 -25.335758 0.47078997 8
-2.5880189 1.7821901 0.61172384 13
-2.5653493 1.7877473 0.83881158 15
-2.7775013 -25.340982 1.3614297 9
-2.7751586 -25.339487 2.2551589 10
-2.7723522 -25.333838 3.1537971 11
-2.7691762 -25.324934 4.0593114 12
-2.7690115 -25.344101 4.9798455 13
-2.7660999 -25.338152 5.9085159 14
-2.7614219 -25.316179 6.8475833 15
-2.1025345 -5.6680236 -0.30968297 6
-2.1618702 -2.8939755 -0.31118575 5
-2.3482647 -2.7169073 -0.30946028 5
-2.1599267 -1.3934916 -0.31310156 4
-2.3185718 -1.0636874 -0.31087884 4
-2.3475933 0.98426384 -0.31411105 4
-2.1357343 1.3929626 -0.31500918 4
-2.3251703 1.8496625 -0.13598706 6.1999998
-2.2927835 2.2094886 -0.16744031 6
-2.3159428 2.6139357 -0.16017051 6.1999998
-2.3023081 2.9708607 -0.16913676 6.1999998
-2.3750789 3.3848422 -0.14304835 6.5
-2.3895531 3.6749563 -0.076625861 7
-2.0533111 5.6693702 -0.31384909 6
-2.3033924 1.8704649 0.20756733 9.5
-2.2899601 2.2234173 0.22291884 9.5
-2.3194847 2.6220863 0.18349229 9
-2.3470085 3.0179372 0.20062049 9
-2.3712003 3.4223239 0.23693313 9.125
-2.3906155 3.6952724 0.23082367 9
-2.3079832 1.8594909 0.64985621 13.666667
-2.2856982 2.2232077 0.59171152 12.75
-2.3137088 2.6022284 0.58787036 12.285714
-2.345798 3.0402107 0.6092481 12
-2.367239 3.4117057 0.59838867 11.6
-2.3872659 3.728142 0.62265831 11.5
-2.2670009 1.993636 0.80994475 15
-2.288667 2.2294443 0.8573457 15
-2.3162787 2.6554317 0.900967 14.666667
-2.3408871 3.0369635 0.9713279 14.6
-2.3666987 3.4376843 0.96413612 14
-2.3885477 3.7092116 1.0194043 14
-2.3936927 3.7948828 1.2029548 15
-2.3962159 -25.305176 5.8915834 14
-2.394088 -25.307379 6.8345914 15
-1.7136031 -5.8730249 -0.31385291 6
-1.7522938 -3.2122707 -0.31525964 5
-1.9680052 -3.0672123 -0.31391662 5
-1.8393222 -1.8430362 -0.31641388 4
-1.6348284 -1.2265331 -0.32044619 3
-1.7765712 -0.97410369 -0.31883082 3
-1.95058 -0.50091326 -0.31786376 3
-1.8079823 -0.32191041 -0.31992593 2.5
-1.793494 0.32068083 -0.31907433 2.5
-1.9031899 0.60324949 -0.31788573 3
-1.7573909 0.97487068 -0.32018039 3
-1.6064854 1.2250096 -0.32116336 3
-1.8062893 1.8417643 -0.31812993 4
-1.91953 3.0553782 -0.31557274 5
-1.7152082 3.2248392 -0.31880236 5
-1.6641212 5.8840852 -0.31704342 6
-1.3046389 -6.0445251 -0.31784013 6
-1.4116538 -3.4079218 -0.318295 5
-1.4278613 -2.2202735 -0.32054904 4
-1.2460016 -1.6606631 -0.3248466 3
-1.4406101 -1.441204 -0.31960288 3
-1.3196626 -1.0265291 -0.32214352 2
-1.3349975 -0.67089772 -0.32226709 1.3333334
-1.3711513 -0.30053487 -0.32285535 1
-1.3635359 0.30078697 -0.32331213 1
-1.3111324 0.6685394 -0.32143024 1.3333334
-1.2903891 1.0247279 -0.32199964 2
-1.4049646 1.4373083 -0.31958687 3
-1.2002916 1.6503348 -0.32314867 3
-1.3827111 2.2139127 -0.32058796 4
-1.3692588 3.4219284 -0.3207266 5
-1.2523377 6.060185 -0.31947184 6
-0.80394459 -3.6790388 -0.32569626 5
-1.0534844 -3.5798342 -0.32227817 5
-1.0268545 -2.4659104 -0.32432464 4
-1.0271847 -1.7940284 -0.3240594 3
-1.0034264 -1.3683637 -0.32669368 2
-1.0155828 -1.0134649 -0.32491264 1
-1.0608362 -0.69570154 -0.32404354 0.25
-1.1874684 -0.2604064 -0.3244262 0
-1.1839225 0.26154813 -0.32590842 0
-1.047941 0.6900565 -0.32522121 0.25
-0.99363744 1.0115434 -0.32593906 1
-0.95921093 1.3772898 -0.32659715 2
-0.98486876 1.7953336 -0.32387215 3
-0.97876137 2.4653721 -0.32379067 4
-0.99906093 3.5738275 -0.32133827 5
-0.82215118 6.1936841 -0.3210519 6
-1.1797117 18.551262 -0.3081457 7
-1.0806301 15.317249 0.28133044 8
-0.98137778 12.674233 0.67705959 9
-0.83278328 10.800759 0.95700556 10
-0.67577058 -2.6143181 -0.32850003 4
-0.52937824 -2.0271137 -0.32892153 3
-0.6135025 -1.7300792 -0.32847366 2.3333333
-0.61344665 -1.3803812 -0.33028775 1.25
-0.66363364 -1.0468985 -0.32928687 0
-0.6228981 1.0486933 -0.32806793 0
-0.64592654 1.3327938 -0.32622653 1.25
-0.56539702 1.7371484 -0.32731915 2.3333333
-0.47767359 2.0379419 -0.32783955 3
-0.61757904 2.5995116 -0.32445276 4
-0.61702341 3.7148373 -0.32473606 5
-0.63976979 15.322807 0.28240821 8
-0.61692011 12.687963 0.67776293 9
-0.55401188 9.4266357 1.1680123 11
-0.56111604 10.814688 0.95758158 10
-0.51019299 6.7417226 1.3197367 13
-0.57236415 8.2699432 1.3200555 12
-0.38020825 -1.6771444 -0.33118236 2
-0.30660465 -1.3293856 -0.33474034 0.5
-0.36842617 -1.1999984 -0.33211148 0
-0.14065985 1.312619 -0.33515161 0.42857143
-0.1294046 1.6972842 -0.33503869 2
-0.13156228 2.1035373 -0.33757624 3
-0.19836886 2.6989558 -0.33564961 4
-0.16637766 3.794457 -0.34031492 5
-0.25550419 6.3422666 -0.34290975 6
-0.19539189 19.224289 -0.39869156 7
-0.18990527 15.309254 0.26115575 8
-0.15871188 12.685177 0.65986699 9
-0.11999819 9.4140949 1.1523659 11
-0.063742228 10.764519 0.90602797 10
-0.13389693 10.81807 0.95795298 10
-0.18449493 4.8754511 1.3076284 15
-0.089319743 5.6533031 1.3035613 14
-0.13681878 6.7228241 1.3047479 13
-0.10632905 8.2500648 1.3037748 12
0.3789947 -6.4652205 -0.33673626 6
0.24008876 -3.8624055 -0.33760008 5
0.23331781 -2.7491043 -0.33874828 4
0.1995023 -2.1253052 -0.33826047 3
0.18717048 -1.731535 -0.33915541 2
0.21186341 -1.3650167 -0.33923301 0.60000002
0.30196887 1.1509352 -0.35107276 0
0.26480684 1.377624 -0.35328847 1
0.30309767 1.6587172 -0.35545641 2
0.27869779 2.0691381 -0.35643652 3
0.1884928 2.7070503 -0.35765916 4
0.16260976 3.8189168 -0.35972461 5
0.33594644 6.4199791 -0.36924899 6
0.15998842 15.288008 0.2138346 8
0.35139632 -5.9849691 0.73627692 11
0.16552666 12.640861 0.61849713 9
0.34613132 -5.3051438 0.84118265 12
0.30672881 -4.7463899 0.92283165 13
0.30546239 -4.2949667 0.99161029 14
0.27640986 -3.9221628 1.0503888 15
0.23976353 9.3806219 1.1198158 11
0.24726878 10.783769 0.90580624 10
0.27648869 4.8088036 1.2779741 15
0.37399188 5.5778332 1.273298 14
0.1726574 5.611619 1.2794917 14
0.24352008 6.6521759 1.27257 13
0.25846624 8.1754856 1.2679567 12
0.47149301 -6.4631987 -0.33721694 6
0.54553384 -3.8610215 -0.341288 5
0.67100829 -2.7066774 -0.34453589 4
0.54663277 -2.0847831 -0.34404859 3
0.58400518 -1.6489269 -0.34390977 2
0.6235947 -1.319154 -0.34326091 1
0.55393136 -1.134065 -0.3452428 0
0.60141027 1.0364105 -0.35719863 0
0.64123291 1.3532987 -0.35850415 1.3333334
0.51786762 1.6052091 -0.35754973 2
0.58124322 2.0015101 -0.35898331 3
0.58553362 2.6547813 -0.36193389 4
0.58191407 3.790659 -0.36449924 5
0.65804291 -9.7161789 0.17416476 8
0.60110426 15.298372 0.21099184 8
0.57006019 -8.0628023 0.4260467 9
0.5870074 -6.856029 0.60291475 10
0.58644199 -5.9724073 0.73661053 11
0.6672197 12.643729 0.61598951 9
0.59215873 -5.2884216 0.84160894 12
0.57757539 -4.7302032 0.92432445 13
0.58068144 -4.2708907 0.99238724 14
0.58183324 -3.8847358 1.0494316 15
0.64695275 9.377758 1.1192981 11
0.59741795 10.77503 0.9039948 10
0.66746736 4.7486553 1.2711363 15
0.67507887 5.5396538 1.2701157 14
0.67297745 6.5963249 1.2653468 13
0.63985968 8.1296368 1.2620499 12
1.1969672 19.339773 -0.41198656 7
0.92459679 -12.241832 -0.2079566 7
0.94387871 -6.4988909 -0.34316301 6
0.96209455 -3.8117681 -0.34606513 5
1.0562589 -2.6041019 -0.34954527 4
0.97987676 -1.9305131 -0.34912628 3
0.97035724 -1.4535429 -0.34862679 2
0.97413343 -1.0242183 -0.35081288 0.75
1.1039516 -0.57139689 -0.35451663 0
1.1897298 -0.32973361 -0.35572106 0
1.1718296 0.28501189 -0.35749468 0
1.0730072 0.52469748 -0.35802087 0
0.96260673 0.96466434 -0.36084944 0.80000001
1.0090492 1.3489164 -0.36275795 2
0.91349351 1.8869519 -0.3641009 3
0.97627747 2.5555935 -0.36708915 4
1.0053693 3.74669 -0.37135026 5
0.81123459 6.45963 -0.37722743 6
0.96966827 -9.6871796 0.17329137 8
1.0433621 15.300798 0.2082884 8
0.88484561 -8.0209522 0.42449859 9
1.1130996 -7.9893451 0.42370588 9
0.84812945 -6.8319016 0.60248351 10
1.0903229 -6.7910876 0.60130131 10
0.98922801 -5.9168739 0.73528844 11
1.0338576 12.647707 0.61496669 9
1.0032287 -5.217432 0.83929968 12
0.97902888 -4.6604581 0.9228605 13
1.005363 -4.2008939 0.99379563 14
0.98261052 -3.8172317 1.0523669 15
1.055307 9.3656521 1.1198835 11
1.0262798 10.763778 0.90302557 10
1.0982164 4.6544132 1.2666224 15
1.0694937 5.4508133 1.2628022 14
0.99571234 6.5386767 1.2609308 13
1.0762979 8.0634861 1.256572 12
1.2262384 -19.717127 -0.33213779 7
1.4186916 -6.4766402 -0.3480711 6
1.3741665 -3.7177663 -0.3506619 5
1.3364112 -2.4937143 -0.3536461 4
1.5125701 -2.3951881 -0.35550037 4
1.3387606 -1.706853 -0.35319632 3
1.3705016 -1.4131265 -0.35490882 2.5
1.3568804 -1.0018874 -0.35739434 1.75
1.4229401 -0.61826175 -0.35826021 1.3333334
1.3642465 -0.18114746 -0.36045501 0.66666669
1.3551139 0.13971584 -0.36136311 0.66666669
1.4010758 0.59665936 -0.36609635 1.3333334
1.3678333 1.0236436 -0.36781111 2
1.5320992 1.4700933 -0.37096551 3
1.2922583 1.6769214 -0.36923954 3
1.4428958 2.3533447 -0.37276626 4
1.2608619 2.4460914 -0.37071872 4
1.4270406 3.6541564 -0.37819776 5
1.2940925 6.4633427 -0.38500291 6
1.3477607 -9.627718 0.1719624 8
1.552471 -9.5884666 0.17120181 8
1.4867952 15.29599 0.20573646 8
1.3676299 -7.9397736 0.42246634 9
1.4319757 -6.7455978 0.60193682 10
1.3916279 -5.8510065 0.73613065 11
1.4037012 12.660876 0.6149736 9
1.377719 -5.1516719 0.84147447 12
1.358186 -4.5857754 0.92592692 13
1.3928872 -4.098834 0.99520701 14
1.3890827 -3.7026124 1.055185 15
1.4651935 9.3430319 1.1214387 11
1.420503 10.767052 0.90470248 10
1.4902742 4.512835 1.2578561 15
1.4507345 5.3438272 1.2575707 14
1.4460511 6.4337649 1.2550855 13
1.5644872 7.9582634 1.2502549 12
1.3347927 8.0060205 1.2523199 12
1.7910552 -12.106101 -0.20976646 7
1.9046513 -6.4505301 -0.35485753 6
1.6562555 -3.6551158 -0.35645103 5
1.9236623 -3.5476911 -0.36002302 5
1.7631314 -2.2235303 -0.35858104 4
1.6884124 -1.3948486 -0.36110523 3
1.9279712 -1.0334791 -0.36547375 3
1.6654423 -0.51047194 -0.36110547 2
1.7337451 -0.2304828 -0.36649793 2
1.7199836 0.19278093 -0.36711922 2
1.6596282 0.47607994 -0.36793154 2
1.8925914 0.99727154 -0.37343332 3
1.7037841 1.302163 -0.37428403 3
1.7922292 2.1345909 -0.37815744 4
1.836903 3.5088801 -0.38361779 5
1.7814519 6.4293423 -0.39249924 6
1.7964034 -9.5699902 0.17090523 8
1.8216929 15.299683 0.20408042 8
1.7966987 -7.8799911 0.42253768 9
1.8219332 -6.6774802 0.60300517 10
1.7372656 -5.7833896 0.7381134 11
1.7721759 12.643187 0.61404943 9
1.7694541 -5.0614433 0.84508413 12
1.7830534 -4.4847059 0.93337423 13
1.6643612 -4.0283632 1.0011727 14
1.7513524 -3.868892 1.0244401 14.333333
1.809316 -3.5651121 1.0659628 15
1.8424364 9.31394 1.1237885 11
1.8135984 10.741864 0.90517586 10
1.8450927 4.3756418 1.2556938 15
1.7508435 4.4192696 1.2571664 15
1.9990932 5.1303563 1.248612 14
1.7784207 5.225925 1.252474 14
1.8774409 6.2937794 1.2484194 13
1.8722324 7.8602166 1.2441109 12
2.2746711 6.3691034 -0.4004336 6
2.38853 -6.3726959 -0.3610003 6
2.1870399 -3.424592 -0.36412311 5
2.0096102 -2.0399535 -0.36392495 4
2.2182722 -1.8132305 -0.36679718 4
2.10357 -0.59192896 -0.36981386 3
2.1549954 -0.23814905 -0.36989716 3
2.1553593 0.20715164 -0.37300658 3
2.0830722 0.55869246 -0.3742829 3
2.3639324 1.5373262 -0.38224339 4
2.1688614 1.7811588 -0.38090885 4
2.234514 3.3191826 -0.38930273 5
2.2113326 -9.5107975 0.17007639 8
2.1593568 15.307453 0.20263423 8
2.2016208 -7.8262882 0.42373604 9
2.2119572 -6.5970969 0.60493708 10
2.248759 -5.6690106 0.74391776 11
2.142077 12.621644 0.61352336 9
2.1640322 -4.9603882 0.85176468 12
2.178211 -4.3501992 0.93984014 13
2.0819345 -3.885464 1.0117112 14
2.1750097 -3.4216919 1.0805064 15
2.2230301 9.2820683 1.1278492 11
2.25089 10.719104 0.90771443 10
2.1942055 4.1867847 1.250073 15
2.2895532 4.9964275 1.2456642 14
2.2416821 6.1593604 1.2445077 13
2.2296646 7.7303767 1.2371823 12
2.763869 6.2606864 -0.40749276 6
2.6079211 19.373617 -0.42519289 7
2.6651144 -12.007565 -0.21354945 7
2.4363098 -3.2731621 -0.36735985 5
2.6728387 -3.1005599 -0.37033936 5
2.5158641 -1.3908052 -0.37258667 4
2.7280469 -0.91664511 -0.37674671 4
2.7463982 0.79497212 -0.38504913 4
2.630615 1.0875604 -0.38480166 4
2.4792817 1.3633286 -0.38315159 4
2.6071658 3.0801778 -0.39345723 5
2.594085 -9.454195 0.16948982 8
2.6111257 15.305017 0.20073414 8
2.6014376 -7.7388225 0.4241854 9
2.6070831 -6.5127225 0.60858279 10
2.6029334 -5.5691481 0.74861431 11
2.6576855 12.603689 0.61437827 9
2.4781384 -4.8529997 0.85652685 12
2.6665034 -4.7907062 0.86119199 12
2.5801473 -4.207747 0.95238644 13
2.4822428 -3.2753835 1.0943333 15
2.6718481 -3.1803732 1.105615 15
2.6440721 9.2477722 1.1345538 11
2.6094215 10.686938 0.90975308 10
2.6255395 3.914072 1.2453831 15
2.7722962 4.7160497 1.238566 14
2.5712981 4.8461008 1.2425401 14
2.705641 5.937499 1.2371202 13
2.5597594 6.0169868 1.2401621 13
2.7734303 7.5247312 1.2306991 12
2.5586221 7.6135139 1.2335126 12
2.8684483 -6.2525344 -0.36699086 6
2.9067984 -2.9198895 -0.37456524 5
3.1146002 -2.7092741 -0.37718576 5
2.843874 -0.51415855 -0.38144037 4
2.8905194 -0.20191185 -0.3843838 4
2.8594298 0.28221819 -0.38451836 4
2.8015647 0.59213543 -0.38466418 4
3.065738 2.6981645 -0.39882389 5
2.8392351 2.8945098 -0.3957639 5
2.9434958 -9.3964577 0.16904108 8
3.0671113 15.302093 0.19907604 8
2.9778676 -7.6598372 0.42563885 9
2.9057417 -6.4431515 0.61207515 10
3.1034639 -6.3871479 0.61422771 10
3.0220792 -5.4481196 0.7573331 11
3.0856688 12.593747 0.61610532 9
2.9735887 -4.6874208 0.87115878 12
2.9431903 -4.0465503 0.96422231 13
3.1164672 -3.9771819 0.97305137 13
2.9172473 -3.0270877 1.1186218 15
3.0564032 9.2762852 1.1502141 11
3.0545886 10.65322 0.91432029 10
3.1200168 3.5084293 1.2396498 15
2.9125371 3.687016 1.2408385 15
3.0492492 4.5343533 1.2367754 14
3.0562243 5.7407455 1.2321088 13
3.0523863 7.3902278 1.2260213 12
3.4579654 2.2420022 -0.40227208 5
3.2473886 6.1111956 -0.41407302 6
3.5498002 -11.896835 -0.21854325 7
3.3504059 -6.1083436 -0.37390658 6
3.3141654 -2.4885836 -0.38060346 5
3.5027289 -2.2556849 -0.38452849 5
3.2605577 2.4707589 -0.39955917 5
3.3650806 -9.3190346 0.16859172 8
3.4115818 15.296661 0.19794364 8
3.2530379 -7.6306462 0.4286443 9
3.4254713 -7.5797348 0.42916882 9
3.4048445 -6.3029461 0.61859274 10
3.3853679 -5.3272324 0.76588845 11
3.4673922 12.569732 0.61757898 9
3.3730972 -4.5252237 0.88429707 12
3.2881773 -3.8995771 0.98182136 13
3.4232514 10.622869 0.91899633 10
3.5171764 3.1074333 1.2387336 15
3.3253076 3.3025229 1.2373267 15
3.4327137 4.225122 1.2316188 14
3.4180655 5.5190921 1.2288439 13
3.5228522 7.1459785 1.2197797 12
3.3446944 7.2413683 1.2217773 12
3.9060264 1.4519527 -0.4049975 5
3.6946015 1.8553302 -0.40316001 5
3.721046 5.9202447 -0.42009884 6
3.8226783 -5.9209409 -0.380624 6
3.735311 -1.8691461 -0.38869974 5
3.9324117 -1.4616574 -0.39305285 5
3.7635667 -9.2639542 0.16870469 8
3.7639742 15.30879 0.19720185 8
3.788763 -7.5053582 0.43248549 9
3.8178627 -6.1904988 0.62648511 10
3.6483598 -5.2304301 0.77274662 11
3.8732536 -5.1487932 0.77991879 11
3.854913 12.548844 0.61984277 9
3.617775 -4.4098287 0.89260048 12
3.7596657 -4.354363 0.89983267 12
3.7944319 10.582125 0.92403799 10
3.9448411 -2.5660887 1.2495137 15
3.887094 2.5691848 1.2301536 15
3.6921918 2.8755646 1.2352191 15
3.8287158 3.8433361 1.2269405 14
3.9806359 5.0940666 1.2222847 13
3.7184145 5.2915654 1.2234195 13
3.8657012 6.9522047 1.2167372 12
4.1989698 -0.27885237 -0.40147334 5
4.199966 0.27101839 -0.40430406 5
4.1588845 0.57413387 -0.40470955 5
4.0466142 1.0177648 -0.40433058 5
4.1884847 5.6987047 -0.4262844 6
4.0618939 19.453278 -0.44116744 7
4.276679 -5.6854134 -0.38673121 6
4.0804 -1.0307167 -0.39735678 5
4.1697073 -0.58261305 -0.39996284 5
4.0942736 -9.2156029 0.1689072 8
4.3124595 -9.1702118 0.16889955 8
4.2332444 15.299374 0.196078 8
4.1793733 -7.4014611 0.43568754 9
4.2101703 -6.070405 0.63477844 10
4.1855063 -5.0177555 0.78978473 11
4.2453985 12.519849 0.6223526 9
4.3703456 9.2500792 1.1997473 11
4.2507105 10.519364 0.93057919 10
4.0464849 -2.429697 1.2527758 15
4.1565957 -2.2003167 1.2482719 15
4.3398142 -1.7580559 1.2415627 15
4.3050489 1.7692357 1.2290279 15
4.1108704 2.1893082 1.2295249 15
4.1982307 3.4163859 1.2237215 14
4.3886566 4.7072721 1.216017 13
4.1903338 4.9061561 1.2194451 13
4.2474198 6.6769624 1.2091297 12
4.184196 9.3762875 1.2048804 11
4.6418772 5.4389157 -0.43206245 6
4.4614553 -11.796683 -0.22527342 7
4.7313137 -5.4314599 -0.39417341 6
4.6135588 -9.1221628 0.16923536 8
4.5893831 15.291903 0.1953893 8
4.5578446 -7.3179374 0.44044229 9
4.4024453 -6.0197515 0.64004761 10
4.5828094 -5.9465556 0.64360923 10
4.6423016 12.491881 0.62558132 9
4.5607328 -4.8691664 0.80492002 11
4.6293626 9.1077375 1.197084 11
4.5947075 10.487044 0.93773633 10
4.4671988 -1.3974247 1.2403876 15
4.5565882 -1.0258144 1.2369168 15
4.6239123 -0.6040923 1.2342471 15
4.6461062 -0.2004174 1.2302071 15
4.6469855 0.20346108 1.2298554 15
4.6115093 0.6066941 1.2292621 15
4.5389371 1.0049932 1.2281786 15
4.4410572 1.3986535 1.2296958 15
4.7223077 2.6106241 1.219749 14
4.4900804 2.9970784 1.2203717 14
4.7492013 4.3100324 1.2113235 13
4.5789146 4.5015521 1.2129769 13
4.7738972 6.2821589 1.2041249 12
4.479033 6.5084519 1.206515 12
5.1636391 -5.1333351 -0.40115371 6
5.0817223 5.1456308 -0.43773529 6
5.0321345 -9.0452576 0.16973248 8
4.9527216 15.29142 0.19495369 8
4.90734 -7.2278867 0.44490933 9
4.9898539 -5.7995772 0.65425545 10
4.9472976 12.478096 0.62880075 9
4.8288803 -4.7303724 0.81435043 11
5.1887183 8.7498569 1.189762 11
4.9431691 8.9131451 1.1930332 11
5.1942329 10.391441 0.9492256 10
4.9324694 10.426885 0.94342315 10
4.8430257 -2.4461634 1.2363331 14
4.9515309 -2.1957619 1.2338357 14
5.1119785 -1.7771678 1.2314473 14
5.199204 -1.4979119 1.2301589 14
5.1727953 1.5074301 1.2187763 14
5.0653424 1.8217742 1.2174633 14
4.9159837 2.2043273 1.2182523 14
5.054122 3.9289656 1.208876 13
4.9099736 4.1110177 1.2093142 13
4.9899006 6.0951004 1.2015556 12
5.5616493 -4.7871776 -0.40710843 6
5.4867663 4.8028798 -0.44181994 6
5.5732346 19.535372 -0.45926541 7
5.4049201 -11.6862 -0.23352455 7
5.386385 -8.9871941 0.17042801 8
5.4392371 15.275238 0.19438526 8
5.4080553 -5.64112 0.66650498 10
5.4542909 12.426917 0.63368344 9
5.4023643 5.7020512 1.1973189 12
5.4322343 8.5852365 1.1874667 11
5.4530988 10.34195 0.95441872 10
5.2440357 -1.3081642 1.2282428 14
5.2971644 -1.0010767 1.2246594 14
5.3623395 -0.59755343 1.2245824 14
5.3842158 -0.20845799 1.2220485 14
5.3803735 0.22003189 1.2203873 14
5.3474016 0.64089882 1.2197402 14
5.2828259 1.0122458 1.2177455 14
5.2207403 1.3180754 1.2182114 14
5.5725698 3.1060071 1.2048134 13
5.4008479 3.4077528 1.2061113 13
5.2113624 3.6989284 1.206766 13
5.2041502 5.907043 1.2004451 12
5.9552655 -4.423593 -0.41441724 6
5.8810992 4.4378872 -0.44651413 6
5.7055712 -8.9287357 0.17108957 8
5.8139668 15.27387 0.19426604 8
5.7241988 -5.5166492 0.67673862 10
5.8726726 12.394094 0.63882405 9
5.9181666 5.0973191 1.1898705 12
5.6962295 5.3930893 1.1954741 12
5.8346467 8.2649908 1.1811186 11
5.6686373 8.4107313 1.1846302 11
5.8076463 10.282016 0.96284795 10
5.9274564 2.3290589 1.2034867 13
5.8154793 2.6074085 1.2041223 13
5.6979947 2.8843215 1.2062796 13
6.2925339 -4.0071278 -0.41966435 6
6.2356367 4.031117 -0.44981435 6
6.3236303 15.271839 0.19435537 8
6.2915678 12.343723 0.64382035 9
6.2976937 4.605135 1.1884644 12
6.0615072 4.9224358 1.1894079 12
6.2807088 7.8870292 1.1757858 11
6.0612216 8.0799007 1.17854 11
6.2161174 10.213778 0.97372991 10
6.3594093 0.21826468 1.2064474 13
6.3252053 0.63055176 1.2043953 13
6.2795243 1.018602 1.2044103 13
6.2001176 1.4015656 1.2028128 13
6.1004934 1.7956619 1.2025374 13
6.0162368 2.0912344 1.2038761 13
6.6104679 -3.5698116 -0.42555475 6
6.5628481 3.5969548 -0.45287073 6
6.4129272 -11.603588 -0.24429446 7
6.5813799 15.267165 0.19445629 8
6.6189065 12.319174 0.64876944 9
6.7411804 3.8849878 1.1852123 12
6.5491037 4.2074471 1.1857426 12
6.7041745 7.4870167 1.1709756 11
6.499064 7.6941104 1.1739885 11
6.6245136 10.128901 0.98441994 10
6.9079223 -3.1114647 -0.43206888 6
7.148984 -2.6195209 -0.43711096 6
7.0904593 2.6401227 -0.45597717 6
6.8437662 3.1294739 -0.45459512 6
7.1661062 19.63242 -0.48011807 7
6.9724016 15.256218 0.19469848 8
6.9441128 12.277913 0.65335816 9
7.1293154 3.0432146 1.181666 12
6.9850907 3.3782282 1.1824911 12
6.8426805 3.6838546 1.1839439 12
