# .PCD v0.7 - Point Cloud Data file format
VERSION 0.7
FIELDS x y z intensity
SIZE 4 4 4 4
TYPE F F F F
COUNT 1 1 1 1
WIDTH 150
HEIGHT 1
VIEWPOINT 0 0 0 1 0 0 0
POINTS 150
DATA ascii
-34.271091 8.0108309 0.59510088 8
-34.223701 7.4831004 1.8180133 9
-34.253925 8.0061655 3.0585747 10
-34.208668 7.4792256 4.2816653 11
-34.008377 4.4170742 0.58761036 8
-34.026291 5.4158249 5.4438558 12
-34.144062 6.952734 6.7563577 13
-34.179867 7.4720216 8.0593433 14
-34.195549 7.9908433 9.3901262 15
-33.816063 1.9432355 1.7702193 9
-33.996857 4.4153056 2.98844 10
-33.884285 3.4150877 4.1730561 11
-33.829369 2.4313159 5.3657532 12
-33.802364 2.4293127 6.5813279 13
-33.912491 3.909898 7.8713951 14
-33.834862 2.920011 9.0922661 15
-33.622555 -0.96527666 0.58956683 8
-33.603607 -0.96471518 1.7642379 9
-33.734722 0.96849245 2.9501343 10
-33.647354 9.6877746e-05 4.1313224 11
-33.600517 -0.48222944 5.3235192 12
-33.527229 -1.444132 6.5267258 13
-33.57402 -0.48182818 7.7531466 14
-33.486027 -1.4423084 8.9845724 15
-33.369053 -4.3333516 0.59864581 8
-33.349865 -4.3308282 1.7736825 9
-33.340405 -4.329567 2.9525638 10
-33.398766 -3.3659143 4.1302438 11
-33.391434 -3.3651407 5.3240972 12
-33.307728 -4.3252258 6.5399151 13
-33.337418 -3.8435357 7.757514 14
-33.289803 -4.3228302 9.0062284 15
-32.628193 -13.860563 1.8941987 9
-32.611229 -13.853926 4.3866649 11
-32.430679 -16.613123 0.67958653 8
-32.416779 -16.606976 3.2297719 10
-32.504345 -14.923685 5.7038484 12
-32.589882 -13.84544 6.9191871 13
-32.518322 -14.369892 9.5644932 15
-32.326012 -17.748491 1.9788094 9
-32.307114 -17.739286 4.5714064 11
-32.200439 -18.903437 5.9628382 12
-32.32819 -17.153032 7.1585488 13
-32.361477 -16.580616 8.4384918 14
-32.215504 -18.297932 9.9758797 15
-32.117588 -20.759415 0.72116888 8
-32.083168 -20.738943 3.3954697 10
-32.027962 -21.361776 4.7816339 11
-32.04454 -20.716675 7.470706 13
-32.078972 -20.093082 8.7913361 14
-25.127853 -7.8081431 0.47972128 8
-25.12849 -7.8084149 1.3992879 9
-25.116489 -7.8047609 2.3211591 10
-25.105145 -7.801312 3.2479396 11
-25.092308 -7.7973981 4.1816745 12
-25.082354 -7.7943811 5.1254964 13
-25.084099 -7.7950015 6.084384 14
-25.069601 -7.790575 7.0544739 15
-13.646064 -26.151487 0.56699359 8
-13.652091 -26.168144 1.5986255 9
-13.645027 -26.159683 2.6328731 10
-13.640058 -26.155275 3.6734116 11
-13.635554 -26.151814 4.7227836 12
-13.131291 -26.106956 7.8821497 15
-11.56418 30.234283 6.2784276 13
-10.357407 -25.911112 4.4655547 12
-10.349839 -25.906763 6.4870629 14
-10.345201 -25.902615 7.5204763 15
-9.6522274 -26.280659 0.53425598 8
-9.6457949 -26.271048 1.5119097 9
-9.6325922 -26.242962 2.4907255 10
-9.6273661 -26.23671 3.4763908 11
-9.6054754 -26.193138 5.4680152 13
-3.4658878 1.7196906 0.06504146 8
-3.5919616 1.7175124 0.62914503 12
-3.4917686 -25.360376 2.2690408 10
-3.4897478 -25.369967 3.1737075 11
-3.4873836 -25.377266 4.0865283 12
-3.3764629 1.7368245 -0.2020795 6
-3.369951 1.7333682 -0.068907902 7
-3.2668209 1.7398051 0.71852314 13
-3.2717159 1.7421426 0.99280459 15
-2.8394053 2.7993996 -0.21228912 6
-2.8297222 1.7818017 -0.060803849 7
-2.8802116 3.4765971 -0.081856139 7
-2.8958876 3.5989497 0.077934258 8
-2.8370342 2.8777575 0.20961152 9
-2.9051242 3.6097949 0.24049109 9
-2.8134155 1.7708668 0.52576131 12
-2.889873 3.5901616 0.48265475 10.5
-2.8959394 3.5968077 0.73008484 12
-2.8924193 3.5919056 0.89546567 13
-2.8962777 3.5960903 1.0653583 14
-2.8807971 3.5764356 1.2302098 15
-2.7775137 1.8057451 -0.17638972 6
-2.7783644 1.8059204 0.11398741 8.5
-2.7700057 1.8002919 0.28765827 10
-2.7577233 1.7922019 0.40280065 11
-2.7670937 1.797875 0.70135891 13.5
-2.7717843 1.8006696 0.88586152 15
-2.7812283 2.2353787 0.95621407 15
-2.3856966 -25.280056 0.4694255 8
-2.3819547 -25.27636 1.3565701 9
-0.94958371 15.286419 0.27954575 8
-0.96510577 12.658508 0.67526716 9
-0.81937999 10.792333 0.95594871 10
-0.84598076 9.391469 1.1655769 11
-0.73840696 8.2301426 1.3160623 12
0.35635191 -5.9957285 0.73712409 11
0.31203759 -5.3074799 0.84124291 12
0.27605283 -4.7487593 0.92340183 13
0.24686578 -4.2954664 0.99177682 14
0.22171725 -3.9051948 1.0462471 15
0.59754455 -9.7415657 0.17249382 8
0.48977527 -8.0678663 0.42462912 9
0.41350123 -6.8832698 0.60353583 10
2.7240608 9.3045607 1.1281687 11
2.9954164 -3.4364243 1.0390432 14
3.5193148 -2.6092596 1.157665 15
4.148356 9.4112749 1.1871884 11
4.5885696 -3.0942209 1.0503985 13
4.7736955 15.332194 0.17582187 8
4.7430139 -3.8298271 0.93931359 12
4.8814683 -2.4390304 1.2322843 14
5.3948884 -5.6405215 0.65366215 10
5.273263 -4.5092592 0.82220453 11
5.7803073 -6.9770131 0.44478154 9
6.3720965 0.091221437 1.1893783 13
6.4777083 -8.7907925 0.15852873 8
7.7777324 0.11246787 1.1687227 12
7.8738718 15.308955 0.16582972 8
8.5258589 9.7426033 0.10523611 8
8.5189228 9.7303724 0.55923694 9
8.5314837 9.7401838 1.0159806 10
8.8949299 4.4336085 1.1257428 11
18.714148 -4.3799605 0.19244966 8
18.717407 -4.3784084 0.86621863 9
18.742321 -4.3818855 1.5441046 10
18.712202 -4.0897965 2.2122579 11
38.472218 19.781172 0.33943489 8
38.477196 19.779415 1.853438 9
38.507595 19.790686 3.3744719 10
40.941025 16.762056 1.8976113 9
41.377308 16.24781 3.4677327 10
41.833103 15.734641 5.0646453 11
42.189224 15.187028 0.35678643 8
44.453465 12.476315 3.6096363 10
44.475288 12.481461 5.2414932 11
44.854744 11.898142 0.37706575 8
44.897141 11.908638 2.0027149 9
