# .PCD v0.7 - Point Cloud Data file format
VERSION 0.7
FIELDS x y z intensity
SIZE 4 4 4 4
TYPE F F F F
COUNT 1 1 1 1
WIDTH 1357
HEIGHT 1
VIEWPOINT 0 0 0 1 0 0 0
POINTS 1357
DATA ascii
-1.5603688 -1.5483034 -0.30177495 0
-1.4557831 -1.5471025 -0.30376306 0
-1.3522258 -1.5367347 -0.30511239 0
-1.2490404 -1.5465466 -0.30859905 0
-1.1472712 -1.5624889 -0.30844489 0
-1.0517478 -1.5454975 -0.31052524 0
-0.95764232 -1.5455402 -0.31298274 0
-0.85102808 -1.5677119 -0.31406873 0
-0.75072366 -1.53672 -0.31623 0
-0.64450765 -1.5363567 -0.31838071 0
-0.54346645 -1.5365478 -0.31835759 0
-0.44725993 -1.5660155 -0.31882256 0
-0.33952996 -1.5526555 -0.32256395 0
-0.25992975 -1.5525407 -0.32358289 0
-0.14970109 -1.5451994 -0.32417971 0
-0.050242186 -1.5612085 -0.32609081 0
0.054541878 -1.5419269 -0.32975897 0
0.14509639 -1.5450269 -0.33084568 0
0.25633284 -1.5551866 -0.33209494 0
0.35530484 -1.5497454 -0.33324647 0
0.44700745 -1.5387231 -0.33576852 0
0.55263388 -1.5431455 -0.33649802 0
0.66175705 -1.5670334 -0.33779991 0
0.74456954 -1.5618228 -0.34003651 0
0.85046637 -1.540033 -0.34203485 0
0.93894511 -1.5570594 -0.34315053 0
1.0426602 -1.5318575 -0.34471804 0
1.1316749 -1.5600437 -0.34652117 0
1.2453264 -1.5425198 -0.34865081 0
1.3574562 -1.5278515 -0.3508727 0
1.4589739 -1.5504808 -0.35205555 0
1.5663105 -1.5718845 -0.35306793 0
1.6221699 -1.5329458 -0.35420913 0
1.7361367 -1.5533783 -0.35580069 0
1.8653723 -1.5525817 -0.35803166 0
1.9533364 -1.5486768 -0.35961786 0
2.0508795 -1.547824 -0.36221614 0
2.1469133 -1.5410666 -0.36278996 0
2.2432146 -1.5383935 -0.36524269 0
2.3508482 -1.5390334 -0.36673224 0
2.4459913 -1.5518612 -0.36800054 0
2.558188 -1.5618989 -0.37022462 0
2.6200933 -1.5085462 -0.37121925 0
-1.7245747 -1.477782 -0.30054092 0
-1.639333 -1.4458994 -0.3021493 0
-1.5254569 -1.4456674 -0.30378637 0
-1.4366002 -1.441819 -0.3043299 0
-1.33452 -1.4387684 -0.30602756 0
-1.259549 -1.4594673 -0.30734125 0
-1.1496133 -1.4537911 -0.3100622 0
-1.0536509 -1.4394906 -0.3109687 0
-0.95536089 -1.4479059 -0.31286976 0
-0.84503752 -1.445207 -0.31643403 0
-0.75089645 -1.4388903 -0.31735769 0
-0.66149604 -1.4643044 -0.3178679 0
-0.56268901 -1.4479171 -0.31955072 0
-0.44152412 -1.4532168 -0.32052237 0
-0.35824642 -1.4524821 -0.32294205 0
-0.2472752 -1.4572699 -0.32405078 0
-0.14805374 -1.4310063 -0.32561713 0
-0.053454567 -1.4368941 -0.32708508 0
0.044531908 -1.4320461 -0.32970393 0
0.15159912 -1.4401917 -0.3321839 0
0.25406325 -1.4345834 -0.33336151 0
0.34594178 -1.4375887 -0.33445299 0
0.45830578 -1.4603168 -0.33623978 0
0.55447888 -1.4357374 -0.33835334 0
0.63856846 -1.4540116 -0.33842623 0
0.75360948 -1.4532205 -0.34133366 0
0.8437019 -1.4532677 -0.3428421 0
0.95334387 -1.4586202 -0.34332985 0
1.040225 -1.4405032 -0.34658545 0
1.1399521 -1.4483886 -0.34806415 0
1.2536761 -1.4524461 -0.34970468 0
1.3483945 -1.4329537 -0.35159954 0
1.4441364 -1.4493035 -0.3519519 0
1.537661 -1.4531099 -0.35333109 0
1.6606507 -1.4753015 -0.35495263 0
1.7356832 -1.4400439 -0.35665342 0
1.8633059 -1.4411353 -0.3598291 0
1.9670873 -1.4552507 -0.36104813 0
2.0535948 -1.444726 -0.36263347 0
2.1428924 -1.4471335 -0.36405471 0
2.2532012 -1.4522362 -0.36570638 0
2.3501573 -1.4442282 -0.36671907 0
2.4502802 -1.4422489 -0.36875227 0
2.5501249 -1.4522136 -0.37029532 0
2.6418912 -1.4465091 -0.3708027 0
-1.8331202 -1.3359716 -0.30087268 0
-1.7615744 -1.3493705 -0.30178967 0
-1.6490653 -1.3447373 -0.30206805 0
-1.5454156 -1.3514576 -0.30447289 0
-1.4356951 -1.3412522 -0.30632117 0
-1.3539728 -1.3588458 -0.3065303 0
-1.2386822 -1.3547322 -0.3085753 0
-1.1425734 -1.3432914 -0.3104865 0
-1.04743 -1.3401698 -0.31181636 0
-0.94168925 -1.3368342 -0.31379583 0
-0.86034918 -1.3561913 -0.3155379 0
-0.75371522 -1.3421761 -0.31799033 0
-0.64719427 -1.3491802 -0.3194364 0
-0.54592103 -1.3555931 -0.32041258 0
-0.45060259 -1.3347329 -0.3212671 0
-0.34525618 -1.3475263 -0.32446286 0
-0.2517263 -1.3643516 -0.32476214 0
-0.15741181 -1.3620291 -0.32588837 0
-0.048463002 -1.336952 -0.32931149 0
0.046139266 -1.3482469 -0.33064094 0
0.14105119 -1.3539907 -0.33233014 0
0.24537203 -1.3428024 -0.33395278 0
0.36005691 -1.3644882 -0.33386958 0
0.45256472 -1.3661042 -0.33677065 0
0.55024624 -1.3495971 -0.33879909 0
0.65448743 -1.3327855 -0.34034345 0
0.75235224 -1.3624191 -0.34231505 0
0.85175294 -1.3531874 -0.34333122 0
0.95208681 -1.3361794 -0.34542117 0
1.0503761 -1.3478776 -0.34714118 0
1.1513569 -1.3651905 -0.34863809 0
1.2423385 -1.3394049 -0.35079241 0
1.3536859 -1.3392819 -0.35124689 0
1.4521295 -1.3371738 -0.35307252 0
1.5562879 -1.3529068 -0.35464996 0
1.658136 -1.3602329 -0.35616592 0
1.7561353 -1.3626587 -0.35846534 0
1.8324316 -1.3353542 -0.36008409 0
1.9520221 -1.3384892 -0.36177063 0
2.0571005 -1.3467293 -0.36334023 0
2.1599405 -1.3487616 -0.3644948 0
2.2633011 -1.3465576 -0.36582795 0
2.3658631 -1.3621014 -0.36780405 0
2.4803948 -1.3580595 -0.36915892 0
2.5627005 -1.3481184 -0.370646 0
2.666589 -1.3625478 -0.37165862 0
2.7249146 -1.3351536 -0.37398645 0
-1.8274208 -1.2406478 -0.30076024 0
-1.7484986 -1.2489592 -0.30173996 0
-1.6530807 -1.2485896 -0.30449834 0
-1.5631223 -1.2636693 -0.3038184 0
-1.4635626 -1.2541107 -0.30663839 0
-1.3567718 -1.2494065 -0.3080194 0
-1.2548313 -1.2414907 -0.31009504 0
-1.1512214 -1.2537774 -0.31028003 0
-1.0368046 -1.2366543 -0.31368122 0
-0.95870996 -1.2658558 -0.31376046 0
-0.84393024 -1.2463707 -0.3159599 0
-0.74788147 -1.2584047 -0.31831512 0
-0.65530014 -1.2296485 -0.32048225 0
-0.54591811 -1.2636074 -0.32108155 0
-0.44595373 -1.2418194 -0.32271719 0
-0.35697404 -1.2506385 -0.32433617 0
-0.24132487 -1.2494532 -0.32781687 0
-0.14829938 -1.2514186 -0.32850054 0
-0.055154968 -1.2450256 -0.33091199 0
0.049530964 -1.2574424 -0.33019644 0
0.1516394 -1.2599716 -0.33226272 0
0.24873097 -1.2423582 -0.3338393 0
0.34736374 -1.2476227 -0.33705452 0
0.44570282 -1.2408592 -0.33829868 0
0.55023652 -1.2433895 -0.33876148 0
0.65322238 -1.2453183 -0.34105775 0
0.75080353 -1.2654186 -0.34309906 0
0.84448349 -1.2392701 -0.34427553 0
0.95851046 -1.2484175 -0.34659943 0
1.0583835 -1.2624395 -0.34719864 0
1.1470493 -1.2545295 -0.34913954 0
1.2574238 -1.257627 -0.35089287 0
1.3368845 -1.2346653 -0.35232282 0
1.4341713 -1.2467487 -0.35401931 0
1.5411304 -1.2459166 -0.35516816 0
1.6436584 -1.2525674 -0.35685578 0
1.7632686 -1.2466234 -0.35925859 0
1.8772608 -1.2547795 -0.36120138 0
1.9367399 -1.2442468 -0.36204451 0
2.0469096 -1.2445774 -0.36236867 0
2.1371231 -1.2304004 -0.36476031 0
2.2356708 -1.244856 -0.36624846 0
2.3393881 -1.2591068 -0.36822525 0
2.4475141 -1.2503095 -0.36978689 0
2.5558388 -1.2372128 -0.37180436 0
2.659462 -1.2407216 -0.37371352 0
2.7622201 -1.2647166 -0.37458727 0
2.8070393 -1.213044 -0.3754662 0
-1.9347256 -1.1699518 -0.30012053 0
-1.8609122 -1.1436898 -0.30133885 0
-1.7591498 -1.1515944 -0.30318987 0
-1.6504991 -1.1493137 -0.30399448 0
-1.5396826 -1.1561915 -0.30616131 0
-1.4377565 -1.1453152 -0.3083083 0
-1.3453079 -1.1360973 -0.30954704 0
-1.2522585 -1.1401079 -0.31014934 0
-1.1480371 -1.1395473 -0.31313908 0
-1.0604703 -1.1598476 -0.31139186 0
-0.95110041 -1.1510458 -0.31538177 0
-0.83913153 -1.1427723 -0.31691051 0
-0.74306279 -1.1474965 -0.31817129 0
-0.64187855 -1.1483784 -0.32125044 0
-0.55361837 -1.1511438 -0.32231939 0
-0.45474231 -1.1448693 -0.32404736 0
-0.34662876 -1.1623 -0.3250882 0
-0.26302186 -1.1859057 -0.32552522 0
0.39066866 -1.1850129 -0.33433282 0
0.46437469 -1.1772842 -0.33917454 0
0.55386609 -1.1545336 -0.33822149 0
0.64328164 -1.151818 -0.34172684 0
0.7602272 -1.1396887 -0.34377417 0
0.85668993 -1.1538131 -0.34486121 0
0.94202679 -1.1618692 -0.34611639 0
1.0356904 -1.1490893 -0.3472929 0
1.1423625 -1.1467537 -0.34892145 0
1.2440758 -1.1553822 -0.35161823 0
1.3662646 -1.1630895 -0.35373577 0
1.4430881 -1.1330215 -0.35335845 0
1.5330759 -1.1340275 -0.35572824 0
1.6402963 -1.1420903 -0.35834333 0
1.7359396 -1.1542637 -0.35989758 0
1.8403981 -1.1491762 -0.36079425 0
1.954572 -1.1553501 -0.36156029 0
2.0400925 -1.1457553 -0.36413315 0
2.1394033 -1.1385258 -0.36624193 0
2.2526062 -1.1508443 -0.36774325 0
2.3480923 -1.157822 -0.36901987 0
2.4381523 -1.1515617 -0.37106621 0
2.5227664 -1.133317 -0.37201244 0
2.6377909 -1.1547343 -0.3733573 0
2.7621706 -1.1626476 -0.37590471 0
2.8551428 -1.1378919 -0.37826636 0
-1.918328 -1.0149171 -0.30095342 0
-1.8370824 -1.0403092 -0.30151725 0
-1.7345365 -1.0624958 -0.3044945 0
-1.6236113 -1.0423188 -0.30725595 0
-1.5644814 -1.0621308 -0.3067345 0
-1.4451339 -1.0466797 -0.30799764 0
-1.3507437 -1.0448453 -0.31155768 0
-1.2450236 -1.0376636 -0.3126854 0
-1.1575294 -1.0547255 -0.3114745 0
-1.0452563 -1.0491529 -0.31564403 0
-0.93482941 -1.0372832 -0.31648952 0
-0.85392791 -1.0582948 -0.31858632 0
-0.7525332 -1.0475475 -0.31911665 0
-0.64905959 -1.0551088 -0.32179695 0
-0.55160671 -1.0702709 -0.32272175 0
0.67260438 -1.0856133 -0.34223777 0
0.75240946 -1.0403429 -0.34412578 0
0.84279698 -1.0501522 -0.34525573 0
0.94254553 -1.0586219 -0.34603348 0
1.0469972 -1.0588831 -0.34691715 0
1.1313059 -1.0445861 -0.3509917 0
1.2475489 -1.0539712 -0.35223445 0
1.3426031 -1.0452377 -0.35251936 0
1.4563566 -1.0546468 -0.35549042 0
1.534668 -1.0393376 -0.35774747 0
1.641274 -1.041266 -0.35880205 0
1.7534136 -1.0602778 -0.3599115 0
1.8404217 -1.048072 -0.36113968 0
1.9415224 -1.0450162 -0.36416039 0
2.0488648 -1.0466774 -0.36571437 0
2.1597731 -1.0454873 -0.36707675 0
2.2606544 -1.0546503 -0.36909232 0
2.3572485 -1.0589309 -0.37019134 0
2.4551582 -1.061 -0.37161613 0
2.5557234 -1.0611954 -0.37344289 0
2.655659 -1.0584482 -0.37571535 0
2.7566144 -1.0532881 -0.37730542 0
2.8622117 -1.0469322 -0.37874088 0
2.9129205 -1.0184385 -0.37889123 0
-2.0674274 -0.91104484 -0.30035731 0
-1.9614273 -0.94953674 -0.30069068 0
-1.8713434 -0.93917048 -0.30227652 0
-1.7688963 -0.95203984 -0.30355203 0
-1.6624031 -0.95718974 -0.30521297 0
-1.546355 -0.94731998 -0.30794638 0
-1.4541895 -0.94925499 -0.30912769 0
-1.3449762 -0.93658257 -0.31052279 0
-1.2645293 -0.95602047 -0.31237918 0
-1.1550508 -0.94760269 -0.31379756 0
-1.0458629 -0.93580699 -0.31606892 0
-0.960136 -0.95505661 -0.31772771 0
-0.85679638 -0.9508307 -0.31946388 0
-0.75605631 -0.95271617 -0.32193655 0
-0.67256027 -0.98833734 -0.32034653 0
0.84966004 -0.97014189 -0.34562054 0
0.94024825 -0.9573341 -0.3481915 0
1.0461919 -0.94964767 -0.34985697 0
1.1611511 -0.96030247 -0.35048029 0
1.2374899 -0.93277872 -0.35209036 0
1.3499144 -0.93998981 -0.35480809 0
1.4575901 -0.9395017 -0.35669398 0
1.5679789 -0.9507497 -0.35822499 0
1.652621 -0.93921816 -0.36037946 0
1.7566111 -0.95851821 -0.36174557 0
1.859569 -0.94675082 -0.36342198 0
1.9681031 -0.95271951 -0.36481854 0
2.0749061 -0.95608622 -0.36661935 0
2.1260047 -0.9368757 -0.36798033 0
2.232384 -0.96473002 -0.36894524 0
2.3438175 -0.96030331 -0.37107024 0
2.4203935 -0.94474208 -0.3729347 0
2.5288754 -0.96626884 -0.37440318 0
2.6500618 -0.94790024 -0.37524986 0
2.7514024 -0.94019568 -0.37715149 0
2.8662002 -0.94099575 -0.37936464 0
2.9468303 -0.95978916 -0.38054234 0
-2.1132414 -0.82482433 -0.30078653 0
-2.0655549 -0.85208273 -0.30059484 0
-1.9467623 -0.85111415 -0.30198878 0
-1.8225662 -0.85030991 -0.30391553 0
-1.731712 -0.84247077 -0.30598381 0
-1.6566578 -0.86797345 -0.30584958 0
-1.5396435 -0.86026728 -0.30738848 0
-1.4404678 -0.84308881 -0.30861065 0
-1.3435438 -0.84779197 -0.31046975 0
-1.2435929 -0.85291177 -0.3129912 0
-1.1442472 -0.84329355 -0.31525263 0
-1.0536066 -0.84275001 -0.31504074 0
-0.94864875 -0.85707164 -0.31814355 0
-0.85358739 -0.84577399 -0.32016003 0
-0.79805332 -0.89832574 -0.32197124 0
0.96832162 -0.86644411 -0.34826934 0
1.0562751 -0.85041469 -0.3505899 0
1.1483319 -0.84589005 -0.35158268 0
1.263023 -0.852911 -0.3539536 0
1.3633466 -0.8513394 -0.35480934 0
1.4455668 -0.84335536 -0.35681656 0
1.5522063 -0.84981012 -0.35913271 0
1.6477574 -0.84747684 -0.36110464 0
1.7408667 -0.85815823 -0.36227363 0
1.8397124 -0.84232628 -0.36351684 0
1.9399014 -0.85820085 -0.36496764 0
2.0240211 -0.84053802 -0.36662185 0
2.1558867 -0.84618223 -0.36883563 0
2.2618649 -0.86425877 -0.37065732 0
2.3525422 -0.86050922 -0.37126526 0
2.4524767 -0.85740656 -0.37295803 0
2.5488317 -0.85035706 -0.37442684 0
2.6496503 -0.84210587 -0.37647763 0
2.7387137 -0.84885073 -0.37784764 0
2.8308651 -0.85523981 -0.37940219 0
2.9540272 -0.86945772 -0.38148752 0
3.0034256 -0.81437093 -0.38208961 0
-2.1526377 -0.73538375 -0.3003915 0
-2.0544662 -0.74588269 -0.30199268 0
-1.9569634 -0.74779069 -0.30268598 0
-1.8495929 -0.74505782 -0.30494773 0
-1.7584991 -0.76479036 -0.30537271 0
-1.6614763 -0.76083654 -0.30710647 0
-1.5641478 -0.7473368 -0.30920878 0
-1.4355531 -0.74522597 -0.31185529 0
-1.3502526 -0.75336879 -0.31132972 0
-1.2434009 -0.75537449 -0.31304327 0
-1.1429299 -0.74840909 -0.31515846 0
-1.0565727 -0.74703163 -0.31743169 0
-0.95235491 -0.74753362 -0.31722724 0
-0.88982475 -0.77357817 -0.31593096 0
1.0637897 -0.7635318 -0.35093427 0
1.1454651 -0.74659604 -0.35339102 0
1.2534084 -0.75945884 -0.35376441 0
1.3435997 -0.74814594 -0.3559624 0
1.443014 -0.75476879 -0.35713434 0
1.5444455 -0.76138401 -0.35936341 0
1.6626408 -0.75782508 -0.36076218 0
1.7389351 -0.74176276 -0.36276233 0
1.8471807 -0.73649585 -0.36437187 0
1.9579978 -0.74811935 -0.36643812 0
2.0656331 -0.75559711 -0.36732757 0
2.1677258 -0.75786847 -0.36850509 0
2.2339902 -0.73855656 -0.3701337 0
2.3439908 -0.75252658 -0.3720201 0
2.4595835 -0.7560572 -0.37364852 0
2.5581739 -0.74646807 -0.37545076 0
2.6567161 -0.73412102 -0.37704918 0
2.7743874 -0.75224537 -0.37905934 0
2.866683 -0.75530732 -0.38060331 0
2.9662693 -0.75875837 -0.38255754 0
3.0357001 -0.75353122 -0.38405776 0
-2.1812665 -0.60824114 -0.30020794 0
-2.0609145 -0.63878715 -0.30148154 0
-1.9544861 -0.65216893 -0.304171 0
-1.8566298 -0.66428596 -0.30508128 0
-1.7931669 -0.67048305 -0.30321351 0
-1.5222566 -0.68390691 -0.30851483 0
-1.4417562 -0.67262912 -0.31137484 0
-1.3480976 -0.64569873 -0.31369168 0
-1.240203 -0.64966744 -0.31552139 0
-1.1543646 -0.65772843 -0.31590021 0
-1.0497987 -0.64181828 -0.31765521 0
-0.98301435 -0.66384196 -0.31787378 0
1.1543051 -0.65371984 -0.35555747 0
1.2387451 -0.65706366 -0.35512331 0
1.3552598 -0.66015726 -0.35639581 0
1.4289365 -0.64201975 -0.35924655 0
1.5473385 -0.65007693 -0.36083359 0
1.6521015 -0.64218462 -0.36234179 0
1.7481251 -0.65360671 -0.36310026 0
1.8539814 -0.65583253 -0.36389327 0
1.933385 -0.64502293 -0.36616883 0
2.0300913 -0.66449249 -0.36752722 0
2.1438751 -0.65455401 -0.36923426 0
2.2446973 -0.64324582 -0.37080035 0
2.3471713 -0.6364097 -0.37249437 0
2.4326146 -0.65957683 -0.37380734 0
2.5377252 -0.64911616 -0.37649965 0
2.632946 -0.65347749 -0.37841594 0
2.7225571 -0.65512156 -0.37959579 0
2.8194256 -0.65723383 -0.38133961 0
2.9427216 -0.6547938 -0.38268417 0
3.0569358 -0.66656995 -0.38417333 0
-2.1074398 -0.55526519 -0.30129287 0
-2.0228758 -0.54848826 -0.30276084 0
-1.9340065 -0.55426681 -0.30409688 0
-1.8488477 -0.54420453 -0.30586836 0
-1.2308992 -0.58928239 -0.31508008 0
-1.1441327 -0.56966746 -0.31652218 0
-1.0542769 -0.54815781 -0.31848982 0
1.1870745 -0.5852356 -0.3546387 0
1.2496893 -0.55072278 -0.35706523 0
1.3538677 -0.5396238 -0.35864392 0
1.4532799 -0.55517596 -0.36092886 0
1.5556158 -0.5589956 -0.3614752 0
1.6448485 -0.54887533 -0.36264139 0
1.7668597 -0.55928648 -0.36449221 0
1.8605112 -0.54290414 -0.36669889 0
1.967719 -0.54873538 -0.36721948 0
2.0517747 -0.55641323 -0.36840439 0
2.1364241 -0.54660541 -0.37018707 0
2.25318 -0.55059731 -0.3720068 0
2.3487575 -0.54722035 -0.37557149 0
2.4767148 -0.5587104 -0.37646592 0
2.569556 -0.54099429 -0.37735149 0
2.656091 -0.55921668 -0.37849998 0
2.7489231 -0.55827141 -0.37969321 0
2.8366528 -0.55503649 -0.38070461 0
2.9284887 -0.5513047 -0.38182998 0
3.0435467 -0.55943757 -0.38370132 0
3.1001971 -0.5149309 -0.38587081 0
-2.3188741 -0.40223527 -0.3000237 0
-2.2174988 -0.4503862 -0.3005459 0
-2.1302385 -0.448504 -0.30150551 0
-2.044554 -0.44578281 -0.30263945 0
-1.9619451 -0.44255447 -0.3040745 0
-1.8694803 -0.44987476 -0.30542848 0
-1.7683232 -0.44978648 -0.30819741 0
-1.6568213 -0.4417007 -0.31031331 0
-1.5385746 -0.41720614 -0.31181854 0
-1.4511828 -0.40465894 -0.31351411 0
1.2574615 -0.45423597 -0.3560079 0
1.3494214 -0.4533751 -0.35908535 0
1.4681853 -0.45020846 -0.35999343 0
1.5459056 -0.44297779 -0.36213729 0
1.657382 -0.44938713 -0.36319819 0
1.7333279 -0.45667431 -0.36397484 0
1.825388 -0.45316276 -0.36468068 0
1.9454368 -0.44472915 -0.36755854 0
2.0677669 -0.44780627 -0.37017131 0
2.1674516 -0.4563714 -0.37156796 0
2.2577713 -0.44177747 -0.37290558 0
2.3159225 -0.45315281 -0.37378684 0
2.4474187 -0.44996127 -0.37610406 0
2.5496569 -0.44248843 -0.37781993 0
2.6631448 -0.44231868 -0.37982142 0
2.768626 -0.45983005 -0.38111496 0
2.8646808 -0.45483947 -0.38342381 0
2.9566061 -0.44772443 -0.3844845 0
3.0437789 -0.43859601 -0.38606983 0
3.1228764 -0.45771644 -0.38791883 0
-2.3404019 -0.30315754 -0.30032742 0
-2.2407687 -0.3557227 -0.3009541 0
-2.1587069 -0.34269369 -0.3023974 0
-2.072844 -0.34426105 -0.30366325 0
-1.9421479 -0.32886869 -0.30577025 0
-1.8703355 -0.35531753 -0.30643183 0
-1.7439139 -0.35799059 -0.30862972 0
-1.6459095 -0.3465277 -0.31052819 0
-1.5588819 -0.35171399 -0.31279394 0
-1.4518898 -0.34725547 -0.31392899 0
-1.3553497 -0.34410825 -0.3144778 0
1.2881132 -0.36919677 -0.35907003 0
1.3492023 -0.34232858 -0.36030108 0
1.4408846 -0.34664124 -0.36150318 0
1.5305427 -0.34986413 -0.36239678 0
1.6556623 -0.34144226 -0.36419624 0
1.7632504 -0.3581211 -0.36555904 0
1.8527484 -0.34873161 -0.36738697 0
1.940111 -0.3507686 -0.36852077 0
2.0227053 -0.3508231 -0.36957991 0
2.1496904 -0.357077 -0.37164596 0
2.26456 -0.3348065 -0.37438482 0
2.3432045 -0.35484365 -0.37538362 0
2.4289227 -0.34997511 -0.3760598 0
2.5424609 -0.35722566 -0.37836698 0
2.6221523 -0.33960897 -0.38026059 0
2.7366145 -0.36122039 -0.38148749 0
2.8552921 -0.34093171 -0.38405839 0
2.9819155 -0.3429442 -0.38639754 0
3.0700443 -0.3530786 -0.38773149 0
3.1464863 -0.36182398 -0.38889527 0
-2.2580528 -0.29249069 -0.30186611 0
-2.175704 -0.28182387 -0.30340481 0
-2.0356419 -0.27341422 -0.30570748 0
-1.9245867 -0.26329723 -0.30767137 0
-1.8465933 -0.29315376 -0.3069638 0
-1.7328351 -0.27509421 -0.30877689 0
-1.6589872 -0.27558509 -0.31069499 0
-1.5680934 -0.2778216 -0.3133347 0
-1.4411185 -0.27560759 -0.31451368 0
-1.3471551 -0.25595775 -0.31672189 0
-1.2587166 -0.23694974 -0.31673944 0
-1.1625034 -0.21886025 -0.31698522 0
1.3501163 -0.25211775 -0.3610099 0
1.4543839 -0.24156396 -0.36246887 0
1.5480628 -0.25007471 -0.36378261 0
1.6348633 -0.24752311 -0.36519605 0
1.7501472 -0.25219762 -0.36673087 0
1.8740519 -0.2390428 -0.36801711 0
1.9590065 -0.25373888 -0.36929637 0
2.0459492 -0.25020421 -0.37129065 0
2.1328959 -0.2452707 -0.37310052 0
2.2461734 -0.24865814 -0.37496766 0
2.3593793 -0.24947193 -0.37705785 0
2.4555552 -0.26460993 -0.37848499 0
2.5479805 -0.23769502 -0.38000879 0
2.636369 -0.2459417 -0.38140449 0
2.7247574 -0.25418839 -0.3828001 0
2.8168814 -0.24248576 -0.38440138 0
2.9495392 -0.25390536 -0.38646764 0
3.0821967 -0.26532498 -0.38853389 0
3.1647227 -0.24961491 -0.3898119 0
-2.4428463 -0.14001228 -0.30043563 0
1.3442818 -0.14482825 -0.36235714 0
1.444865 -0.15091518 -0.36322266 0
1.5651305 -0.14924276 -0.36408016 0
1.6456778 -0.14164968 -0.36479163 0
1.7524967 -0.15270969 -0.36610693 0
1.8693894 -0.14070532 -0.36710528 0
1.9424436 -0.16425449 -0.37019455 0
2.0586066 -0.14755897 -0.37187976 0
2.1393092 -0.13786958 -0.37297919 0
2.2517085 -0.15177326 -0.37490395 0
2.3702219 -0.14809342 -0.37744409 0
2.4667866 -0.15908428 -0.37889656 0
2.5559127 -0.14645234 -0.38021868 0
2.6445837 -0.15153448 -0.38165015 0
2.7332544 -0.15661663 -0.38308164 0
2.826124 -0.14162114 -0.38509122 0
2.934515 -0.1578187 -0.38664043 0
3.0482864 -0.15309431 -0.38866147 0
3.1649365 -0.12467999 -0.39140329 0
-2.5581617 -0.036622938 -0.30140081 0
-2.4691956 -0.035349287 -0.30320972 0
1.3431168 -0.048103187 -0.3601909 0
1.4484106 -0.051854305 -0.36229116 0
1.5709636 -0.049210683 -0.36499435 0
1.6582222 -0.047404833 -0.36668769 0
1.7346936 -0.049595706 -0.36800414 0
1.858566 -0.050444484 -0.36967891 0
1.9366425 -0.063184693 -0.37179822 0
2.0564041 -0.036898524 -0.37371361 0
2.1554925 -0.046190172 -0.37460074 0
2.2381935 -0.047970504 -0.37584463 0
2.3648932 -0.050781377 -0.37780237 0
2.4757986 -0.053205151 -0.37968239 0
2.5647042 -0.055113647 -0.38120547 0
2.65361 -0.057022151 -0.38272861 0
2.7425156 -0.058930647 -0.38425174 0
2.8298712 -0.040525764 -0.38553864 0
2.918803 -0.041798182 -0.38708064 0
3.0522003 -0.043706812 -0.38939366 0
3.1881297 -0.038026184 -0.3918424 0
-2.543818 0.036417589 -0.30001518 0
-2.4491353 0.052558955 -0.30079249 0
1.3500531 0.048402794 -0.36205167 0
1.4549352 0.052158438 -0.3637315 0
1.5749564 0.045167904 -0.36548206 0
1.6594912 0.047591668 -0.3670944 0
1.736185 0.049785167 -0.36857465 0
1.8512254 0.053075422 -0.37079504 0
1.9350091 0.0515352 -0.37223846 0
2.0771964 0.04460901 -0.37407005 0
2.1598301 0.046382684 -0.37522912 0
2.2424641 0.048156369 -0.37638822 0
2.367487 0.050828051 -0.37814412 0
2.4776289 0.053187817 -0.37999955 0
2.566576 0.05509859 -0.38155672 0
2.6555235 0.057009358 -0.38311383 0
2.7444706 0.05892013 -0.38467094 0
2.8334277 0.040533509 -0.38589811 0
2.922328 0.041805983 -0.38739437 0
3.0397017 0.050882746 -0.38925776 0
3.1729646 0.040955625 -0.39168015 0
-2.5475059 0.10945744 -0.30063105 0
-2.4499025 0.14036624 -0.30132368 0
1.3549702 0.14598343 -0.36523855 0
1.4548764 0.15194792 -0.36568359 0
1.5734924 0.14676857 -0.36616465 0
1.6587569 0.14280196 -0.36806613 0
1.7350607 0.14937277 -0.36939657 0
1.8446305 0.15297806 -0.37132302 0
1.9438946 0.147652 -0.37311202 0
2.0771196 0.14893602 -0.375498 0
2.1596658 0.13929318 -0.37700057 0
2.2426836 0.14464773 -0.3786068 0
2.3533366 0.1517825 -0.3801617 0
2.4461091 0.15778159 -0.38284093 0
2.5805359 0.14784798 -0.38418424 0
2.6693597 0.15293968 -0.38566968 0
2.7581837 0.15803136 -0.38715512 0
2.8424711 0.14255726 -0.38805637 0
2.9313672 0.14701417 -0.38960624 0
3.0202637 0.15147109 -0.39115611 0
3.1369591 0.12720864 -0.39281812 0
3.2063298 0.13776475 -0.39406055 0
-2.5384336 0.25521052 -0.30089256 0
-2.4495156 0.24627066 -0.30229911 0
-2.2784193 0.29512876 -0.30572653 0
-2.1542935 0.27905047 -0.30771041 0
-2.023407 0.27679846 -0.30889067 0
-1.9408393 0.26550269 -0.31026918 0
-1.8371128 0.29164869 -0.31445062 0
-1.7601163 0.27942523 -0.31500307 0
-1.6339962 0.27376002 -0.315725 0
-1.5433258 0.27906746 -0.31773141 0
-1.4376593 0.27059826 -0.32010224 0
-1.3516865 0.26214513 -0.32211393 0
-1.247426 0.2534489 -0.32299033 0
-1.1820847 0.24899955 -0.32378539 0
1.3511924 0.25130197 -0.36535445 0
1.4517143 0.24582148 -0.36667964 0
1.5659586 0.24861883 -0.36765206 0
1.6474365 0.2495573 -0.36846632 0
1.7472054 0.25185335 -0.37001094 0
1.8662475 0.25875828 -0.37267673 0
1.9328332 0.23633605 -0.37364379 0
2.0703173 0.25314507 -0.37614724 0
2.1548088 0.24782401 -0.37745833 0
2.2386904 0.24124597 -0.37854245 0
2.3681395 0.25521833 -0.38063538 0
2.4811604 0.24946167 -0.38236523 0
2.5753667 0.24025501 -0.3843931 0
2.6639032 0.24851565 -0.38582599 0
2.7524395 0.25677627 -0.38725892 0
2.8418846 0.24458455 -0.38864994 0
2.9305055 0.25221437 -0.39011133 0
3.045187 0.26955619 -0.3919352 0
3.1608875 0.2496185 -0.39406905 0
3.2084255 0.22997984 -0.39496541 0
-2.6255751 0.32102269 -0.30025315 0
-2.5256157 0.34548342 -0.30087912 0
-2.4429908 0.3521474 -0.30318236 0
-2.3582156 0.33992663 -0.30434763 0
-2.255528 0.35813719 -0.30687785 0
-2.1402729 0.35843617 -0.30868268 0
-2.0459697 0.33947793 -0.31024465 0
-1.9291487 0.3488144 -0.31243521 0
-1.8300577 0.35817191 -0.31381139 0
-1.7544018 0.34337509 -0.31506175 0
-1.6400306 0.33940455 -0.31746203 0
-1.567556 0.35180482 -0.3180531 0
-1.4484643 0.35337523 -0.3197889 0
-1.3408378 0.33001715 -0.32055786 0
-1.2671659 0.324224 -0.32235974 0
-1.1766608 0.3100296 -0.32604522 0
1.2991781 0.37230942 -0.36212543 0
1.3497126 0.34732419 -0.36473879 0
1.4577553 0.3508406 -0.36644214 0
1.5462784 0.3487767 -0.36770049 0
1.6432775 0.36085793 -0.36927685 0
1.754913 0.3509129 -0.37134841 0
1.8794979 0.35384396 -0.37307087 0
1.9717391 0.34199655 -0.37444988 0
2.0566592 0.34158921 -0.37607643 0
2.1387084 0.35521778 -0.37764415 0
2.2270079 0.33720723 -0.37965235 0
2.3655579 0.36172992 -0.382595 0
2.476161 0.33876339 -0.38324666 0
2.5643079 0.35082373 -0.38472047 0
2.6571312 0.34421325 -0.38631037 0
2.7452941 0.35563242 -0.38770276 0
2.8353577 0.34668159 -0.38898864 0
2.9235888 0.35746849 -0.39037552 0
3.0399866 0.35708943 -0.39213261 0
3.173104 0.36041966 -0.39418036 0
-2.7103271 0.45016265 -0.30027893 0
-2.6183214 0.45415723 -0.30166927 0
-2.5301268 0.43885747 -0.30299905 0
-2.4340048 0.45820734 -0.3045392 0
-2.3458335 0.44155237 -0.305821 0
-2.2591918 0.45885745 -0.30754015 0
-2.1771624 0.44219533 -0.3086845 0
-2.0472736 0.44646093 -0.3102397 0
-1.9271321 0.44933993 -0.31216383 0
-1.8504173 0.45942184 -0.31369844 0
-1.7373174 0.44460487 -0.3159892 0
-1.6632589 0.43830037 -0.31792212 0
-1.581504 0.42279339 -0.32028198 0
1.2836417 0.45397568 -0.36490852 0
1.353364 0.45157036 -0.3674356 0
1.4429899 0.45867255 -0.36754909 0
1.5266681 0.44615838 -0.36871442 0
1.6458369 0.4533298 -0.37068897 0
1.7540733 0.44231659 -0.3725794 0
1.8629324 0.4538936 -0.3745544 0
1.9577564 0.45627242 -0.37599221 0
2.0444353 0.44584808 -0.37715256 0
2.1287632 0.44831756 -0.37851521 0
2.2460115 0.44893393 -0.37997049 0
2.366133 0.46299013 -0.38189116 0
2.4654293 0.4457747 -0.38423881 0
2.5530217 0.46161664 -0.38573313 0
2.6444626 0.43923745 -0.3868145 0
2.7322686 0.45382187 -0.38831523 0
2.8268642 0.44884664 -0.38999724 0
2.9416602 0.45972595 -0.39177895 0
3.0511527 0.45073208 -0.39318329 0
3.1819241 0.46630836 -0.39550439 0
-2.7443767 0.55739105 -0.30102456 0
-2.6540108 0.54883295 -0.30209279 0
-2.5228601 0.53124154 -0.30429405 0
-2.4272342 0.56120348 -0.30461025 0
-2.3444357 0.55550706 -0.30600578 0
-2.2398787 0.55606288 -0.3075344 0
-2.1562006 0.5517208 -0.30905148 0
-2.072345 0.54609191 -0.31061649 0
-1.940356 0.53739882 -0.31346256 0
-1.8596915 0.53814322 -0.31419179 0
-1.2330843 0.58575964 -0.32440162 0
-1.1371138 0.56478399 -0.32560951 0
-1.0781858 0.56066096 -0.32566559 0
1.2480356 0.55000395 -0.36555198 0
1.346784 0.55930471 -0.36653164 0
1.4717687 0.55643135 -0.36838409 0
1.5455716 0.53310764 -0.36962196 0
1.6609061 0.55408651 -0.37183362 0
1.7458544 0.54118323 -0.37283599 0
1.8410653 0.54572415 -0.37428865 0
1.9347721 0.55445594 -0.37651321 0
2.0343969 0.55965203 -0.37763757 0
2.1489277 0.54982775 -0.37969562 0
2.2770326 0.54789889 -0.38131878 0
2.3473916 0.57000107 -0.38263482 0
2.4403913 0.55042773 -0.38375995 0
2.5328302 0.55228293 -0.38553846 0
2.6237736 0.55247182 -0.38714767 0
2.742588 0.56397915 -0.38958785 0
2.8503022 0.53656757 -0.39076591 0
2.9817052 0.56130272 -0.39323008 0
3.0834007 0.53476989 -0.39440471 0
3.1707821 0.55778903 -0.39602852 0
-2.7729211 0.64632267 -0.30056131 0
-2.6752396 0.66408259 -0.30178386 0
-2.5633049 0.63638479 -0.3029691 0
-2.4296615 0.65616745 -0.30571747 0
-2.3318396 0.65024352 -0.30722013 0
-2.2213633 0.65381813 -0.30907664 0
-2.1293762 0.65993983 -0.31016895 0
-2.0492368 0.6350978 -0.3111929 0
-1.9628865 0.65506345 -0.31344068 0
-1.8751903 0.65565932 -0.31467211 0
-1.4615353 0.67428213 -0.31975093 0
-1.3485724 0.6528399 -0.32308233 0
-1.2511073 0.64899623 -0.32428834 0
-1.1547761 0.64634395 -0.32641947 0
-1.0528239 0.65991586 -0.32896852 0
1.1766356 0.67749959 -0.36383149 0
1.247121 0.6484254 -0.36562762 0
1.3458561 0.64759791 -0.36758611 0
1.4497502 0.65129715 -0.36864039 0
1.5433245 0.65395164 -0.37075394 0
1.633467 0.66741812 -0.3715502 0
1.7554179 0.65479159 -0.3736445 0
1.8315403 0.64051682 -0.37593794 0
1.9500576 0.65073323 -0.37735549 0
2.0601366 0.64684522 -0.37881476 0
2.1604903 0.65274644 -0.38047782 0
2.2542303 0.64599293 -0.38218164 0
2.3274188 0.66689819 -0.38364458 0
2.4264252 0.65795332 -0.38561118 0
2.5162506 0.64384747 -0.38624823 0
2.6465158 0.65698147 -0.38802689 0
2.7565317 0.63571811 -0.38939705 0
2.8750951 0.64847666 -0.39186382 0
2.9680853 0.64718413 -0.39345157 0
3.0597336 0.64426452 -0.39511868 0
3.1632099 0.6424638 -0.39753726 0
-2.8383896 0.76962471 -0.30008316 0
-2.7517998 0.74614578 -0.30127111 0
-2.6612742 0.7421084 -0.30282283 0
-2.5675189 0.75577158 -0.30441248 0
-2.4787765 0.74893546 -0.30587077 0
-2.3814163 0.73812109 -0.30696097 0
-2.2667837 0.74721777 -0.3096599 0
-2.1579149 0.745749 -0.31133679 0
-2.0483069 0.74104708 -0.31290099 0
-1.924861 0.75132167 -0.31318542 0
-1.8373833 0.76304448 -0.31511757 0
-1.7046887 0.78052127 -0.31883332 0
-1.6357186 0.76322138 -0.3195326 0
-1.5582566 0.75446904 -0.32060763 0
-1.4626477 0.7490679 -0.32244179 0
-1.3509449 0.73980719 -0.32416418 0
-1.2381499 0.74376756 -0.32659608 0
-1.1566499 0.75725842 -0.32770085 0
-1.0520754 0.75519782 -0.32908177 0
-0.97692364 0.7446534 -0.32923803 0
1.1529635 0.75476527 -0.36637184 0
1.2561482 0.75429469 -0.36733535 0
1.3690041 0.75993097 -0.36792415 0
1.436635 0.74451339 -0.36900863 0
1.5459549 0.74304843 -0.37022495 0
1.652737 0.75392085 -0.37382188 0
1.7716495 0.75069785 -0.37556806 0
1.8612785 0.75738728 -0.37581876 0
1.954161 0.74667591 -0.3771691 0
2.0455952 0.74812752 -0.37884784 0
2.1381319 0.74751741 -0.38028887 0
2.2574141 0.76361644 -0.38183638 0
2.3410506 0.74401283 -0.38445765 0
2.456521 0.76775932 -0.38674578 0
2.5527751 0.7448445 -0.38797846 0
2.6547215 0.73358154 -0.39002022 0
2.7702396 0.75118142 -0.39162958 0
2.8604546 0.75370002 -0.39262396 0
2.9476559 0.75421411 -0.39389691 0
3.0356278 0.7535674 -0.39511979 0
3.1341889 0.74476135 -0.39637864 0
-2.9122808 0.85718882 -0.30061924 0
-2.8229895 0.85293031 -0.30169848 0
-2.7307265 0.84641773 -0.3027778 0
-2.6405764 0.83920479 -0.30393475 0
-2.5488348 0.85047388 -0.3056742 0
-2.4597304 0.84036881 -0.30702087 0
-2.3621783 0.84487987 -0.3089312 0
-2.2603216 0.82673204 -0.31002411 0
-2.1602662 0.84320199 -0.31086367 0
-2.0706341 0.85990477 -0.31254363 0
-1.9491161 0.84209919 -0.31489611 0
-1.8340811 0.85053968 -0.31782272 0
-1.7657622 0.85723782 -0.31765556 0
-1.6489667 0.84242314 -0.31965283 0
-1.541433 0.85837507 -0.32160261 0
-1.4363189 0.84083772 -0.32427037 0
-1.3462336 0.84814036 -0.32575485 0
-1.2396092 0.85019237 -0.32688811 0
-1.1409789 0.84153968 -0.32842782 0
-1.0486424 0.84783757 -0.33002445 0
-0.95211208 0.84662771 -0.33136639 0
-0.87965709 0.87034619 -0.33161753 0
1.0548257 0.85276425 -0.36359906 0
1.1451591 0.8438679 -0.36585596 0
1.2398553 0.85027903 -0.36696029 0
1.3413926 0.85084409 -0.36827525 0
1.4388645 0.85617113 -0.37028652 0
1.5407904 0.85795212 -0.3717002 0
1.651335 0.85252488 -0.37413934 0
1.7276748 0.84564161 -0.37479731 0
1.8441279 0.86029446 -0.37717143 0
1.9268279 0.83276862 -0.37803158 0
2.0321295 0.8610366 -0.37923303 0
2.1543837 0.84088403 -0.3803831 0
2.2563834 0.86212236 -0.38259923 0
2.3514488 0.86008817 -0.38411441 0
2.4462144 0.85531282 -0.38547596 0
2.5475373 0.84987861 -0.38788176 0
2.6431906 0.84003288 -0.38940403 0
2.7384968 0.84888577 -0.39155549 0
2.8316584 0.85554129 -0.39349547 0
2.919184 0.85914946 -0.39491624 0
3.0248506 0.8434664 -0.39671916 0
3.1206861 0.85581368 -0.3980318 0
-2.9058044 0.90066916 -0.30069155 0
-2.8472199 0.9500277 -0.30185401 0
-2.7387581 0.96503991 -0.30361351 0
-2.6222575 0.93794441 -0.30557689 0
-2.524667 0.94400924 -0.30682746 0
-2.4281681 0.94774961 -0.30807734 0
-2.3241119 0.95679981 -0.30966148 0
-2.2216456 0.94133455 -0.31110242 0
-2.1395767 0.94292831 -0.31268215 0
-2.0436971 0.95346773 -0.31418866 0
-1.9571404 0.94740683 -0.31576383 0
-1.8609648 0.95082784 -0.31684384 0
-1.7552706 0.95550781 -0.31884021 0
-1.6454768 0.94748163 -0.32034528 0
-1.545164 0.94660121 -0.32276112 0
-1.4420649 0.93931603 -0.32391024 0
-1.3597933 0.95252615 -0.32575566 0
-1.2587199 0.94996983 -0.32665375 0
-1.1457734 0.93992358 -0.33023319 0
-1.0544415 0.95329487 -0.33062118 0
-0.94495451 0.94813287 -0.33195028 0
-0.84336668 0.94932938 -0.33360612 0
-0.76811492 0.98559433 -0.33486047 0
0.95721149 0.96068406 -0.36348942 0
1.0423387 0.95792782 -0.36417985 0
1.1504421 0.94563693 -0.3669686 0
1.2682198 0.95221889 -0.36876461 0
1.3449379 0.94634342 -0.36900818 0
1.4559444 0.94106472 -0.37122804 0
1.5656179 0.94677901 -0.37336639 0
1.6626472 0.95099545 -0.37388641 0
1.7439756 0.93867475 -0.37628406 0
1.8545578 0.94424522 -0.37818781 0
1.9605058 0.94910651 -0.37947509 0
2.0521162 0.95731878 -0.38110438 0
2.1426644 0.96255016 -0.38247225 0
2.225807 0.95644027 -0.38199562 0
2.3376625 0.9707914 -0.38455841 0
2.4416888 0.95989847 -0.38692132 0
2.5376644 0.9558928 -0.38806143 0
2.6522169 0.94865572 -0.38969672 0
2.7611392 0.93607074 -0.39141345 0
2.876791 0.95982647 -0.3935039 0
2.9655025 0.94246954 -0.3958753 0
3.084017 0.9640581 -0.39819631 0
3.1043751 0.93791175 -0.39818546 0
-2.9673307 1.0374659 -0.30047721 0
-2.8691125 1.0494642 -0.30256286 0
-2.7710977 1.0588022 -0.30424643 0
-2.6798809 1.0459962 -0.30528343 0
-2.5843318 1.051618 -0.30651107 0
-2.4698048 1.0464485 -0.30829865 0
-2.3500059 1.0457895 -0.30983368 0
-2.2777002 1.0528674 -0.31066599 0
-2.1585093 1.0386972 -0.3129037 0
-2.055263 1.0573299 -0.31496206 0
-1.931066 1.057323 -0.31686246 0
-1.824453 1.0331551 -0.3179777 0
-1.7254527 1.0584589 -0.3191036 0
-1.6627595 1.0516386 -0.32078451 0
-1.5558629 1.0408552 -0.32279676 0
-1.4497997 1.0500648 -0.32549065 0
-1.3317473 1.0454975 -0.32600513 0
-1.2575748 1.0583365 -0.32707626 0
-1.1621407 1.0447809 -0.32864693 0
-1.0440909 1.042003 -0.33198842 0
-0.96131814 1.0536379 -0.33260113 0
-0.84898281 1.0526139 -0.33416462 0
-0.74501181 1.0456074 -0.33527705 0
-0.66642582 1.0757711 -0.33914965 0
0.78961098 1.0917354 -0.36103201 0
0.85825866 1.0537351 -0.36425936 0
0.95275593 1.0449392 -0.36512482 0
1.0488451 1.0547487 -0.36544833 0
1.1565413 1.0640049 -0.3660613 0
1.2402576 1.0357556 -0.3699857 0
1.3466746 1.0508025 -0.37113431 0
1.4529958 1.0377291 -0.37202027 0
1.5501158 1.0468247 -0.37373692 0
1.6284896 1.045167 -0.37571412 0
1.7372987 1.0471405 -0.3767958 0
1.8545232 1.0501575 -0.37803939 0
1.9559977 1.0531299 -0.38080579 0
2.0549622 1.0498319 -0.38266748 0
2.1727731 1.0518231 -0.38392115 0
2.2765477 1.0621793 -0.38546336 0
2.3794127 1.0484858 -0.38686103 0
2.4657404 1.0447977 -0.38702729 0
2.5592694 1.0412714 -0.38888299 0
2.6516962 1.0568202 -0.39095521 0
2.7565687 1.0532507 -0.39296415 0
2.8538425 1.0438533 -0.39398804 0
2.9458075 1.053664 -0.39517981 0
3.0530849 1.0430028 -0.39745444 0
-3.1166403 1.165343 -0.30085212 0
-3.023483 1.1552349 -0.30142057 0
-2.9315937 1.1442428 -0.30248949 0
-2.8345213 1.1534196 -0.30358511 0
-2.7451165 1.1399844 -0.30482671 0
-2.6507192 1.1455059 -0.30632406 0
-2.550849 1.1459256 -0.30737656 0
-2.454596 1.1452316 -0.3087216 0
-2.3646927 1.1447811 -0.31058657 0
-2.2563288 1.1527562 -0.3125912 0
-2.1496973 1.1373249 -0.31423163 0
-2.0449686 1.1580272 -0.31574306 0
-1.9562343 1.1450223 -0.31685269 0
-1.8613119 1.143916 -0.31812942 0
-1.7660923 1.1563454 -0.32033587 0
-1.6589742 1.1492425 -0.32225472 0
-1.5484555 1.1489736 -0.32372466 0
-1.4547524 1.1455352 -0.32506394 0
-1.3491313 1.1525867 -0.32639527 0
-1.2431456 1.1449548 -0.32774305 0
-1.1592537 1.1468997 -0.33050579 0
-1.0536894 1.1570994 -0.3319478 0
-0.94271648 1.1390404 -0.33388284 0
-0.85327476 1.1557246 -0.3348785 0
-0.74190909 1.1523592 -0.33887821 0
-0.6354534 1.1508507 -0.33888134 0
-0.55049556 1.147761 -0.34118739 0
-0.46843684 1.1876704 -0.34213725 0
0.59459227 1.1953603 -0.35773179 0
0.65677381 1.1695509 -0.35951853 0
0.75532275 1.1448293 -0.36164379 0
0.85333633 1.1474167 -0.36298743 0
0.94008875 1.1461318 -0.3655397 0
1.0600032 1.1700193 -0.36881265 0
1.1323344 1.1427171 -0.36681876 0
1.2496109 1.1410147 -0.36817363 0
1.3495698 1.1431105 -0.37183958 0
1.4450712 1.1477283 -0.37295431 0
1.5443103 1.142324 -0.37436146 0
1.6440834 1.1623613 -0.37663978 0
1.7555106 1.1492478 -0.37834898 0
1.8483667 1.1541463 -0.3796435 0
1.9431233 1.1561973 -0.3807849 0
2.0379124 1.1539645 -0.38251513 0
2.140655 1.1521769 -0.38534304 0
2.2331486 1.1610979 -0.38610938 0
2.3427031 1.1340834 -0.38735351 0
2.4382727 1.1376296 -0.38883328 0
2.5349824 1.1387938 -0.39034972 0
2.6242371 1.1563739 -0.39177153 0
2.7380478 1.1522998 -0.39269462 0
2.8491881 1.1595843 -0.39585596 0
2.9152074 1.1378512 -0.39734125 0
3.0233238 1.1304817 -0.39738268 0
-3.1664393 1.2884214 -0.30001336 0
-3.0907829 1.2319392 -0.30051425 0
-2.9653466 1.23958 -0.302279 0
-2.8492956 1.2555876 -0.30408365 0
-2.7390785 1.2385062 -0.30520308 0
-2.6334555 1.2517388 -0.30718803 0
-2.5214489 1.2430652 -0.30929047 0
-2.4268782 1.2398664 -0.31069589 0
-2.3334215 1.2345706 -0.31223956 0
-2.22209 1.2524107 -0.31396016 0
-2.1479471 1.2366912 -0.31469071 0
-2.0551903 1.2564062 -0.31671479 0
-1.9458721 1.2461554 -0.31828108 0
-1.8453127 1.2527558 -0.32048595 0
-1.7484528 1.2486657 -0.32153466 0
-1.6406382 1.2319194 -0.32299066 0
-1.5648203 1.2587916 -0.32433069 0
-1.4469036 1.2578468 -0.32620448 0
-1.3573239 1.2501262 -0.32752788 0
-1.2380921 1.2425365 -0.32988766 0
-1.14108 1.2481704 -0.33097279 0
-1.0463576 1.2550998 -0.33264276 0
-0.94535249 1.2497153 -0.33406422 0
-0.83784866 1.2503132 -0.33922467 0
-0.74134928 1.2624205 -0.33819073 0
-0.66820264 1.2547452 -0.33941996 0
-0.56471801 1.2452432 -0.34146315 0
-0.44946018 1.256475 -0.34402353 0
-0.35835007 1.255753 -0.34406289 0
-0.25309843 1.2700198 -0.34706289 0
-0.1520419 1.2821549 -0.34606233 0
-0.069783024 1.2989635 -0.34855759 0
0.023226092 1.2979938 -0.34785151 0
0.26055479 1.2910527 -0.35296679 0
0.36152434 1.2784481 -0.35606462 0
0.45414796 1.2554579 -0.35780504 0
0.55745512 1.2458384 -0.36060771 0
0.6451751 1.2516549 -0.35999709 0
0.74395305 1.2515801 -0.36282629 0
0.85938025 1.2648504 -0.36329883 0
0.95306683 1.2528889 -0.36524734 0
1.0408349 1.2394487 -0.36650679 0
1.1528914 1.2429702 -0.37041563 0
1.2457917 1.2503552 -0.36985087 0
1.3544073 1.2472571 -0.37153283 0
1.4510225 1.2492999 -0.37325236 0
1.5471822 1.2384418 -0.37557459 0
1.6626104 1.2670979 -0.37749842 0
1.7523844 1.2578951 -0.3786858 0
1.8588045 1.2553144 -0.3806068 0
1.9514669 1.2512609 -0.38222709 0
2.0675251 1.2502249 -0.38376793 0
2.1677361 1.2688926 -0.38524413 0
2.2561741 1.2563405 -0.38693768 0
2.345582 1.2412481 -0.38873348 0
2.442179 1.247722 -0.39037085 0
2.5523326 1.2507747 -0.39178857 0
2.6607976 1.241432 -0.393547 0
2.7791202 1.248473 -0.39536729 0
2.869061 1.264262 -0.39668202 0
2.9725909 1.2594614 -0.3979131 0
-3.1409264 1.3840992 -0.3006314 0
-3.0535243 1.3455762 -0.30150381 0
-2.9543049 1.3527094 -0.30325979 0
-2.86326 1.3358967 -0.30443665 0
-2.7703676 1.341164 -0.30591023 0
-2.677475 1.343828 -0.30784214 0
-2.5798464 1.3413485 -0.30939957 0
-2.457221 1.3454295 -0.31115943 0
-2.3491528 1.3452801 -0.31247094 0
-2.241014 1.3440943 -0.31488213 0
-2.1612236 1.3619901 -0.31638274 0
-2.0425646 1.3582617 -0.31807992 0
-1.9556786 1.341185 -0.31922638 0
-1.8516836 1.3494148 -0.32080504 0
-1.7578676 1.3397456 -0.32203588 0
-1.6593349 1.3415602 -0.32385424 0
-1.5493201 1.3469555 -0.32608411 0
-1.4696547 1.3535032 -0.32644245 0
-1.3615656 1.3507541 -0.32923442 0
-1.2529948 1.3548237 -0.33039311 0
-1.1580982 1.3614334 -0.33183116 0
-1.0517788 1.349902 -0.33432865 0
-0.95400196 1.3525814 -0.33689556 0
-0.84771442 1.368346 -0.33772916 0
-0.74514633 1.3497429 -0.3388519 0
-0.64595932 1.3383898 -0.34065083 0
-0.55187017 1.3634999 -0.34298325 0
-0.45394811 1.3447866 -0.3440932 0
-0.34358323 1.3522911 -0.34524336 0
-0.25617361 1.3507372 -0.34739092 0
-0.15041101 1.3513683 -0.34698376 0
-0.050807465 1.3433846 -0.35030639 0
0.050720632 1.3437634 -0.35159031 0
0.14998201 1.347993 -0.35445157 0
0.24679644 1.350614 -0.35478994 0
0.34315959 1.3444675 -0.35745245 0
0.45120353 1.3444595 -0.3578161 0
0.54022419 1.3488489 -0.36039442 0
0.65695918 1.3448904 -0.36195496 0
0.7570768 1.3709368 -0.36413896 0
0.84016454 1.338208 -0.36418861 0
0.94032037 1.3605893 -0.36565137 0
1.0415722 1.3565875 -0.36775085 0
1.1556799 1.3388596 -0.36961591 0
1.2699007 1.3691064 -0.37149796 0
1.3500427 1.354876 -0.37329498 0
1.4512855 1.3428446 -0.37451503 0
1.5532134 1.3603048 -0.37582785 0
1.6508938 1.3542256 -0.3783561 0
1.7521486 1.3552778 -0.38031638 0
1.8451529 1.351524 -0.38112783 0
1.9480293 1.3565097 -0.38208577 0
2.0201156 1.3391054 -0.38392937 0
2.1411562 1.3584003 -0.3859663 0
2.2279279 1.3472142 -0.38727733 0
2.3341756 1.3439029 -0.38872805 0
2.4291093 1.352631 -0.38994351 0
2.5424144 1.3450255 -0.39227891 0
2.6405935 1.3490839 -0.39423108 0
2.7351646 1.3483038 -0.39560306 0
2.8354173 1.3476673 -0.39728659 0
2.943959 1.3394083 -0.39938596 0
-3.1166809 1.4541497 -0.30178022 0
-3.0137725 1.4589937 -0.30310446 0
-2.9192591 1.4651802 -0.30505776 0
-2.8285229 1.4450654 -0.30621502 0
-2.7324493 1.4456812 -0.30807289 0
-2.6345186 1.4425187 -0.30912864 0
-2.5388546 1.4376993 -0.31046394 0
-2.4368563 1.4499385 -0.31228167 0
-2.3369989 1.4593315 -0.31435964 0
-2.2407262 1.4441543 -0.31540105 0
-2.1300502 1.4545497 -0.31735745 0
-2.0585725 1.4406589 -0.31867445 0
-1.9463272 1.4397745 -0.32025999 0
-1.8542051 1.448614 -0.32108727 0
-1.7539374 1.4470772 -0.3232888 0
-1.6537304 1.4517165 -0.32499838 0
-1.5475041 1.4412956 -0.32658613 0
-1.4579479 1.458078 -0.32900476 0
-1.3566729 1.4500542 -0.32960534 0
-1.2451521 1.4508619 -0.33090276 0
-1.154299 1.459709 -0.33425593 0
-1.067248 1.4536641 -0.33486348 0
-0.94979787 1.4431577 -0.33750391 0
-0.85781699 1.463707 -0.33679289 0
-0.75728369 1.4439859 -0.33939335 0
-0.64538425 1.4443214 -0.34207463 0
-0.5510087 1.4579521 -0.34297907 0
-0.45971462 1.4285724 -0.34487042 0
-0.35506198 1.4531095 -0.34613445 0
-0.24751438 1.4659299 -0.34766564 0
-0.16251773 1.4596974 -0.34865281 0
-0.056719176 1.4409912 -0.35053864 0
0.046513595 1.445913 -0.3524186 0
0.15105209 1.4495233 -0.35436484 0
0.25473496 1.4379737 -0.35585511 0
0.34939963 1.4524574 -0.35696954 0
0.44296199 1.4718848 -0.35882708 0
0.55090159 1.4571645 -0.36121237 0
0.64747912 1.4318204 -0.36217424 0
0.73656958 1.4400811 -0.36423421 0
0.85414386 1.4473722 -0.36648899 0
0.94187355 1.4500482 -0.36668444 0
1.0431261 1.4640707 -0.36907843 0
1.1631678 1.4555765 -0.37105513 0
1.2462283 1.4438052 -0.37163767 0
1.3570971 1.4630725 -0.37323943 0
1.4551643 1.4535247 -0.37503985 0
1.5420064 1.4542456 -0.37700579 0
1.6397232 1.4461886 -0.37778622 0
1.7362452 1.4451369 -0.38032642 0
1.831441 1.4590089 -0.38259324 0
1.940364 1.4516118 -0.38411427 0
2.0482237 1.4481914 -0.38490289 0
2.1538117 1.4544506 -0.3866857 0
2.2724354 1.4416901 -0.38869777 0
2.3701289 1.456483 -0.39043102 0
2.4751692 1.4488423 -0.39128041 0
2.554981 1.4388727 -0.39270225 0
2.652528 1.4442955 -0.39434591 0
2.7579401 1.4508106 -0.39628434 0
2.8596811 1.4611945 -0.39843753 0
2.9148519 1.4110665 -0.39847511 0
-3.0905733 1.5512285 -0.30309543 0
-2.9803977 1.5496099 -0.30529308 0
-2.8818221 1.551208 -0.30641538 0
-2.785208 1.5509738 -0.30779767 0
-2.6853449 1.5461342 -0.30874687 0
-2.5645411 1.5340303 -0.31108198 0
-2.4582653 1.5515481 -0.31301898 0
-2.3821237 1.5595121 -0.31381822 0
-2.2638576 1.5525919 -0.31524059 0
-2.1764021 1.5623031 -0.31591782 0
-2.0632515 1.5492605 -0.31888455 0
-1.9478968 1.551825 -0.3206411 0
-1.8315657 1.5468966 -0.32264426 0
-1.7384917 1.5556244 -0.32401288 0
-1.6399127 1.5542136 -0.326345 0
-1.5421107 1.5476598 -0.32848972 0
-1.4336699 1.5456418 -0.32923627 0
-1.3503234 1.5515321 -0.330044 0
-1.2444648 1.5430431 -0.3336328 0
-1.1479836 1.5493412 -0.33412701 0
-1.0553925 1.5508187 -0.33645061 0
-0.95630723 1.5439333 -0.33728415 0
-0.84746981 1.534717 -0.33781081 0
-0.76153225 1.5589993 -0.34096247 0
-0.64926589 1.547918 -0.34311083 0
-0.55222839 1.5494938 -0.34336951 0
-0.44283575 1.548667 -0.3455483 0
-0.35886264 1.5475549 -0.34716585 0
-0.25311899 1.558497 -0.34771469 0
-0.13950852 1.5361983 -0.35023388 0
-0.047108818 1.5330297 -0.35150015 0
0.05205068 1.529107 -0.35334542 0
0.14874117 1.5343062 -0.35420552 0
0.24757232 1.5241168 -0.35643783 0
0.3491095 1.5373458 -0.35819122 0
0.45423087 1.5638875 -0.35947031 0
0.5458051 1.5430425 -0.36134395 0
0.64300686 1.5465581 -0.36352375 0
0.74636233 1.5557963 -0.36510509 0
0.84476298 1.5404243 -0.3658841 0
0.94128114 1.5442547 -0.36717591 0
1.0543504 1.5732182 -0.37008303 0
1.1419764 1.5343734 -0.37103033 0
1.2484471 1.5556885 -0.37289673 0
1.3689742 1.5632824 -0.37442216 0
1.4403292 1.5381551 -0.37505063 0
1.5386087 1.5486215 -0.37701574 0
1.6361915 1.5507054 -0.37841487 0
1.7398546 1.5568314 -0.38063776 0
1.8447459 1.5624243 -0.38298661 0
1.9404564 1.5346518 -0.38551143 0
2.0564203 1.5516428 -0.38709188 0
2.143981 1.5390158 -0.38681686 0
2.2351043 1.5407997 -0.3885932 0
2.3152699 1.5395296 -0.39017105 0
2.4422343 1.5494092 -0.39231694 0
2.5536134 1.5526613 -0.39401785 0
2.6288855 1.5388172 -0.39429855 0
2.7298298 1.5457528 -0.39574561 0
2.8384531 1.5541291 -0.39802057 0
-3.0565083 1.6452376 -0.30455878 0
-2.9429607 1.6388202 -0.30607128 0
-2.841819 1.6362264 -0.30700761 0
-2.7382364 1.6559385 -0.30919576 0
-2.6434233 1.650672 -0.31079769 0
-2.5445528 1.6399746 -0.3120316 0
-2.4402862 1.6480558 -0.31284487 0
-2.3347864 1.6507684 -0.31252012 0
-2.2321744 1.6513171 -0.31497675 0
-2.1461143 1.660076 -0.31769359 0
-2.0261536 1.6378787 -0.31990671 0
-1.975872 1.6687424 -0.32101059 0
-1.8625267 1.6427764 -0.32302016 0
-1.7478704 1.6565369 -0.32542506 0
-1.6458384 1.651769 -0.32734248 0
-1.5405351 1.6372491 -0.3281661 0
-1.4496078 1.6473559 -0.32919672 0
-1.3419782 1.6418977 -0.33242589 0
-1.2589444 1.6538831 -0.33385301 0
-1.1542948 1.6446536 -0.33486545 0
-1.0447581 1.6547886 -0.3362709 0
-0.96370322 1.6331472 -0.33748379 0
-0.85438091 1.657308 -0.33940586 0
-0.73440748 1.6506001 -0.34331957 0
-0.64691818 1.6402103 -0.34277016 0
-0.54841167 1.6634769 -0.34419456 0
-0.4434461 1.6590395 -0.34684229 0
-0.34864599 1.660363 -0.34805313 0
-0.25341997 1.6342967 -0.34840637 0
-0.14883515 1.6596217 -0.35100633 0
-0.060297795 1.6573349 -0.35286924 0
0.041269798 1.6459111 -0.35495579 0
0.15184388 1.655051 -0.35558909 0
0.25320691 1.6431237 -0.35768494 0
0.3562628 1.662226 -0.3591575 0
0.45215145 1.6439583 -0.36047691 0
0.5507217 1.6479788 -0.36131158 0
0.63935077 1.6623447 -0.36498025 0
0.74224448 1.6364216 -0.36566886 0
0.84617931 1.6708606 -0.36681733 0
0.95188004 1.6370087 -0.36715096 0
1.0401556 1.6525886 -0.37075478 0
1.1335808 1.6402779 -0.37269774 0
1.2401149 1.6639066 -0.37358314 0
1.3507951 1.6440903 -0.37512872 0
1.4478716 1.6377429 -0.37556139 0
1.5302172 1.6497124 -0.37813869 0
1.6479673 1.653839 -0.3792564 0
1.7433665 1.6520485 -0.38045412 0
1.8645124 1.6683731 -0.38371459 0
1.9350568 1.6422724 -0.38502264 0
2.0397041 1.6488729 -0.38707748 0
2.1445422 1.6344696 -0.38913426 0
2.2347074 1.6531872 -0.39023399 0
2.350111 1.636489 -0.39127454 0
2.4494209 1.6540847 -0.3932488 0
2.5628603 1.6517587 -0.3951399 0
2.660677 1.6614143 -0.39666283 0
2.7666829 1.6461681 -0.39762381 0
-3.0173824 1.7277876 -0.30505595 0
-2.9563713 1.7496659 -0.30618265 0
-2.862674 1.74998 -0.30824405 0
-2.7856317 1.7672796 -0.30919766 0
-2.684603 1.7575423 -0.31049943 0
-2.5630951 1.7397218 -0.31078431 0
-2.4458659 1.7470818 -0.30820343 0
-2.3756914 1.7574856 -0.31094277 0
-2.2727509 1.7580552 -0.31550109 0
-2.1669273 1.751685 -0.31830287 0
-2.0631428 1.7425271 -0.31984797 0
-1.9490067 1.7440996 -0.32225078 0
-1.8587424 1.7446451 -0.3244403 0
-1.752437 1.7587473 -0.32662487 0
-1.6432931 1.7464499 -0.32726771 0
-1.5406573 1.7595499 -0.32897121 0
-1.4443588 1.7481856 -0.33133587 0
-1.3469064 1.7543045 -0.33298007 0
-1.23876 1.7388681 -0.33361581 0
-1.145364 1.7559658 -0.3347013 0
-1.0446697 1.7703557 -0.33729258 0
-0.9602173 1.7449903 -0.33838779 0
-0.85766524 1.7551522 -0.34080958 0
-0.75721037 1.7695568 -0.3432464 0
-0.66126496 1.741662 -0.3434121 0
-0.55521393 1.7690983 -0.34505123 0
-0.46518552 1.734597 -0.3473824 0
-0.36282313 1.7544845 -0.34829718 0
-0.2567957 1.7587885 -0.34950739 0
-0.16482203 1.7654765 -0.35116866 0
-0.056268163 1.7461306 -0.35344985 0
0.044088028 1.758167 -0.35568345 0
0.14456195 1.7511976 -0.35677728 0
0.24552554 1.747738 -0.35718983 0
0.34720421 1.7413224 -0.3600359 0
0.45311549 1.7450086 -0.36154112 0
0.54310346 1.7742714 -0.3623592 0
