# .PCD v0.7 - Point Cloud Data file format
VERSION 0.7
FIELDS x y z intensity
SIZE 4 4 4 4
TYPE F F F F
COUNT 1 1 1 1
WIDTH 1344
HEIGHT 1
VIEWPOINT 0 0 0 1 0 0 0
POINTS 1344
DATA ascii
1.8566654 -2.0600557 -0.35231709 0
1.9556139 -2.0486851 -0.3533709 0
2.0505342 -2.0284777 -0.3541759 0
-2.566797 -1.9563086 -0.30006593 0
-2.4537785 -1.9547315 -0.30095062 0
-2.3480802 -1.9544998 -0.30289 0
-2.2560539 -1.9331324 -0.30419883 0
-2.1473465 -1.93986 -0.30328527 0
-2.0614579 -1.9536899 -0.30610546 0
-1.9601701 -1.9483951 -0.30744228 0
-1.8486706 -1.9646527 -0.30742213 0
-1.7446449 -1.9357685 -0.3081235 0
-1.6353741 -1.9224679 -0.30990976 0
-1.5726188 -1.9501481 -0.3107568 0
-1.4488961 -1.9441558 -0.31288436 0
-1.3613497 -1.9401037 -0.31490871 0
-1.2550642 -1.9627922 -0.31546324 0
-1.1488813 -1.946846 -0.31598622 0
-1.053653 -1.940985 -0.3181946 0
-0.95694917 -1.9587616 -0.32027531 0
-0.85989201 -1.9402813 -0.31957734 0
-0.73458046 -1.9572166 -0.32182506 0
-0.65076834 -1.9275155 -0.32224011 0
-0.55166841 -1.951726 -0.32400334 0
-0.45300069 -1.9754024 -0.32392326 0
-0.3487893 -1.969555 -0.32580131 0
-0.25044695 -1.9526461 -0.32737556 0
-0.14906406 -1.9426733 -0.32848412 0
-0.048527855 -1.936581 -0.32921422 0
0.048660427 -1.9425713 -0.33070946 0
0.14686127 -1.9507232 -0.33268133 0
0.24419512 -1.9391143 -0.33318466 0
0.35624182 -1.9301416 -0.33496445 0
0.45938551 -1.9394172 -0.33642274 0
0.54192859 -1.9599791 -0.33680162 0
0.64325303 -1.9510082 -0.33895978 0
0.76167065 -1.9540447 -0.34018925 0
0.84235775 -1.968459 -0.34069771 0
0.94554883 -1.9323162 -0.34122169 0
1.0549902 -1.9769363 -0.34167305 0
1.1450887 -1.9403728 -0.34358469 0
1.2413077 -1.9721428 -0.34573758 0
1.3555756 -1.9318053 -0.34713864 0
1.4466442 -1.9703909 -0.3473638 0
1.54441 -1.9529756 -0.34809682 0
1.6511941 -1.9410526 -0.35044456 0
1.7636698 -1.956893 -0.35131946 0
1.8550223 -1.9621464 -0.35302258 0
1.9281907 -1.9350983 -0.35295337 0
2.0484746 -1.9412832 -0.35470155 0
2.1447306 -1.946762 -0.35567001 0
2.2232161 -1.9050033 -0.35966405 0
-2.5279307 -1.8422129 -0.30064917 0
-2.4236445 -1.8472097 -0.30201796 0
-2.3433845 -1.8487481 -0.30239809 0
-2.2352781 -1.8514065 -0.30425948 0
-2.1372671 -1.8403988 -0.30584493 0
-2.0555758 -1.8660765 -0.30488354 0
-1.9575357 -1.8551936 -0.30721143 0
-1.8422542 -1.8489118 -0.30857739 0
-1.7331728 -1.8209041 -0.3094539 0
-1.6637759 -1.8592851 -0.30876201 0
-1.5494531 -1.8481026 -0.31091526 0
-1.4599893 -1.8461993 -0.31336612 0
-1.3436053 -1.8434842 -0.31498337 0
-1.2576114 -1.8766677 -0.31546071 0
-1.1591151 -1.8414788 -0.31642559 0
-1.044194 -1.8435847 -0.31796804 0
-0.94591451 -1.8513079 -0.32212192 0
-0.845375 -1.8325301 -0.32060808 0
-0.75536263 -1.8604603 -0.32138738 0
-0.64057362 -1.8620602 -0.32269269 0
-0.54614365 -1.8314211 -0.32415062 0
-0.44196647 -1.865503 -0.32512808 0
-0.34064004 -1.8459187 -0.32595533 0
-0.24862304 -1.8462145 -0.32765752 0
-0.13922583 -1.8504606 -0.32912433 0
-0.046556111 -1.8577639 -0.32967535 0
0.046674985 -1.8635104 -0.33101961 0
0.15409556 -1.8687705 -0.33302283 0
0.24784029 -1.8607715 -0.33362421 0
0.34179953 -1.8518866 -0.33502841 0
0.44830483 -1.8344129 -0.33617115 0
0.54625887 -1.8479899 -0.33681679 0
0.64623207 -1.8696662 -0.33893654 0
0.74224257 -1.842931 -0.3399381 0
0.84860247 -1.8494946 -0.34083065 0
0.96000123 -1.830217 -0.34085512 0
1.0562241 -1.8807265 -0.34209988 0
1.1563898 -1.8372127 -0.34452909 0
1.2394079 -1.8353502 -0.34588951 0
1.3437825 -1.8303013 -0.34638253 0
1.4483782 -1.8586525 -0.34682521 0
1.5547124 -1.8543172 -0.35000873 0
1.6361052 -1.8416059 -0.35018 0
1.7502396 -1.8600054 -0.35144418 0
1.8667506 -1.8734411 -0.35245436 0
1.9521847 -1.8500977 -0.35303849 0
2.0398407 -1.8253119 -0.3551788 0
2.1478064 -1.8403296 -0.35704601 0
2.2517364 -1.8470762 -0.35760498 0
2.3038001 -1.8084943 -0.36013514 0
-2.4433637 -1.745241 -0.30129686 0
-2.3648462 -1.7494607 -0.30189574 0
-2.2502651 -1.7405982 -0.30420265 0
-2.1566951 -1.7435207 -0.30456656 0
-2.0599821 -1.7398089 -0.30692813 0
-1.9526007 -1.7471741 -0.30667794 0
-1.8438687 -1.7309552 -0.30944523 0
-1.7765219 -1.7683918 -0.3095718 0
-1.6636903 -1.7430158 -0.3106086 0
-1.5488091 -1.7434112 -0.31140834 0
-1.4525275 -1.7324895 -0.31232667 0
-1.3607011 -1.7546347 -0.31434479 0
-1.2517359 -1.7622505 -0.31677502 0
-1.1412253 -1.7569742 -0.31763852 0
-1.0484887 -1.7229972 -0.31796527 0
-0.95469749 -1.7586923 -0.31971323 0
-0.84952688 -1.7514191 -0.32207784 0
-0.74626923 -1.7439729 -0.32145059 0
-0.64163953 -1.7500204 -0.3223789 0
-0.54910648 -1.7493479 -0.32449734 0
-0.44341525 -1.7591883 -0.32627258 0
-0.36155248 -1.735112 -0.3256461 0
-0.25830173 -1.7482219 -0.3278257 0
-0.15846449 -1.7667758 -0.32914895 0
-0.068399936 -1.7428015 -0.33111274 0
0.041094508 -1.7383602 -0.3317728 0
0.14323954 -1.737373 -0.33364835 0
0.24485078 -1.7431313 -0.33438873 0
0.3532913 -1.7717202 -0.3356503 0
0.45497379 -1.7523093 -0.33646643 0
0.56246507 -1.7390429 -0.33709377 0
0.65100342 -1.7602482 -0.33949825 0
0.75062662 -1.7542311 -0.34008729 0
0.84216678 -1.7550769 -0.34009999 0
0.94875938 -1.7476393 -0.34091586 0
1.044247 -1.7582102 -0.34252748 0
1.1495907 -1.7422812 -0.34507662 0
1.2647431 -1.7617886 -0.3464599 0
1.3426312 -1.7285727 -0.34576723 0
1.4542885 -1.7598314 -0.34835824 0
1.5494907 -1.7441087 -0.34952098 0
1.6494988 -1.7406889 -0.35029009 0
1.7441485 -1.7504411 -0.35163602 0
1.8442383 -1.7730128 -0.35243687 0
1.9504544 -1.753533 -0.35430154 0
2.055779 -1.7615316 -0.35741952 0
2.1195462 -1.7386646 -0.35601214 0
2.2328997 -1.7527122 -0.3583717 0
2.3396614 -1.7481213 -0.35902286 0
-2.6602056 -1.6611128 -0.30064633 0
-2.559639 -1.6496844 -0.3013252 0
-2.4475195 -1.6528509 -0.30152404 0
-2.3466268 -1.6340883 -0.30263916 0
-2.2460835 -1.6531453 -0.30296946 0
-2.1373401 -1.6290114 -0.30592203 0
-2.0430388 -1.6434097 -0.30597985 0
-1.9272064 -1.6433321 -0.30952838 0
-1.8568197 -1.661464 -0.30784529 0
-1.7524719 -1.6371367 -0.30945352 0
-1.6371493 -1.6431388 -0.31111407 0
-1.5508354 -1.6481912 -0.3121188 0
-1.4482795 -1.6457976 -0.31335175 0
-1.3509727 -1.6590782 -0.31429288 0
-1.2572654 -1.662177 -0.31604213 0
-1.146608 -1.6381383 -0.31813538 0
-1.0471482 -1.6637783 -0.3183071 0
-0.95503587 -1.6451187 -0.31940526 0
-0.85166025 -1.6619767 -0.32222605 0
-0.7516216 -1.6571792 -0.3221899 0
-0.64680886 -1.6397854 -0.32208025 0
-0.54857677 -1.6642259 -0.32478654 0
-0.46145955 -1.6326134 -0.32666218 0
-0.34868485 -1.6373211 -0.32626864 0
-0.24856274 -1.6514263 -0.32809576 0
-0.15012385 -1.6742182 -0.32960844 0
-0.041818067 -1.6752483 -0.33060235 0
0.045888346 -1.6714147 -0.3312476 0
0.148426 -1.6546751 -0.33338559 0
0.24700904 -1.6725438 -0.33400339 0
0.34189451 -1.6737608 -0.33583608 0
0.44571999 -1.6542702 -0.33613175 0
0.54911083 -1.6386632 -0.33702528 0
0.66088462 -1.6316991 -0.3395212 0
0.75550234 -1.6658425 -0.34013882 0
0.84538186 -1.6519935 -0.33958682 0
0.94857663 -1.6611496 -0.34128553 0
1.061277 -1.644318 -0.34392571 0
1.1539379 -1.6445363 -0.34510803 0
1.2583458 -1.6634588 -0.34506264 0
1.3551471 -1.6497223 -0.3473728 0
1.450364 -1.6495657 -0.34848222 0
1.5488107 -1.6343923 -0.35007983 0
1.6452518 -1.643104 -0.35072449 0
1.7448791 -1.6300316 -0.35173938 0
1.8466951 -1.6523583 -0.35317376 0
1.9605367 -1.6556864 -0.35450321 0
2.065731 -1.6698923 -0.35582545 0
2.1626015 -1.6646675 -0.35799479 0
2.2382057 -1.6393094 -0.35681126 0
2.35147 -1.6625561 -0.35707381 0
2.4392805 -1.6220014 -0.35968527 0
-2.5407102 -1.5528799 -0.30130824 0
-2.4489031 -1.553925 -0.30192125 0
-2.3625252 -1.5546693 -0.30288789 0
-2.2528219 -1.5609738 -0.30409372 0
-2.1691451 -1.55703 -0.30410945 0
-2.0704422 -1.5548486 -0.30598831 0
-1.9637055 -1.5476952 -0.30774793 0
-1.8493717 -1.5393343 -0.30968401 0
-1.7408946 -1.5353525 -0.31073904 0
-1.6445748 -1.5439531 -0.31110352 0
-1.548219 -1.553436 -0.31234261 0
-1.4398326 -1.5523658 -0.31386465 0
-1.3346288 -1.5462428 -0.31497762 0
-1.2419837 -1.5477779 -0.31556809 0
-1.1470487 -1.5481478 -0.3180134 0
-1.0484694 -1.5646589 -0.31923851 0
-0.9529106 -1.5383482 -0.31997609 0
-0.8450675 -1.5566221 -0.32084534 0
-0.73910093 -1.5500408 -0.32341337 0
-0.65370935 -1.5333687 -0.32307729 0
-0.55074781 -1.5578109 -0.32389781 0
-0.43903464 -1.5613111 -0.3270902 0
-0.3547383 -1.5469985 -0.32654205 0
-0.2513839 -1.5477628 -0.32794249 0
-0.1417138 -1.5477928 -0.33084944 0
-0.053793002 -1.5576206 -0.33159283 0
0.047611032 -1.5540205 -0.33262435 0
0.14975403 -1.5452554 -0.33318508 0
0.23480217 -1.5445124 -0.33438069 0
0.34619313 -1.5604283 -0.33579898 0
0.44628888 -1.5361054 -0.3355343 0
0.54885894 -1.551796 -0.33820483 0
0.64598763 -1.5461038 -0.33914277 0
0.75132281 -1.5582507 -0.33908746 0
0.86090839 -1.5359623 -0.34060952 0
0.94495291 -1.5751876 -0.34192222 0
1.0499293 -1.537835 -0.34386611 0
1.1503356 -1.5435375 -0.34405041 0
1.2406151 -1.5536996 -0.34578514 0
1.3486824 -1.5401604 -0.34804931 0
1.4441808 -1.5348399 -0.34880391 0
1.5607309 -1.5528724 -0.34988269 0
1.6426497 -1.5458419 -0.35063234 0
1.7428448 -1.5371574 -0.3518371 0
1.8404797 -1.5319691 -0.35327101 0
1.9445281 -1.5489144 -0.35466662 0
2.0473416 -1.5604104 -0.35585538 0
2.1510201 -1.5439373 -0.35604504 0
2.2781856 -1.5623815 -0.35782737 0
2.3495507 -1.5544275 -0.35873011 0
2.4743299 -1.5449075 -0.36050576 0
2.5259843 -1.5029032 -0.36089656 0
-2.6556892 -1.4788764 -0.30011365 0
-2.5646353 -1.4522632 -0.30102855 0
-2.4651642 -1.4428853 -0.30211949 0
-2.3451073 -1.4643044 -0.30333826 0
-2.2515423 -1.4511218 -0.30476242 0
-2.1373754 -1.4657453 -0.30611214 0
-2.033766 -1.437867 -0.30634513 0
-1.937821 -1.4551245 -0.30790988 0
-1.8284941 -1.4354119 -0.31042185 0
-1.7411889 -1.4421692 -0.3109518 0
-1.6466582 -1.4523625 -0.31194186 0
-1.5553023 -1.473982 -0.31153286 0
-1.4673686 -1.451864 -0.31298587 0
-1.3570876 -1.4457713 -0.31535634 0
-1.2521223 -1.4589726 -0.31575578 0
-1.1543992 -1.4597437 -0.31766194 0
-1.0486604 -1.449977 -0.31918338 0
-0.95175111 -1.4426262 -0.32031971 0
-0.84912872 -1.4387798 -0.32155105 0
-0.75638431 -1.4578925 -0.3222248 0
-0.65061003 -1.4504956 -0.32376766 0
-0.55864781 -1.4466913 -0.32355019 0
-0.46054846 -1.4474715 -0.32629913 0
-0.35365489 -1.4464809 -0.32699189 0
-0.23853917 -1.4416766 -0.32890716 0
-0.15761067 -1.429566 -0.32965896 0
-0.055401083 -1.4455546 -0.33198074 0
0.047965031 -1.4436696 -0.33257213 0
0.15132597 -1.4360775 -0.33358297 0
0.25120881 -1.4344774 -0.33404732 0
0.3429662 -1.4408177 -0.33568543 0
0.43810058 -1.4433306 -0.33699036 0
0.55257505 -1.4506965 -0.33850291 0
0.6491099 -1.4424658 -0.33905345 0
0.76388568 -1.4512689 -0.34059614 0
0.84851187 -1.456849 -0.34115109 0
0.94576222 -1.4638009 -0.34262618 0
1.0410813 -1.4369093 -0.34326938 0
1.1481633 -1.4516639 -0.34457558 0
1.2445697 -1.4419953 -0.34725794 0
1.3483517 -1.4452057 -0.34767815 0
1.4443249 -1.4288917 -0.34901619 0
1.5533026 -1.4511174 -0.34979796 0
1.6612949 -1.4568424 -0.35113055 0
1.7425863 -1.4397054 -0.35150036 0
1.8514096 -1.4392557 -0.3541328 0
1.9470221 -1.440295 -0.35420281 0
2.0438366 -1.445066 -0.35593319 0
2.1435158 -1.4475989 -0.35676536 0
2.2394979 -1.4660583 -0.35817352 0
2.356643 -1.4482557 -0.35932294 0
2.4534655 -1.4596368 -0.3601605 0
2.5632348 -1.4514716 -0.36169088 0
2.6035771 -1.4013865 -0.36304536 0
-2.620373 -1.3387229 -0.30046767 0
-2.5145183 -1.3534689 -0.30217561 0
-2.4203882 -1.3478482 -0.30360579 0
-2.3423164 -1.356196 -0.30391178 0
-2.2327363 -1.3502181 -0.3052955 0
-2.1312845 -1.3416997 -0.30691725 0
-2.0834715 -1.3640679 -0.30643535 0
-1.963264 -1.3464104 -0.30883563 0
-1.872043 -1.3642459 -0.30879712 0
-1.7635559 -1.3480296 -0.31114101 0
-1.6659309 -1.366583 -0.31260049 0
-1.5596095 -1.35585 -0.31317073 0
-1.4501964 -1.3354065 -0.3134875 0
-1.3557371 -1.353047 -0.31457576 0
-1.2518404 -1.3496569 -0.31630304 0
-1.1490538 -1.3507937 -0.31803352 0
-1.0589045 -1.3588319 -0.31902057 0
-0.94912338 -1.3363206 -0.32006159 0
-0.85574043 -1.3702137 -0.3217153 0
-0.7418257 -1.3466147 -0.32307705 0
-0.65273625 -1.3361273 -0.32357451 0
-0.53638488 -1.3437655 -0.32455799 0
-0.45211697 -1.3393171 -0.32641456 0
-0.34873638 -1.3578193 -0.32747939 0
-0.26339397 -1.3665956 -0.32780325 0
-0.14957114 -1.3428861 -0.33085027 0
-0.052956577 -1.3451321 -0.33189464 0
0.045166988 -1.3433703 -0.33316517 0
0.14982736 -1.3456755 -0.33391726 0
0.24718301 -1.3497066 -0.33474082 0
0.3627035 -1.3638437 -0.33483273 0
0.46218541 -1.3628925 -0.33755961 0
0.5568648 -1.3547637 -0.33873591 0
0.65389436 -1.3364798 -0.34141305 0
0.74763125 -1.348009 -0.34107104 0
0.84988165 -1.3502971 -0.34255123 0
0.9512437 -1.3513258 -0.34368485 0
1.0602505 -1.3604753 -0.34331805 0
1.1586715 -1.3553542 -0.34679458 0
1.2459126 -1.3432792 -0.34699434 0
1.3492622 -1.3540525 -0.34858701 0
1.4382647 -1.3436416 -0.34865746 0
1.5369135 -1.3361121 -0.35011971 0
1.6398666 -1.345144 -0.35117686 0
1.7529114 -1.3558941 -0.35196507 0
1.8449471 -1.3344817 -0.35405439 0
1.9644814 -1.3539833 -0.35569564 0
2.0579379 -1.3615214 -0.35583997 0
2.1605024 -1.3491516 -0.35746193 0
2.2510622 -1.3615586 -0.35784197 0
2.3294644 -1.3411388 -0.35962984 0
2.4280283 -1.3520674 -0.36090955 0
2.5249169 -1.3590435 -0.36269358 0
2.6317153 -1.3587505 -0.36461425 0
-2.6571653 -1.2629395 -0.30023125 0
-2.5556753 -1.2598119 -0.30115291 0
-2.4580643 -1.255793 -0.30248401 0
-2.3619292 -1.2496767 -0.3038936 0
-2.2706454 -1.243282 -0.30571511 0
-2.1492608 -1.2579892 -0.30671564 0
-2.0404441 -1.2539771 -0.30758494 0
-1.9454279 -1.2538074 -0.30918077 0
-1.8496053 -1.2491241 -0.31029689 0
-1.7465028 -1.2536958 -0.31155825 0
-1.6455097 -1.254209 -0.31324106 0
-1.5383345 -1.2436185 -0.31459853 0
-1.4477298 -1.2405289 -0.31560227 0
-1.3493103 -1.2496414 -0.31525525 0
-1.2517805 -1.256264 -0.31671166 0
-1.1423899 -1.2373813 -0.31701216 0
-1.0477058 -1.2548651 -0.31998396 0
-0.9406426 -1.2434816 -0.32024661 0
-0.8461296 -1.2545286 -0.32215193 0
-0.73743302 -1.2381184 -0.32330468 0
-0.64312744 -1.2447006 -0.32455567 0
-0.5545541 -1.2587764 -0.3243967 0
-0.44352925 -1.2542018 -0.32684532 0
-0.35953227 -1.254135 -0.32726091 0
-0.24232094 -1.2495625 -0.32976827 0
-0.15008366 -1.249686 -0.33021858 0
-0.049290668 -1.2523357 -0.33095676 0
0.05333332 -1.2518981 -0.33334246 0
0.16043229 -1.2427254 -0.33340812 0
0.2538946 -1.2584553 -0.33591852 0
0.34262583 -1.2465185 -0.33735538 0
0.44304967 -1.2530218 -0.33811906 0
0.54359406 -1.2461824 -0.33816558 0
0.66467625 -1.2598233 -0.34001711 0
0.75489128 -1.2599328 -0.34206396 0
0.84173483 -1.2368063 -0.34369299 0
0.9497323 -1.2554795 -0.34361863 0
1.0467627 -1.251038 -0.34542772 0
1.1467167 -1.2662292 -0.34658864 0
1.2533542 -1.256133 -0.34744322 0
1.3310233 -1.231777 -0.34755364 0
1.4468752 -1.2578388 -0.34966022 0
1.5398569 -1.2447798 -0.35034293 0
1.6412216 -1.2508446 -0.35179025 0
1.7434978 -1.2514888 -0.35309613 0
1.8476539 -1.2477825 -0.35433859 0
1.9363216 -1.2415624 -0.35559312 0
2.0586779 -1.2651509 -0.35646805 0
2.1463041 -1.2495462 -0.35810313 0
2.2565885 -1.2566012 -0.35951379 0
2.3567448 -1.2398237 -0.3614147 0
2.4611659 -1.2352706 -0.36225671 0
2.5752714 -1.2466874 -0.36344489 0
2.6735835 -1.270716 -0.36483732 0
2.7025032 -1.2140613 -0.36377072 0
-2.6065526 -1.1264317 -0.30075637 0
-2.5403845 -1.1487191 -0.30134347 0
-2.4461558 -1.1485344 -0.30321053 0
-2.3487775 -1.1441208 -0.30449834 0
-2.2258484 -1.1371528 -0.30557743 0
-2.160213 -1.1695653 -0.30702785 0
-2.0435693 -1.1445045 -0.30914325 0
-1.9468474 -1.1583633 -0.30885929 0
-1.8390256 -1.1483564 -0.31108087 0
-1.7354016 -1.1539857 -0.31221464 0
-1.6398941 -1.1455636 -0.3139427 0
-1.5724235 -1.1613528 -0.31427348 0
-1.4692779 -1.1534011 -0.31545871 0
-1.3581892 -1.1471207 -0.31655332 0
-1.2608614 -1.16114 -0.31711325 0
-1.1512039 -1.1505721 -0.31856379 0
-1.0500844 -1.1578082 -0.31880856 0
-0.94949079 -1.1490813 -0.32135633 0
-0.8376224 -1.1462712 -0.32209998 0
-0.75523788 -1.1549593 -0.32347265 0
-0.64532661 -1.1491885 -0.32422224 0
-0.544842 -1.145999 -0.3263855 0
-0.4586128 -1.1545509 -0.32692778 0
-0.34906814 -1.1706489 -0.32741997 0
-0.27345029 -1.1922706 -0.32778457 0
0.39506924 -1.1983613 -0.33809885 0
0.4534941 -1.1744944 -0.33744964 0
0.56103289 -1.1451213 -0.33930805 0
0.6498965 -1.1524544 -0.34122682 0
0.75265855 -1.1486082 -0.34237608 0
0.86159319 -1.1637313 -0.34252036 0
0.95617366 -1.1405133 -0.34451255 0
1.0446256 -1.1496229 -0.34666392 0
1.157686 -1.1507539 -0.34625259 0
1.2528702 -1.1505603 -0.34676427 0
1.3643752 -1.1476601 -0.34901556 0
1.4525528 -1.1516188 -0.35019115 0
1.5603554 -1.1542635 -0.3507064 0
1.6478045 -1.1477925 -0.35278046 0
1.7418985 -1.1476572 -0.35351637 0
1.8565699 -1.1481236 -0.35457912 0
1.9278868 -1.141642 -0.35549065 0
2.0352433 -1.1524283 -0.35729319 0
2.1392753 -1.1514846 -0.35867766 0
2.2316067 -1.1603059 -0.35954627 0
2.3296137 -1.1484332 -0.36002916 0
2.4385529 -1.1375835 -0.36151111 0
2.5376713 -1.139984 -0.36296055 0
2.6365051 -1.1394013 -0.36411658 0
2.7416389 -1.1476424 -0.36600763 0
-2.7434313 -1.0707953 -0.30018544 0
-2.6475055 -1.055208 -0.30117837 0
-2.5526273 -1.0385666 -0.30209848 0
-2.4505272 -1.0382241 -0.30276302 0
-2.3552442 -1.0379549 -0.30392638 0
-2.253499 -1.044827 -0.30589896 0
-2.1440914 -1.0569774 -0.30703485 0
-2.0532906 -1.048945 -0.30806735 0
-1.9598732 -1.054976 -0.30966848 0
-1.8654999 -1.0562979 -0.31098619 0
-1.7693784 -1.0528023 -0.31189084 0
-1.6580968 -1.0564067 -0.31341311 0
-1.5499451 -1.0501313 -0.31432846 0
-1.445547 -1.053517 -0.31598848 0
-1.3562562 -1.0490026 -0.31732315 0
-1.2409662 -1.0524269 -0.31830192 0
-1.1545449 -1.0546862 -0.31751651 0
-1.0487815 -1.0525547 -0.31951883 0
-0.94070911 -1.0437973 -0.32096416 0
-0.86155546 -1.0676291 -0.32190672 0
-0.75293511 -1.0486652 -0.32352865 0
-0.6544981 -1.0455716 -0.32455185 0
-0.5633992 -1.0742216 -0.32508859 0
0.66674405 -1.084793 -0.34125856 0
0.7560153 -1.045313 -0.34142175 0
0.8524614 -1.0490178 -0.34234595 0
0.94122297 -1.0443544 -0.34426013 0
1.0557168 -1.0545591 -0.3456054 0
1.1534848 -1.0621217 -0.34567735 0
1.2496806 -1.0524863 -0.34746096 0
1.3492455 -1.0435958 -0.34932742 0
1.4619447 -1.0440505 -0.35038733 0
1.5651764 -1.0568851 -0.35204783 0
1.6720171 -1.0441053 -0.35282671 0
1.7656065 -1.0504241 -0.353838 0
1.8582823 -1.0522932 -0.35535163 0
1.9729189 -1.0619607 -0.35687524 0
2.0570657 -1.0324497 -0.35685164 0
2.1798389 -1.055264 -0.35796389 0
2.2529395 -1.0514408 -0.35940364 0
2.3601434 -1.0602394 -0.36102092 0
2.4794755 -1.0504891 -0.36237389 0
2.5770938 -1.0486046 -0.36375099 0
2.6766005 -1.0446836 -0.36505556 0
2.7771428 -1.0519527 -0.36593699 0
-2.6829152 -0.9380486 -0.3004609 0
-2.5824983 -0.94457483 -0.3012802 0
-2.4630842 -0.94777507 -0.30369928 0
-2.3379157 -0.93843621 -0.30529463 0
-2.2731388 -0.97268081 -0.30440441 0
-2.1636343 -0.9534601 -0.30647427 0
-2.0494609 -0.95618176 -0.308548 0
-1.9378042 -0.95528477 -0.30997711 0
-1.8373985 -0.95881474 -0.31118393 0
-1.7283715 -0.94187337 -0.31259319 0
-1.6685401 -0.96474868 -0.31305772 0
-1.5473577 -0.94188833 -0.31440896 0
-1.4518257 -0.94179153 -0.3145977 0
-1.3399479 -0.94340771 -0.31708148 0
-1.2603877 -0.95922196 -0.31827432 0
-1.1482586 -0.94964552 -0.31938219 0
-1.0369475 -0.93998045 -0.32013831 0
-0.95953029 -0.96301025 -0.32067344 0
-0.8452636 -0.95150989 -0.32289281 0
-0.75398475 -0.95338571 -0.32360095 0
-0.69932669 -0.99663615 -0.32623151 0
0.79620034 -0.99214453 -0.34086263 0
0.85480827 -0.9485305 -0.34227699 0
0.9532069 -0.9429633 -0.3439472 0
1.0570123 -0.95949018 -0.34449327 0
1.1459533 -0.95839524 -0.34640884 0
1.2412454 -0.94594491 -0.34845048 0
1.3492513 -0.93958902 -0.34930876 0
1.4497912 -0.94912684 -0.35079679 0
1.5417566 -0.94740814 -0.3521238 0
1.6325642 -0.95554388 -0.35265222 0
1.7422636 -0.95738584 -0.35378683 0
1.836053 -0.9545995 -0.35429299 0
1.9507542 -0.95141566 -0.35516712 0
2.0366187 -0.94567537 -0.35684854 0
2.1374276 -0.96018082 -0.35820153 0
2.2438564 -0.93177223 -0.35921994 0
2.3333642 -0.94938546 -0.36050415 0
2.4229157 -0.96569085 -0.36168396 0
2.5217097 -0.96346331 -0.36299339 0
2.6233666 -0.95948768 -0.36422405 0
2.7203205 -0.95110673 -0.36515594 0
2.8257828 -0.94279248 -0.36659423 0
-2.8030553 -0.8688215 -0.30000108 0
-2.7178535 -0.84245437 -0.30063891 0
-2.6195703 -0.85320562 -0.30178007 0
-2.5222151 -0.86160874 -0.30289039 0
-2.4200945 -0.86559862 -0.30348408 0
-2.334182 -0.83487284 -0.30469856 0
-2.2556734 -0.83126497 -0.30518091 0
-2.1293111 -0.84884131 -0.30616763 0
-2.0348098 -0.87935007 -0.30798316 0
-1.9525272 -0.86043406 -0.30934739 0
-1.8650442 -0.85394621 -0.31066138 0
-1.7635012 -0.85372657 -0.31222034 0
-1.6471906 -0.85637558 -0.31358907 0
-1.5665092 -0.84323215 -0.31430686 0
-1.4471874 -0.83325458 -0.31670439 0
-1.362501 -0.85077006 -0.31518286 0
-1.2520921 -0.83626938 -0.31763121 0
-1.1429193 -0.83801305 -0.32036611 0
-1.0619977 -0.86380655 -0.32084179 0
-0.9464711 -0.8573283 -0.32174233 0
-0.85749745 -0.86061209 -0.32339865 0
0.95756048 -0.85685796 -0.34440717 0
1.0492156 -0.84533668 -0.34717944 0
1.1591092 -0.84469652 -0.34821975 0
1.2393882 -0.85227752 -0.34788656 0
1.334155 -0.84643328 -0.34850723 0
1.434208 -0.85331839 -0.34993103 0
1.5636798 -0.8494972 -0.35083488 0
1.6529391 -0.84769404 -0.35221046 0
1.7509966 -0.8416298 -0.35338348 0
1.8604431 -0.84868133 -0.35527331 0
1.9688101 -0.85083085 -0.35661122 0
2.0722799 -0.86051774 -0.35690176 0
2.1517243 -0.84367675 -0.35836586 0
2.2594955 -0.8388381 -0.36007917 0
2.361202 -0.83832091 -0.36193761 0
2.4719555 -0.86427259 -0.36261234 0
2.5692949 -0.8572467 -0.36389956 0
2.6647604 -0.84684616 -0.36487642 0
2.7575614 -0.85470456 -0.36612993 0
2.8645318 -0.84309596 -0.36804488 0
-2.743932 -0.76513904 -0.30091593 0
-2.6488566 -0.75907344 -0.301752 0
-2.5569415 -0.75257891 -0.30298758 0
-2.4607995 -0.76278132 -0.30416241 0
-2.3648269 -0.74532676 -0.30537665 0
-2.2644079 -0.73752731 -0.30633223 0
-2.1759765 -0.74334937 -0.30732369 0
-2.0630987 -0.73791271 -0.30797642 0
-1.9454007 -0.72740483 -0.30779183 0
-1.8313141 -0.78608418 -0.31085768 0
-1.6413593 -0.77420205 -0.31403536 0
-1.5282491 -0.75328147 -0.31523243 0
-1.4346071 -0.74231839 -0.31574687 0
-1.3410733 -0.75570828 -0.31654146 0
-1.2396984 -0.74973559 -0.31743577 0
-1.1485707 -0.74356872 -0.31955189 0
-1.045156 -0.7541557 -0.32145333 0
-0.94991696 -0.7592833 -0.32205927 0
-0.88813168 -0.79470748 -0.31933579 0
1.0605315 -0.74981683 -0.34812328 0
1.1370984 -0.75614017 -0.34792408 0
1.256602 -0.76533276 -0.34764436 0
1.334137 -0.74294686 -0.34891638 0
1.4531769 -0.75037193 -0.35052207 0
1.5526241 -0.73792452 -0.35215536 0
1.6504065 -0.75564528 -0.35287789 0
1.7496567 -0.74130505 -0.35431832 0
1.837353 -0.74749798 -0.35523373 0
1.9383409 -0.75983757 -0.35623884 0
2.0488076 -0.75622904 -0.35805875 0
2.1342261 -0.74195945 -0.3591854 0
2.2363789 -0.74617481 -0.36040473 0
2.3468938 -0.75532258 -0.36128789 0
2.4479506 -0.76529098 -0.36289635 0
2.5421836 -0.75501037 -0.36390504 0
2.6364157 -0.74204856 -0.36595765 0
2.7561147 -0.76156253 -0.36792257 0
2.8460207 -0.75014013 -0.36896873 0
2.91082 -0.74474955 -0.36923176 0
-2.7699184 -0.64562947 -0.30061808 0
-2.670171 -0.66279566 -0.3013401 0
-2.5830948 -0.64118022 -0.30248579 0
-2.4887736 -0.6557734 -0.30386642 0
-2.3873272 -0.65519011 -0.30505347 0
-2.2596812 -0.636949 -0.306548 0
-2.1356206 -0.66196668 -0.30799949 0
-2.0296643 -0.64503938 -0.30896091 0
-1.9415698 -0.64781415 -0.31001163 0
-1.8505975 -0.64694917 -0.3105396 0
-1.4659138 -0.68389791 -0.31676394 0
-1.3475239 -0.64742702 -0.31811431 0
-1.2408296 -0.64829189 -0.31853834 0
-1.1656268 -0.66253239 -0.31842107 0
-1.051747 -0.64607871 -0.32152709 0
-0.98637885 -0.68681788 -0.32206684 0
1.0902548 -0.69167709 -0.34596249 0
1.1460061 -0.65984195 -0.34760523 0
1.2465054 -0.64811736 -0.34813076 0
1.3632886 -0.65058041 -0.35079849 0
1.4549398 -0.65359688 -0.3515718 0
1.5371847 -0.65136492 -0.35222381 0
1.6602131 -0.66919565 -0.35344341 0
1.7280169 -0.63500255 -0.3551515 0
1.8475361 -0.64013982 -0.35607603 0
1.9496297 -0.64295065 -0.35757765 0
2.0496912 -0.65146095 -0.35815522 0
2.1620593 -0.65322614 -0.35946459 0
2.2682159 -0.65000218 -0.36089024 0
2.3682425 -0.64201331 -0.36289391 0
2.4531417 -0.66503578 -0.36394545 0
2.5498123 -0.65235823 -0.36512789 0
2.6419451 -0.65587717 -0.36603695 0
2.7298796 -0.65700871 -0.36656287 0
2.8413925 -0.66958112 -0.36757663 0
2.9208243 -0.63686097 -0.36797392 0
-2.8860307 -0.54327303 -0.30018678 0
-2.7509248 -0.53826094 -0.30152836 0
-2.6386395 -0.5623194 -0.30287883 0
-2.5177572 -0.54896498 -0.30422366 0
-2.4178576 -0.55902618 -0.30522108 0
-2.3387942 -0.55415231 -0.30607486 0
-2.2283802 -0.55313015 -0.30682155 0
-2.1433835 -0.548361 -0.3078911 0
-2.05722 -0.54206115 -0.30865607 0
-1.9699224 -0.54932785 -0.30972317 0
-1.8793672 -0.54154223 -0.31081063 0
-1.2393423 -0.58361095 -0.319592 0
-1.1480047 -0.57615465 -0.3204022 0
-1.0640781 -0.55326343 -0.32145181 0
1.1701673 -0.55612665 -0.34725714 0
1.246666 -0.54490286 -0.34948796 0
1.3522757 -0.56153232 -0.3500461 0
1.4283122 -0.54577076 -0.34981233 0
1.5493093 -0.54605091 -0.35218897 0
1.6462173 -0.54491228 -0.35367242 0
1.743893 -0.54051214 -0.35531154 0
1.8456364 -0.54613191 -0.35623497 0
1.9559348 -0.56075108 -0.35768396 0
2.0593503 -0.54266334 -0.35916555 0
2.1785221 -0.57083958 -0.36049038 0
2.2288868 -0.53643835 -0.36128333 0
2.3469138 -0.55580533 -0.36250958 0
2.4598022 -0.54578513 -0.36336353 0
2.5753791 -0.54224545 -0.36465979 0
2.6612589 -0.56032866 -0.36550823 0
2.7530644 -0.55913746 -0.36661315 0
2.8407662 -0.55584919 -0.36746076 0
2.9406073 -0.55354923 -0.36853993 0
-2.8139677 -0.42613351 -0.30048096 0
-2.7133939 -0.45062172 -0.30126995 0
-2.6236317 -0.45508206 -0.30271435 0
-2.5351884 -0.43973944 -0.30382156 0
-2.4343708 -0.45832002 -0.30496386 0
-2.3403118 -0.44056106 -0.30603552 0
-2.2559245 -0.45820346 -0.3076562 0
-2.1736906 -0.441502 -0.30860659 0
-2.0527663 -0.44163123 -0.30981144 0
-1.9321579 -0.45406866 -0.31083137 0
-1.8710705 -0.46064362 -0.31120205 0
-1.7492305 -0.45339558 -0.3124125 0
-1.6403309 -0.43221581 -0.31373858 0
-1.5578868 -0.41648412 -0.31423873 0
1.2526125 -0.45354965 -0.34904057 0
1.3557935 -0.4488965 -0.35014474 0
1.4469163 -0.45286983 -0.35127452 0
1.5335926 -0.45142454 -0.35268083 0
1.6492615 -0.44691253 -0.35376203 0
1.773923 -0.44034791 -0.35555491 0
1.8557997 -0.44654927 -0.35623404 0
1.9379396 -0.45169845 -0.3572492 0
2.0210211 -0.45583382 -0.35810003 0
2.1466072 -0.45207107 -0.35998538 0
2.2374699 -0.43781319 -0.36112508 0
2.3236554 -0.45467553 -0.36203015 0
2.4357524 -0.4405064 -0.36286214 0
2.5458059 -0.45085287 -0.36393374 0
2.6750846 -0.46401173 -0.36509618 0
2.7552886 -0.44763866 -0.36727834 0
2.865705 -0.4548583 -0.36812139 0
2.9646237 -0.44884059 -0.36941078 0
-2.9127326 -0.33498046 -0.30008352 0
-2.8193901 -0.34469476 -0.30054426 0
-2.7283123 -0.35340747 -0.30150613 0
-2.6392672 -0.34187445 -0.30258396 0
-2.5476723 -0.3485741 -0.3035731 0
-2.4517035 -0.35336989 -0.30518848 0
-2.3531194 -0.33914605 -0.30610976 0
-2.2660367 -0.35974336 -0.30672103 0
-2.1510134 -0.33532399 -0.30803955 0
-2.0482709 -0.36152101 -0.3094461 0
-1.9248564 -0.34811381 -0.31083289 0
-1.8427652 -0.35119757 -0.31186214 0
-1.7429336 -0.34100753 -0.31334466 0
-1.6428171 -0.33396807 -0.31529257 0
-1.5643088 -0.35025248 -0.31481156 0
-1.4494461 -0.34734756 -0.3168357 0
-1.3451939 -0.33402848 -0.31761009 0
-1.2636334 -0.31738895 -0.31949243 0
-1.1559286 -0.30456704 -0.32030046 0
1.2543353 -0.34973809 -0.349022 0
1.3484645 -0.35636738 -0.35014516 0
1.4705033 -0.35383153 -0.35192585 0
1.5613182 -0.35206488 -0.35285681 0
1.6379297 -0.35706803 -0.35350186 0
1.7576485 -0.35435691 -0.35451168 0
1.8543085 -0.34453952 -0.35673025 0
1.9601678 -0.35441482 -0.35739282 0
2.0441284 -0.35450655 -0.35881031 0
2.1313684 -0.35403705 -0.36014876 0
2.2413678 -0.34587938 -0.36151269 0
2.3456142 -0.35516581 -0.36278066 0
2.439003 -0.35154694 -0.36441007 0
2.5246031 -0.34549502 -0.36494997 0
2.6453435 -0.35412556 -0.36620897 0
2.787441 -0.34077016 -0.3679488 0
2.8748581 -0.3514576 -0.36908916 0
2.9751065 -0.34937224 -0.37040389 0
3.0058126 -0.32389984 -0.37120339 0
-2.9335482 -0.21029873 -0.30009672 0
-2.838079 -0.22384843 -0.30070862 0
-2.7358949 -0.25523114 -0.30103272 0
-2.6465244 -0.24689189 -0.30213135 0
-2.5565431 -0.25699377 -0.30343306 0
-2.4671786 -0.24800892 -0.3044785 0
-2.2714956 -0.29423192 -0.30631611 0
-2.1465273 -0.27804449 -0.30752969 0
-2.0209551 -0.27650791 -0.30896348 0
-1.9377122 -0.2651189 -0.3097702 0
-1.8229508 -0.28940043 -0.31146327 0
-1.746269 -0.2772269 -0.31214431 0
-1.6714137 -0.27764803 -0.31341186 0
-1.571915 -0.27634552 -0.31591752 0
-1.447902 -0.26709214 -0.31803319 0
-1.3497037 -0.26412618 -0.32033634 0
-1.2554176 -0.25231934 -0.32004172 0
-1.1738843 -0.24730091 -0.3215408 0
1.2886655 -0.25222096 -0.35192007 0
1.3568805 -0.24539328 -0.3516224 0
1.4619584 -0.25438356 -0.35210487 0
1.5352064 -0.24744321 -0.35360286 0
1.6597145 -0.25123292 -0.35477647 0
1.7387609 -0.25056043 -0.35588369 0
1.8220325 -0.26035029 -0.35684583 0
1.9490987 -0.24654086 -0.35830387 0
2.0665276 -0.25267884 -0.35932732 0
2.1530628 -0.24754193 -0.36055973 0
2.2590146 -0.24336362 -0.36154687 0
2.3575261 -0.25397784 -0.36270967 0
2.4450271 -0.26340792 -0.36377835 0
2.5395472 -0.23692924 -0.36540377 0
2.6272004 -0.24510682 -0.366483 0
2.7148533 -0.25328439 -0.3675622 0
2.8494685 -0.24530669 -0.36923596 0
2.98101 -0.2566289 -0.37081939 0
3.012064 -0.25923005 -0.37121108 0
-2.9360547 -0.16828063 -0.30018297 0
-2.8464572 -0.16314533 -0.30134583 0
-2.752074 -0.15780413 -0.30200511 0
-2.6624777 -0.15266922 -0.30314687 0
-2.5728817 -0.14753431 -0.30428866 0
-2.4832857 -0.14239942 -0.30543041 0
1.2962089 -0.16321371 -0.35013852 0
1.3528525 -0.14039022 -0.35193428 0
1.4388237 -0.15502873 -0.35262039 0
1.5306991 -0.15717264 -0.35386619 0
1.6449211 -0.13666008 -0.35540995 0
1.7517211 -0.15079337 -0.35683835 0
1.8323789 -0.15773533 -0.35801411 0
1.939481 -0.14587647 -0.35919303 0
2.0542989 -0.15702137 -0.36022261 0
2.1569197 -0.13922288 -0.36042437 0
2.2663512 -0.14621025 -0.36175138 0
2.3680685 -0.15273879 -0.36299649 0
2.4559009 -0.15840507 -0.36406454 0
2.5442147 -0.14581807 -0.36483234 0
2.632009 -0.15085031 -0.36582655 0
2.7198033 -0.15588254 -0.36682072 0
2.844506 -0.15090925 -0.36833197 0
2.9657497 -0.13825926 -0.36980245 0
3.0113647 -0.15098552 -0.3702383 0
-2.935503 -0.042024992 -0.30021995 0
-2.8460803 -0.061124988 -0.30112702 0
-2.7562852 -0.059197094 -0.30220294 0
-2.6664901 -0.057269204 -0.30327886 0
-2.576695 -0.055341311 -0.30435479 0
-2.4868999 -0.053413421 -0.30543068 0
1.2996234 -0.046521951 -0.34845555 0
1.3488603 -0.048222423 -0.3518979 0
1.4470466 -0.051734131 -0.35263515 0
1.533772 -0.056162097 -0.35337752 0
1.6589818 -0.039699595 -0.35544026 0
1.7563949 -0.050166897 -0.35588589 0
1.8394841 -0.056298789 -0.35677478 0
1.9493182 -0.058948684 -0.35838804 0
2.053246 -0.038357727 -0.36041671 0
2.1672173 -0.04653421 -0.36173114 0
2.2783768 -0.048917361 -0.36310336 0
2.3809149 -0.051117033 -0.36423543 0
2.4688256 -0.053004354 -0.36518678 0
2.556736 -0.054891679 -0.3661381 0
2.6446464 -0.056779001 -0.36708939 0
2.7325573 -0.05866633 -0.36804071 0
2.8224263 -0.040419169 -0.36928216 0
2.9388371 -0.034931563 -0.37045717 0
3.0171435 -0.050358925 -0.37151659 0
-2.9305704 0.04195438 -0.30012298 0
-2.8406019 0.040666383 -0.30102357 0
-2.7431424 0.039273303 -0.30103731 0
-2.6532068 0.037985761 -0.30193782 0
-2.5632713 0.036698218 -0.3028383 0
-2.4733355 0.035410676 -0.3037388 0
1.2936207 0.083432555 -0.34734425 0
1.3455713 0.043926716 -0.35096347 0
1.4433734 0.051587276 -0.35166329 0
1.5303493 0.053442709 -0.35256547 0
1.6526526 0.04737936 -0.35430253 0
1.7522522 0.050209459 -0.35546994 0
1.8314643 0.048858821 -0.35658816 0
1.9496737 0.057857879 -0.35818619 0
2.0623889 0.044295561 -0.36050391 0
2.1636541 0.046475668 -0.36180592 0
2.2728982 0.048869532 -0.36321339 0
2.3518853 0.050539553 -0.36482954 0
2.4724016 0.053153124 -0.36579528 0
2.5603578 0.055041015 -0.36677471 0
2.6483142 0.056928914 -0.36775413 0
2.7362702 0.058816809 -0.36873353 0
2.8228977 0.040460784 -0.36955598 0
2.9378049 0.034949433 -0.37079549 0
3.0210953 0.050422657 -0.37189415 0
-2.9399834 0.16850582 -0.30030099 0
-2.8426523 0.14258905 -0.30084538 0
-2.7515056 0.15774091 -0.30213889 0
-2.6618311 0.15260048 -0.30320308 0
-2.5721569 0.14746006 -0.30426726 0
-2.4824829 0.14231963 -0.30533141 0
1.2945415 0.15198688 -0.34935656 0
1.34647 0.14753105 -0.35186636 0
1.4388908 0.15511392 -0.35213393 0
1.5305904 0.15614505 -0.35269487 0
1.6491041 0.13426518 -0.35483786 0
1.7483484 0.1504924 -0.35635805 0
1.8304898 0.15764533 -0.35774127 0
1.9511728 0.15387154 -0.35804638 0
2.0738225 0.14864823 -0.35954073 0
2.1576869 0.13917093 -0.36053261 0
2.2669079 0.14615892 -0.36183125 0
2.3687568 0.15270242 -0.36328638 0
2.4568217 0.15838346 -0.36457273 0
2.5448866 0.16406451 -0.36585906 0
2.6379399 0.15116605 -0.36739045 0
2.7259593 0.15621066 -0.36857608 0
2.8381796 0.15265068 -0.37003088 0
2.9502318 0.14818193 -0.37163627 0
3.0230193 0.14080143 -0.37235093 0
-2.9230075 0.25161985 -0.30042282 0
-2.8318746 0.24378099 -0.30112875 0
-2.7391429 0.25558296 -0.30186045 0
-2.6495905 0.24722736 -0.30279446 0
-2.5596075 0.25733784 -0.30393326 0
-2.4700849 0.24833788 -0.30483758 0
-2.3053527 0.29861751 -0.30986261 0
-2.2224333 0.28787678 -0.31119961 0
-2.1395142 0.27713606 -0.3125366 0
-2.0432353 0.27946332 -0.31238514 0
-1.9600077 0.26807368 -0.31333238 0
-1.8278803 0.29018301 -0.31260788 0
-1.7510275 0.27798232 -0.31319714 0
-1.6722393 0.27775747 -0.31399652 0
-1.5612618 0.27395126 -0.31603098 0
-1.4338278 0.26996979 -0.3195605 0
-1.3421751 0.26261961 -0.32005981 0
-1.242943 0.25250757 -0.32156372 0
-1.1795306 0.24848539 -0.32308722 0
1.282685 0.26044527 -0.35075223 0
1.3492142 0.24077642 -0.35251197 0
1.4432669 0.25787243 -0.35285133 0
1.5287172 0.24970309 -0.35400441 0
1.6604389 0.23927069 -0.35501075 0
1.7355726 0.25010446 -0.35636821 0
1.8311373 0.2549634 -0.35767841 0
1.9605122 0.25703803 -0.36058486 0
2.0600448 0.24455635 -0.36173296 0
2.1557269 0.24798587 -0.36214513 0
2.2668669 0.24433406 -0.36335215 0
2.3698723 0.2554597 -0.36466119 0
2.4530411 0.24658073 -0.36492652 0
2.5407548 0.25539774 -0.36610717 0
2.6266372 0.24511136 -0.36707702 0
2.7356956 0.2451836 -0.36867779 0
2.8632824 0.25326777 -0.37082052 0
2.9792686 0.25651482 -0.37255412 0
3.0292931 0.2607674 -0.37333494 0
-3.0060596 0.34571359 -0.30011794 0
-2.9208112 0.35715497 -0.30104056 0
-2.8315754 0.34624588 -0.30205593 0
-2.7444713 0.35560051 -0.30358812 0
-2.6553266 0.34405425 -0.30462709 0
-2.5698998 0.35162693 -0.30632761 0
-2.4686251 0.35571945 -0.30725759 0
-2.370466 0.3415204 -0.30829284 0
-2.2605929 0.36702478 -0.30961984 0
-2.1392233 0.34462258 -0.31038404 0
-2.0278258 0.35176745 -0.31181896 0
-1.9313207 0.34933004 -0.31289136 0
-1.8287971 0.35786778 -0.3141852 0
-1.7527989 0.34300351 -0.31515911 0
-1.6412556 0.33352572 -0.31751445 0
-1.5696411 0.35751462 -0.3174642 0
-1.4402041 0.35255778 -0.31780595 0
-1.3387114 0.33814675 -0.31880718 0
-1.2658612 0.31790826 -0.32010207 0
-1.1534153 0.30390486 -0.31960404 0
1.2648654 0.35256734 -0.35194442 0
1.3597544 0.35588405 -0.35224211 0
1.4765486 0.35405445 -0.35354003 0
1.5696497 0.35402498 -0.35500193 0
1.6505511 0.34751233 -0.35634559 0
1.7658297 0.36010447 -0.35691422 0
1.8374776 0.33657143 -0.35916463 0
1.9462326 0.34630123 -0.36022335 0
2.0571856 0.35680839 -0.36110294 0
2.1436203 0.35609683 -0.36238405 0
2.2594957 0.34212857 -0.36412993 0
2.3610928 0.35751772 -0.36529574 0
2.4561083 0.33598599 -0.36672601 0
2.5432918 0.34791493 -0.36769783 0
2.630475 0.35984394 -0.36866963 0
2.7217503 0.35252142 -0.36961198 0
2.8393378 0.34720787 -0.37043577 0
2.9557877 0.3469896 -0.37168536 0
3.0112543 0.34631389 -0.37218165 0
-3.1045823 0.44741037 -0.30027714 0
-3.0156202 0.4345898 -0.30136332 0
-2.9183481 0.44187444 -0.30175781 0
-2.8269885 0.4487811 -0.30291739 0
-2.7330303 0.45398015 -0.3037298 0
-2.6427689 0.45846096 -0.30511811 0
-2.5542343 0.44310308 -0.30620518 0
-2.4527068 0.46167597 -0.30744511 0
-2.3556778 0.44341016 -0.30852422 0
-2.26285 0.45958114 -0.30907539 0
-2.1607914 0.4388558 -0.3102181 0
-2.0492847 0.44712722 -0.31085336 0
-1.9384269 0.45561036 -0.31182089 0
-1.8605422 0.4477953 -0.31330249 0
-1.7430874 0.44873255 -0.31507406 0
-1.6542546 0.43580699 -0.31650224 0
-1.560975 0.42328355 -0.31660795 0
-1.473785 0.41096154 -0.31846312 0
1.1999624 0.49829826 -0.34814897 0
1.2481362 0.45947382 -0.35141367 0
1.3476837 0.4450193 -0.35278296 0
1.4576507 0.45178995 -0.35335335 0
1.5393058 0.45308354 -0.35409573 0
1.6429816 0.45816541 -0.3556242 0
1.7728146 0.44001046 -0.35753697 0
1.8707088 0.45016512 -0.35913172 0
1.9529521 0.45521635 -0.36022952 0
2.0370159 0.45948625 -0.3614333 0
2.1387112 0.4585939 -0.36210439 0
2.2401488 0.43836248 -0.3638373 0
2.3421009 0.45835468 -0.36508965 0
2.4312837 0.43964586 -0.36561385 0
2.5179522 0.45532063 -0.36669695 0
2.6347859 0.46361986 -0.36796495 0
2.7492652 0.43644416 -0.36959952 0
2.8796082 0.4571349 -0.37105611 0
2.9733591 0.46116859 -0.37196836 0
3.0079794 0.43349594 -0.3731581 0
-3.081423 0.58005416 -0.3005611 0
-2.9517632 0.53381026 -0.30171582 0
-2.8358152 0.56201208 -0.30260965 0
-2.7155657 0.55150628 -0.30402568 0
-2.6214654 0.55199009 -0.30477035 0
-2.524745 0.55044991 -0.30529213 0
-2.421442 0.5539239 -0.306077 0
-2.3274148 0.54250211 -0.30721512 0
-2.2434959 0.55700254 -0.30867633 0
-2.1577811 0.55211622 -0.31019303 0
-2.0569611 0.54198289 -0.31209543 0
-1.9515626 0.53708053 -0.3136158 0
-1.8922554 0.54531783 -0.31302541 0
-1.7942976 0.50033569 -0.31384704 0
-1.2432204 0.57983476 -0.32353514 0
-1.1509192 0.57545346 -0.32326433 0
-1.0727302 0.55770802 -0.32405883 0
1.1788076 0.56027144 -0.34976596 0
1.2493092 0.54903704 -0.35080487 0
1.3436035 0.55797571 -0.35175189 0
1.4309973 0.54517359 -0.35347983 0
1.5551728 0.54348445 -0.35574776 0
1.6727716 0.54488575 -0.35689411 0
1.7569042 0.54456311 -0.35811606 0
1.841776 0.54209363 -0.35837123 0
1.9262382 0.55206084 -0.35962996 0
2.0413349 0.5599432 -0.36069068 0
2.1503246 0.54368699 -0.36314622 0
2.2332313 0.53747714 -0.3638331 0
2.3188002 0.55806893 -0.36484656 0
2.4461186 0.55922717 -0.36629668 0
2.5647244 0.54001302 -0.36777005 0
2.6601756 0.54680079 -0.36918116 0
2.7740324 0.54285508 -0.37017813 0
2.859185 0.53822428 -0.37142724 0
2.9663639 0.55840552 -0.37290925 0
-2.9641809 0.64627427 -0.30046496 0
-2.8696194 0.64721656 -0.30135664 0
-2.777797 0.64745557 -0.30234531 0
-2.6825485 0.64558661 -0.30302683 0
-2.5609212 0.64342231 -0.30509394 0
-2.4236484 0.63873345 -0.308047 0
-2.331754 0.6501739 -0.30979311 0
-2.2209933 0.65375996 -0.3104662 0
-2.1342342 0.66154546 -0.31150368 0
-2.0511396 0.65195453 -0.31243992 0
-1.9682879 0.64113885 -0.3136501 0
-1.8760769 0.65592349 -0.31481859 0
-1.5430326 0.67996192 -0.31964314 0
-1.4697815 0.67932665 -0.31757313 0
-1.3524606 0.64949936 -0.32117078 0
-1.2407891 0.64999169 -0.32235155 0
-1.156135 0.64383864 -0.32345015 0
-1.0479195 0.65623868 -0.32430869 0
-0.98706764 0.69790256 -0.32391566 0
1.0947344 0.69451904 -0.34738401 0
1.1406406 0.64597267 -0.35134685 0
1.2465141 0.65534908 -0.35218251 0
1.3721511 0.65139776 -0.35346067 0
1.447945 0.63407403 -0.35401714 0
1.5515349 0.64429599 -0.35546488 0
1.6489531 0.66122043 -0.35706559 0
1.7285779 0.64253211 -0.35887632 0
1.8402914 0.65825784 -0.35983157 0
1.9502614 0.64469397 -0.36047864 0
2.0509312 0.64398313 -0.36190528 0
2.174499 0.65703398 -0.36250249 0
2.2335935 0.64602953 -0.3640449 0
2.3503973 0.64944667 -0.36505589 0
2.4528379 0.64015108 -0.36712387 0
2.5689113 0.65722275 -0.36830756 0
2.6610777 0.64043599 -0.36890021 0
2.7491841 0.64083827 -0.36954913 0
2.8442223 0.64148229 -0.37061819 0
2.9462001 0.64238304 -0.37155527 0
-3.0321441 0.79891717 -0.30093157 0
-2.9447634 0.75344324 -0.30125833 0
-2.860918 0.75396591 -0.30289218 0
-2.7760653 0.75281072 -0.30465239 0
-2.662132 0.74232632 -0.30605972 0
-2.556397 0.75281304 -0.30717602 0
-2.4236875 0.74646473 -0.30840948 0
-2.3755081 0.73633695 -0.30909824 0
-2.2546029 0.74137723 -0.3103981 0
-2.1447442 0.75577396 -0.31232354 0
-2.0361509 0.76128364 -0.31281608 0
-1.9328678 0.73846579 -0.31374088 0
-1.8411211 0.74924994 -0.3148478 0
-1.7552176 0.77346456 -0.31598243 0
-1.6400931 0.76223648 -0.31677175 0
-1.5452833 0.74815345 -0.31795955 0
-1.4520773 0.75056416 -0.32032427 0
-1.3481036 0.7508983 -0.32191184 0
-1.2536893 0.74191594 -0.3252131 0
-1.1606499 0.75136501 -0.32315311 0
-1.0511113 0.75454926 -0.32466483 0
-0.95844853 0.75404507 -0.32443777 0
1.0570199 0.75872797 -0.34878069 0
1.14809 0.75154334 -0.35028663 0
1.2450428 0.75457901 -0.35244259 0
1.3306111 0.74442655 -0.35271773 0
1.4373544 0.74727917 -0.35482064 0
1.5490278 0.74988008 -0.3559244 0
1.6717657 0.74139571 -0.35696867 0
1.7691627 0.74952185 -0.3585999 0
1.8599637 0.75673372 -0.36026525 0
1.9459808 0.75946403 -0.36078131 0
2.0409834 0.74659759 -0.36208928 0
2.150095 0.75169927 -0.36261085 0
2.2609403 0.75436836 -0.36463568 0
2.3552151 0.74846011 -0.36562932 0
2.4474947 0.73953396 -0.36655173 0
2.5351968 0.74626166 -0.3675642 0
2.6273837 0.75294775 -0.3689979 0
2.7394142 0.75345993 -0.37078103 0
2.8457401 0.7571919 -0.3720344 0
2.9310164 0.74103087 -0.37252408 0
-3.1271448 0.871997 -0.30059904 0
-3.0240402 0.86653662 -0.30150157 0
-2.9375875 0.8417604 -0.30256701 0
-2.8324275 0.85578787 -0.30340821 0
-2.7460823 0.85127705 -0.30471018 0
-2.6479714 0.86243725 -0.30577216 0
-2.5575523 0.85323095 -0.30685753 0
-2.4689934 0.84344131 -0.30827305 0
-2.3624535 0.84505683 -0.30913568 0
-2.2547605 0.84301597 -0.31127191 0
-2.1606634 0.84335309 -0.31164071 0
-2.0754421 0.84458107 -0.31264678 0
-1.9686003 0.8474825 -0.31384799 0
-1.8429765 0.83487612 -0.31442887 0
-1.7733383 0.85856342 -0.315577 0
-1.6626762 0.83737838 -0.31741363 0
-1.5514684 0.84949797 -0.31923151 0
-1.4372789 0.84445858 -0.32093388 0
-1.3686116 0.86682624 -0.32084116 0
-1.2537357 0.85221845 -0.32293168 0
-1.1362789 0.84729075 -0.32462168 0
-1.0614047 0.85953426 -0.32501507 0
-0.95290405 0.84052122 -0.32692412 0
-0.86530137 0.86002022 -0.32702553 0
0.97562581 0.86043435 -0.34863061 0
1.0570198 0.85455441 -0.34966651 0
1.1559652 0.84408987 -0.35105088 0
1.2588141 0.85014248 -0.35196322 0
1.3476939 0.83824128 -0.35417181 0
1.4566193 0.85461283 -0.35462508 0
1.5523746 0.85292482 -0.35633028 0
1.6324972 0.84378332 -0.3575232 0
1.7332109 0.85756624 -0.35808268 0
1.846027 0.85473377 -0.35949451 0
1.9709723 0.85175407 -0.36172169 0
2.0628331 0.8482098 -0.36204064 0
2.1276734 0.8430661 -0.36326075 0
2.2187912 0.84777015 -0.36344334 0
2.3373263 0.85491943 -0.36538714 0
2.4213161 0.82720912 -0.36663109 0
2.5307908 0.84439754 -0.36793399 0
2.6581247 0.85889006 -0.36952278 0
2.7584212 0.84791118 -0.37050536 0
2.882108 0.85587078 -0.37223363 0
2.9305296 0.83981073 -0.37430683 0
-3.1742463 0.98387414 -0.30005756 0
-3.0465517 0.94404012 -0.30123004 0
-2.916374 0.92692542 -0.302921 0
-2.8561575 0.95320356 -0.303276 0
-2.7410345 0.95093697 -0.30433777 0
-2.6237998 0.95970988 -0.30701548 0
-2.5363529 0.94842547 -0.308366 0
-2.4379818 0.95157939 -0.30935222 0
-2.3299527 0.94802135 -0.31029078 0
-2.2199171 0.94054776 -0.31061593 0
-2.1307528 0.93890715 -0.31170946 0
-2.0435836 0.9571439 -0.31236327 0
-1.9400285 0.95649737 -0.31421396 0
-1.8464926 0.95996058 -0.31546125 0
-1.7458062 0.94396019 -0.31573293 0
-1.6463146 0.95109332 -0.31753668 0
-1.5495901 0.95539457 -0.3187142 0
-1.4464377 0.94697273 -0.32024044 0
-1.3431036 0.94957888 -0.32129654 0
-1.249899 0.95260453 -0.32255164 0
-1.1498618 0.95716751 -0.32403749 0
-1.0440085 0.94786108 -0.32544139 0
-0.95599264 0.95705771 -0.32675529 0
-0.84963572 0.94419795 -0.32847679 0
-0.75238734 0.96556115 -0.32809129 0
0.85320729 0.97427094 -0.34707934 0
0.94966483 0.94530177 -0.3491509 0
1.0553075 0.94421768 -0.35038516 0
1.1625361 0.95481628 -0.35140765 0
1.2322328 0.93640387 -0.3526594 0
1.3490552 0.95387536 -0.35418549 0
1.4496868 0.94906086 -0.35562652 0
1.5606734 0.94368297 -0.35590813 0
1.6590973 0.9551667 -0.3573696 0
1.7541456 0.9604187 -0.35877946 0
1.8548121 0.94750339 -0.35998765 0
1.9413936 0.95701766 -0.36062226 0
2.0599129 0.96100861 -0.36184639 0
2.14363 0.9356482 -0.36397433 0
2.2602963 0.93866259 -0.36508873 0
2.3753808 0.94677716 -0.36647832 0
2.4658012 0.94214779 -0.3669804 0
2.5675864 0.93914175 -0.36880025 0
2.654973 0.94955963 -0.36947247 0
2.743912 0.95931584 -0.37062624 0
2.8610115 0.94541818 -0.37218022 0
-3.064811 1.0469908 -0.30086088 0
-2.9685841 1.0379859 -0.30202568 0
-2.8521745 1.0356921 -0.30434832 0
-2.7555854 1.0455512 -0.3058624 0
-2.6611745 1.0534567 -0.30706546 0
-2.5534966 1.0533867 -0.30734089 0
-2.4527128 1.0531437 -0.30789164 0
-2.3429627 1.0426911 -0.30894417 0
-2.2781146 1.0544112 -0.31000826 0
-2.1775301 1.0350294 -0.31127343 0
-2.0632541 1.0540574 -0.31343251 0
-1.9551926 1.0465139 -0.31375536 0
-1.8608191 1.0537882 -0.31421506 0
-1.7428921 1.0369815 -0.31648058 0
-1.6745396 1.0624378 -0.31759462 0
-1.5542886 1.0465492 -0.32017139 0
-1.4581718 1.0436833 -0.32059318 0
-1.3536289 1.0470805 -0.32139787 0
-1.2607265 1.0552397 -0.32235238 0
-1.1513506 1.0603195 -0.32467765 0
-1.0500224 1.0538297 -0.32632893 0
-0.94858551 1.0472989 -0.32744229 0
-0.83921611 1.0457339 -0.32818484 0
-0.73993623 1.054666 -0.3296915 0
-0.64894336 1.0479838 -0.33041885 0
-0.57431436 1.0948595 -0.33131164 0
0.64761698 1.0973871 -0.34142882 0
0.7521143 1.0556008 -0.34744003 0
0.84442693 1.0522414 -0.34705058 0
0.93931037 1.0523417 -0.34835279 0
1.0614469 1.0576787 -0.34999818 0
1.1366138 1.0318797 -0.35192519 0
1.2495908 1.0486633 -0.35311192 0
1.3556015 1.0580652 -0.35431969 0
1.4715072 1.0592762 -0.35684565 0
1.5402377 1.0323387 -0.35723609 0
1.6527261 1.0482625 -0.35816962 0
1.7557338 1.056121 -0.35932299 0
1.8473665 1.0460947 -0.35976371 0
1.9588656 1.0543664 -0.36142665 0
2.0282733 1.0494047 -0.3628591 0
2.128387 1.0492585 -0.36306861 0
2.2307711 1.0406739 -0.36432961 0
2.3305855 1.0469213 -0.3660903 0
2.4309542 1.0505055 -0.36765242 0
2.5228574 1.0477082 -0.36824217 0
2.6388063 1.0517716 -0.36973104 0
2.7233422 1.0405502 -0.37189329 0
2.8318934 1.0450112 -0.3724111 0
-3.2070975 1.1991659 -0.30139637 0
-3.1313834 1.1453769 -0.30132025 0
-3.0356812 1.1599479 -0.30265144 0
-2.9415264 1.1481179 -0.30366805 0
-2.8406353 1.1557721 -0.30445012 0
-2.7353542 1.1588879 -0.30519065 0
-2.6430349 1.1421704 -0.30589771 0
-2.5392482 1.1626736 -0.30713633 0
-2.4446051 1.1619323 -0.30839503 0
-2.3489535 1.15799 -0.30961171 0
-2.2472095 1.1480708 -0.31107894 0
-2.1492321 1.1471133 -0.31179455 0
-2.0447166 1.1579232 -0.31278077 0
-1.9324493 1.1498132 -0.31395504 0
-1.8410082 1.1496496 -0.31555709 0
-1.7492161 1.1452526 -0.31703374 0
-1.646476 1.1466208 -0.31949261 0
-1.5470545 1.1444582 -0.31968075 0
-1.4569418 1.15398 -0.31977081 0
-1.3605968 1.1555914 -0.32137281 0
-1.2359124 1.1500614 -0.32384124 0
-1.1595898 1.1637785 -0.32507035 0
-1.0537175 1.1382853 -0.32614541 0
-0.95654821 1.1553431 -0.32696804 0
-0.85342288 1.1429199 -0.32847559 0
-0.76593971 1.1637615 -0.32960066 0
-0.65519011 1.1475757 -0.33115792 0
-0.54938442 1.1527548 -0.33230579 0
-0.45624897 1.1568986 -0.33332488 0
-0.38155547 1.1858174 -0.33380428 0
0.46882302 1.1884778 -0.34236774 0
0.54627639 1.1600757 -0.34368312 0
0.65157235 1.145551 -0.34559593 0
0.76158887 1.1542734 -0.348584 0
0.84988016 1.14274 -0.34864751 0
0.95885658 1.1667191 -0.3499409 0
1.0381093 1.1354145 -0.3491438 0
1.1509466 1.1453745 -0.35120308 0
1.2480254 1.1492357 -0.35293236 0
1.3525603 1.1589739 -0.35464245 0
1.4294426 1.1402656 -0.35590506 0
1.5330954 1.1510674 -0.35745749 0
1.6412815 1.1429151 -0.35823378 0
1.7315737 1.1513364 -0.35901511 0
1.8334284 1.1449234 -0.36068892 0
1.9605743 1.1527178 -0.36219001 0
2.0729475 1.1542863 -0.36281165 0
2.1669717 1.1663359 -0.36396399 0
2.2614756 1.13503 -0.36528161 0
2.3738468 1.1492287 -0.36645547 0
2.4703617 1.1524583 -0.36784992 0
2.571553 1.1551771 -0.36933517 0
2.6732266 1.1552008 -0.370597 0
2.7667522 1.148986 -0.37139943 0
2.8053184 1.1415133 -0.37188333 0
-3.2249262 1.2058322 -0.30122215 0
-3.1675651 1.262707 -0.30081221 0
-3.0535896 1.2596601 -0.30215394 0
-2.9427547 1.2467867 -0.30290544 0
-2.8814878 1.2697735 -0.30343208 0
