# .PCD v0.7 - Point Cloud Data file format
VERSION 0.7
FIELDS x y z intensity
SIZE 4 4 4 4
TYPE F F F F
COUNT 1 1 1 1
WIDTH 1382
HEIGHT 1
VIEWPOINT 0 0 0 1 0 0 0
POINTS 1382
DATA ascii
-34.534409 -1.9847916 3.0301597 10
-34.574486 -1.4896315 3.0305262 10
-34.621796 -0.99413741 3.032145 10
-34.666569 -0.49765348 3.0341606 10
-34.710533 9.8442928e-05 3.0367258 10
-34.785648 0.99886352 3.0426097 10
-34.543839 -51.024128 3.2946303 9
-34.438896 -2.9729946 4.249999 11
-34.500996 -2.4801052 4.2518783 11
-34.520012 -1.9839721 4.2493176 11
-34.565228 -1.4892365 4.250854 11
-34.601524 -0.9935562 4.2521615 11
-34.64114 -0.49728781 4.2547488 11
-34.69241 0.00010008038 4.2596374 11
-34.734413 0.49863955 4.264267 11
-34.770435 0.99842691 4.2690372 11
-34.538418 -51.022388 5.4556384 10
-34.420979 -2.9714665 5.4777365 12
-34.460747 -2.4772246 5.4768877 12
-34.514877 -1.9836845 5.479444 12
-34.547054 -1.4884568 5.4796324 12
-34.577202 -0.99285877 5.4806256 12
-34.635777 -0.49720979 5.4872456 12
-34.715061 0.49836314 5.4978666 12
-34.771221 0.99844933 5.5074873 12
-34.790665 1.4989808 5.5124326 12
-34.40995 -2.9705324 6.7192283 13
-34.46262 -2.4773719 6.7209187 13
-34.482239 -1.9818161 6.7175436 13
-34.578293 -0.99289107 6.7259946 13
-34.609257 -0.4968282 6.7289639 13
-34.646622 0.00010314804 6.734561 13
-34.684082 0.49791989 6.7415657 13
-34.720646 0.99699754 6.7497802 13
-34.78706 1.4988229 6.7651958 13
-34.537609 -51.027523 7.6307693 11
-34.402287 -2.9698896 7.9777055 14
-34.43137 -2.4751377 7.9744258 14
-34.513821 -1.4870327 7.9784031 14
-34.547749 -0.99201506 7.9811578 14
-34.594322 -0.49661306 7.9884706 14
-34.659657 0.00010496717 8.0017509 14
-34.678867 0.49784639 8.0060291 14
-34.709538 0.99667841 8.0146027 14
-34.770302 1.4980991 8.0317822 14
-34.4548 -1.9802545 9.2512445 15
-34.488792 -1.4859583 9.2527094 15
-34.543438 -0.9918921 9.2616129 15
-34.582664 -0.49644476 9.2682781 15
-34.622822 0.000106514 9.2770929 15
-34.657059 0.49753463 9.286231 15
-34.686722 0.99602377 9.2960587 15
-34.736126 1.4966245 9.3130989 15
-34.789974 1.9995165 9.333272 15
-34.515434 -51.001125 9.8189955 12
-34.124496 -7.4613237 0.62405998 8
-34.156891 -6.9564161 0.62184697 8
-34.203106 -6.4561338 0.62001884 8
-34.24667 -5.9567575 0.61826575 8
-34.281227 -5.457181 0.61647642 8
-34.321697 -4.9597368 0.61491907 8
-34.370159 -4.4642243 0.61362898 8
-34.112118 -7.458735 1.8442219 9
-34.138401 -6.952754 1.8391497 9
-34.185204 -6.4528441 1.8355815 9
-34.218929 -5.9520068 1.8316947 9
-34.26416 -5.454525 1.8288084 9
-34.294277 -4.9558253 1.8254966 9
-34.349548 -4.4615884 1.8239018 9
-34.074001 -7.4505205 3.0656934 10
-34.116886 -6.948473 3.0593603 10
-34.174278 -6.4508686 3.0549834 10
-34.206169 -5.9498625 3.0489688 10
-34.27 -5.4555163 3.0464404 10
-34.295715 -4.9560857 3.0411589 10
-34.331871 -4.4593353 3.0374408 10
-34.371204 -3.9637587 3.0346341 10
-34.072659 -7.4503431 4.2965927 11
-34.114758 -6.948143 4.2879829 11
-34.151897 -6.446732 4.2796774 11
-34.197468 -5.948422 4.2733326 11
-34.236897 -5.4503112 4.2671237 11
-34.282284 -4.9541965 4.2625513 11
-34.322742 -4.4581904 4.2582521 11
-34.351891 -3.9615643 4.2534356 11
-34.03371 -7.4419479 5.5319238 12
-34.086662 -6.9425249 5.5228639 12
-34.144798 -6.4454808 5.5158224 12
-34.17593 -5.9447527 5.5055847 12
-34.217274 -5.4472504 5.4981618 12
-34.266312 -4.9519391 5.4931259 12
-34.308937 -4.4564385 5.488205 12
-34.342896 -3.9605596 5.4830389 12
-34.032715 -7.4418502 6.7858033 13
-34.079792 -6.9412293 6.7737222 13
-34.128471 -6.4424877 6.7634153 13
-34.154903 -5.9411716 6.7501416 13
-34.200562 -5.4446535 6.7421012 13
-34.251011 -4.9497814 6.7364154 13
-34.321232 -3.9580963 6.7232246 13
-34.369835 -3.4646626 6.7213626 13
-34.224411 -4.9459896 7.9929972 14
-34.26968 -4.451426 7.9868813 14
-34.322765 -3.9583054 7.984242 14
-34.340805 -3.4617615 7.9751039 14
-34.023338 -7.439919 8.0548058 14
-34.063175 -6.9379497 8.0389204 14
-34.097054 -6.4366479 8.0233746 14
-34.143398 -5.9392476 8.0124741 14
-34.176811 -5.4409356 8.0002317 14
-34.05658 -6.9367156 9.3262806 15
-34.085186 -6.4345002 9.306942 15
-34.133877 -5.9376698 9.2950773 15
-34.164444 -5.439033 9.2802458 15
-34.213326 -4.9444418 9.2723455 15
-34.262203 -4.4504976 9.2663736 15
-34.293579 -3.9549747 9.257596 15
-34.341698 -3.4618766 9.2552538 15
-34.378269 -2.9678354 9.2517128 15
-33.602356 -13.711933 0.65890872 8
-33.63501 -13.16558 0.65498102 8
-33.675404 -12.627288 0.65136361 8
-33.730221 -12.098774 0.64817876 8
-33.778229 -11.571768 0.64501184 8
-33.813011 -11.044219 0.64174044 8
-33.624809 -13.16196 1.9167289 9
-33.671188 -12.62605 1.908046 9
-33.713352 -12.093038 1.8995922 9
-33.754719 -11.564001 1.8915532 9
-33.811638 -11.044032 1.8848315 9
-33.609444 -13.15632 3.1819189 10
-33.64537 -12.616712 3.1670549 10
-33.697243 -12.087573 3.1544766 10
-33.740993 -11.559585 3.1418991 10
-33.784336 -11.035375 3.1300344 10
-33.725498 -11.554567 4.3987236 11
-33.771053 -11.0313 4.3827372 11
-33.635521 -12.613367 4.4340243 11
-33.680954 -12.082047 4.4158945 11
-33.623455 -12.609191 5.7108593 12
-33.654045 -12.072712 5.6852345 12
-33.710014 -11.549551 5.6652875 12
-33.753445 -11.025814 5.6445842 12
-33.606705 -12.603261 7.0000873 13
-33.636871 -12.066876 6.9687719 13
-33.683357 -11.540715 6.942553 13
-33.737656 -11.020923 6.9195986 13
-33.62043 -12.061303 8.2688169 14
-33.654018 -11.530959 8.2347012 14
-33.725208 -11.017127 8.21175 14
-33.613407 -12.05912 9.591527 15
-33.651794 -11.530504 9.5534439 15
-33.700771 -11.009423 9.5206642 15
-33.99762 -7.4344225 9.3393154 15
-33.213581 -18.240068 0.69396937 8
-33.254868 -17.646612 0.68879694 8
-33.315407 -17.070803 0.68421316 8
-33.410217 -15.926291 0.67506075 8
-33.46389 -15.366659 0.67087978 8
-33.489155 -14.800262 0.66630435 8
-33.545227 -14.25337 0.66251332 8
-33.440071 -50.946609 1.1282445 8
-33.300182 -17.063641 1.991536 9
-33.388256 -15.916375 1.9672496 9
-33.435066 -15.353937 1.9560905 9
-33.493549 -14.80268 1.9461356 9
-33.528149 -14.246552 1.9353054 9
-33.584824 -13.705185 1.9262545 9
-33.257118 -17.648495 2.0045919 9
-33.558189 -13.694727 3.1961305 10
-33.4403 -50.953438 3.2582376 9
-33.233345 -17.636572 3.3228896 10
-33.272057 -17.04987 3.3012731 10
-33.329239 -16.479773 3.2824469 10
-33.372662 -15.909498 3.2631869 10
-33.435387 -15.354602 3.246712 10
-33.517464 -14.242455 3.2121582 10
-33.202217 -17.620749 4.6464567 11
-33.25589 -17.042234 4.6185851 11
-33.303116 -16.467455 4.5911546 11
-33.350536 -15.899513 4.5650544 11
-33.396004 -15.337037 4.539957 11
-33.493263 -14.232616 4.494288 11
-33.531807 -13.684368 4.4718833 11
-33.577461 -13.144176 4.4515743 11
-33.420521 -50.929783 5.3933825 10
-33.22868 -17.028942 5.9440918 12
-33.281425 -16.457336 5.9099736 12
-33.387791 -15.333785 5.8468451 12
-33.425644 -14.774114 5.8150029 12
-33.486111 -14.230025 5.7886443 12
-33.527672 -13.683093 5.7605238 12
-33.569653 -13.141501 5.7339616 12
-33.364479 -15.323613 7.1644855 13
-33.413219 -14.769114 7.1279578 13
-33.448406 -14.214456 7.090456 13
-33.506409 -13.674834 7.0596552 13
-33.548973 -13.133788 7.0274 13
-33.405685 -50.913696 7.5407515 11
-33.265503 -16.450079 7.2431178 13
-33.323406 -15.887712 7.2046204 13
-33.47752 -13.663468 8.3730984 14
-33.537003 -13.129494 8.3392 14
-33.583088 -12.594763 8.3040552 14
-33.258408 -16.447195 8.5956163 14
-33.316376 -15.884944 8.5500774 14
-33.342453 -15.31403 8.4987497 14
-33.398754 -14.763219 8.4574738 14
-33.449837 -14.215521 8.4171143 14
-33.394642 -50.903458 9.7063789 12
-33.228432 -16.432999 9.9627848 15
-33.290169 -15.873034 9.9112434 15
-33.331413 -15.309506 9.8563414 15
-33.386673 -14.758384 9.80828 15
-33.475639 -13.663131 9.7136202 15
-33.521988 -13.124014 9.67062 15
-33.565022 -12.58835 9.6291075 15
-32.845131 -22.597452 0.73450464 8
-32.89555 -21.943642 0.72797716 8
-32.957634 -21.308327 0.72194684 8
-33.000935 -20.671154 0.71573985 8
-33.11108 -19.440434 0.70451242 8
-33.1735 -18.842445 0.69937396 8
-32.828323 -22.587055 2.1266718 9
-32.933731 -21.293905 2.0919554 9
-32.991631 -20.66629 2.0760047 9
-33.047329 -20.046869 2.0605981 9
-33.092964 -19.430639 2.0452299 9
-33.147125 -18.828255 2.0310361 9
-33.19923 -18.232929 2.0173364 9
-32.858284 -21.920977 3.4930205 10
-32.914253 -21.282339 3.4655948 10
-32.969734 -20.65354 3.439302 10
-33.032551 -20.038813 3.4149129 10
-33.127361 -18.817818 3.3662422 10
-33.173916 -18.219763 3.343411 10
-33.010841 -20.026556 4.7754359 11
-33.0564 -19.410873 4.7406292 11
-33.155331 -18.210304 4.6766481 11
-32.846592 -21.914282 4.8854461 11
-32.911503 -21.281593 4.8486261 11
-32.963829 -20.65081 4.8116078 11
-33.192577 -17.616339 5.9829297 12
-32.820042 -21.897682 6.2861733 12
-32.887505 -21.267122 6.2394423 12
-32.932175 -20.631968 6.1905332 12
-32.987442 -20.013279 6.1457071 12
-33.086502 -18.796211 6.059896 12
-33.131672 -18.198059 6.0190682 12
-32.961033 -19.998184 7.5287352 13
-33.025291 -19.394339 7.4784517 13
-33.079445 -18.793018 7.4282413 13
-33.128555 -18.197107 7.3792124 13
-33.171593 -17.605904 7.3310995 13
-32.853172 -21.245979 7.6414557 13
-33.09547 -18.179707 8.7498894 14
-33.158203 -17.599518 8.6981316 14
-32.845219 -21.241907 9.0671825 14
-32.952248 -19.993792 8.9334059 14
-33.002777 -19.381996 8.8701553 14
-33.060818 -18.78326 8.8117552 14
-33.123402 -17.581772 10.079911 15
-33.185715 -17.008934 10.022857 15
-32.422009 -27.47761 0.786264 8
-32.493465 -26.746853 0.77824134 8
-32.54044 -26.011549 0.7699483 8
-32.614552 -25.312639 0.76260471 8
-32.675919 -24.61742 0.75525242 8
-32.72337 -23.925142 0.74786252 8
-32.76918 -23.24473 0.74071258 8
-32.410118 -27.469316 2.2706566 9
-32.468918 -26.728331 2.2473111 9
-32.532223 -26.006559 2.2252402 9
-32.590172 -25.295206 2.2037294 9
-32.644932 -24.595476 2.1828983 9
-32.694038 -23.905018 2.1625528 9
-32.760853 -23.240063 2.1442022 9
-32.672695 -23.890738 3.5809207 10
-32.745544 -23.230448 3.5515163 10
-32.792229 -22.563395 3.5205891 10
-32.448002 -26.712797 3.7201443 10
-32.516705 -25.995747 3.6844823 10
-32.568268 -25.279703 3.648427 10
-32.619747 -24.577908 3.6138701 10
-32.499149 -25.983307 5.1511321 11
-32.556656 -25.272188 5.1018209 11
-32.60778 -24.570307 5.0536184 11
-32.679314 -23.89691 5.0105767 11
-32.730473 -23.221008 4.9663277 11
-32.781948 -22.557491 4.9240031 11
-32.428314 -26.698284 5.20049 11
-32.702957 -23.202749 6.389751 12
-32.755161 -22.540255 6.3355846 12
-32.419598 -26.69282 6.6942534 12
-32.482372 -25.971502 6.6291771 12
-32.529987 -25.253008 6.5638375 12
-32.585976 -24.555298 6.5029168 12
-32.645271 -23.873365 6.4452505 12
-32.572056 -24.546253 7.9685192 13
-32.623329 -23.858673 7.8960123 13
-32.689159 -23.194237 7.83008 13
-32.751114 -22.538666 7.7661257 13
-32.79847 -21.884411 7.7015519 13
-32.448982 -25.946438 8.1181831 13
-32.506855 -25.23658 8.0407972 13
-32.774372 -21.869474 9.1338978 14
-32.484375 -25.220682 9.5362587 14
-32.550503 -24.531477 9.4508905 14
-32.619648 -23.857351 9.3701057 14
-32.668102 -23.180586 9.2870035 14
-32.709797 -22.511444 9.2055368 14
-32.425865 -25.9296 9.6277742 14
-32.355251 -28.228382 0.79473406 8
-32.340748 -50.846733 1.1150825 8
-32.007187 -32.245548 0.84225756 8
-32.083488 -31.40823 0.832129 8
-32.157864 -30.590122 0.82236516 8
-32.223846 -29.78417 0.81278396 8
-32.2915 -28.998951 0.80362588 8
-32.061302 -31.388906 2.3995306 9
-32.132076 -30.567846 2.3715355 9
-32.21294 -29.776234 2.3454769 9
-32.268105 -28.979948 2.3186934 9
-32.3363 -28.213743 2.2939551 9
-32.325386 -50.829266 3.2197413 9
-32.038269 -31.368761 3.9706423 10
-32.114822 -30.553703 3.9251695 10
-32.198124 -29.764669 3.8824983 10
-32.251019 -28.966623 3.8380787 10
-32.309566 -28.192314 3.7962003 10
-32.374393 -27.440825 3.7568269 10
-32.326233 -50.837322 5.3333473 10
-32.037525 -31.370459 5.5532336 11
-32.090706 -30.533039 5.4857159 11
-32.165367 -29.736532 5.4247217 11
-32.229038 -28.948898 5.3645639 11
-32.292973 -28.179747 5.3070383 11
-32.375725 -27.44376 5.2550378 11
-32.343075 -27.417892 6.7593675 12
-32.001461 -31.33758 7.1417403 12
-32.080917 -30.526035 7.0607591 12
-32.149422 -29.723961 6.9809756 12
-32.210648 -28.934427 6.9031105 12
-32.279865 -28.170238 6.8302879 12
-32.317036 -50.829609 7.4582605 11
-32.252167 -28.14801 8.3656826 13
-32.32225 -27.402073 8.2806568 13
-32.378807 -26.660957 8.1959085 13
-32.05521 -30.503893 8.6483135 13
-32.134354 -29.712227 8.5534801 13
-32.195011 -28.922449 8.4579754 13
-32.308426 -50.822906 9.6010237 12
-32.233444 -28.133642 9.9224606 14
-32.301331 -27.386198 9.8209982 14
-32.36739 -26.653307 9.7234011 14
-32.102207 -29.684717 10.140871 14
-32.163128 -28.895895 10.027774 14
-31.617378 -36.787178 0.89968932 8
-31.713522 -35.845768 0.88768923 8
-31.794195 -34.914692 0.87578595 8
-31.862965 -33.997517 0.86406749 8
-31.94326 -33.118019 0.85314816 8
-31.604641 -36.775772 2.5938861 9
-31.678694 -35.809616 2.5575204 9
-31.765224 -34.885914 2.5237868 9
-31.838234 -33.973988 2.4905148 9
-31.92248 -33.099171 2.4595807 9
-31.988783 -32.229542 2.4286559 9
-31.672663 -35.806034 4.2339497 10
-31.739191 -34.860359 4.1754937 10
-31.821466 -33.958973 4.1217022 10
-31.90082 -33.079418 4.0699587 10
-31.970203 -32.213379 4.0192723 10
-31.638685 -35.770866 5.9150929 11
-31.716606 -34.838619 5.8355412 11
-31.797018 -33.935768 5.7600546 11
-31.871624 -33.051861 5.6869416 11
-31.954174 -32.199791 5.6184921 11
-31.694351 -34.817253 7.5079041 12
-31.770203 -33.910053 7.4097371 12
-31.856926 -33.039368 7.318501 12
-31.926857 -32.174847 7.2275896 12
-31.610695 -35.742489 7.6088676 12
-31.982815 -31.321787 8.7493906 13
-31.671045 -34.794781 9.1965437 13
-31.750145 -33.891586 9.0772352 13
-31.831211 -33.015461 8.963892 13
-31.90745 -32.157909 8.8543196 13
-31.264748 -50.747833 1.1023583 8
-31.368223 -39.844372 0.9403308 8
-31.442087 -38.780449 0.92588848 8
-31.543306 -37.78421 0.91288418 8
-31.33559 -39.807014 2.7097766 9
-31.419764 -38.756767 2.6688104 9
-31.518051 -37.757572 2.6309426 9
-31.264652 -50.754627 3.1856604 9
-31.494604 -37.733128 4.3531241 10
-31.580616 -36.751251 4.2917099 10
-31.309357 -39.777794 4.4833016 10
-31.406349 -38.744083 4.417243 10
-31.259089 -50.752548 5.2762361 10
-31.548782 -36.717651 5.9961901 11
-31.286755 -39.753204 6.265821 11
-31.378294 -38.71336 6.1723704 11
-31.469154 -37.706303 6.0832458 11
-31.247732 -50.741123 7.3780932 11
-31.355234 -38.688824 7.9411101 12
-31.451948 -37.689377 7.8278732 12
-31.54262 -36.713959 7.718533 12
-31.258902 -39.72197 8.0601473 12
-31.239714 -50.735165 9.4981327 12
-31.423012 -37.658428 9.5867882 13
-31.509403 -36.67881 9.451582 13
-31.585291 -35.717079 9.3195944 13
-31.236904 -39.698227 9.8735037 13
-31.336828 -38.670074 9.7287598 13
-30.220814 -50.666367 1.0904053 8
-30.211578 -50.658081 3.1514099 9
-30.208595 -50.660286 5.2203774 10
-30.200554 -50.654068 7.3009901 11
-30.195715 -50.653282 9.4000196 12
-29.196981 -50.585011 1.078828 8
-29.185316 -50.572254 3.1189935 9
-29.174129 -50.560356 5.1656957 10
-29.171009 -50.562477 7.2259846 11
-29.169224 -50.566998 9.3046274 12
-28.197206 -50.512466 1.067796 8
-28.187155 -50.502209 3.0886602 9
-28.18165 -50.500114 5.11694 10
-28.171896 -50.490459 7.1564107 11
-28.164074 -50.484318 9.2133093 12
-26.566933 -6.2098107 0.48804852 8
-26.569595 -6.2105365 1.4417032 9
-26.552849 -6.2067261 2.3973248 10
-26.534569 -6.2025599 3.3574376 11
-26.502314 -6.195127 4.3222547 12
-26.500011 -6.194695 5.3015037 13
-26.489622 -6.1923752 6.2920833 14
-26.482855 -6.1909037 7.2990484 15
-26.114599 -7.7080917 0.48979521 8
-26.153364 -7.3132787 0.48783636 8
-26.174004 -6.9157195 0.4856458 8
-26.217415 -6.5262337 0.48398268 8
-26.110741 -7.7071157 1.4411558 9
-26.13689 -7.3088193 1.4360018 9
-26.177858 -6.9168687 1.4319847 9
-26.209188 -6.524302 1.4277557 9
-26.077127 -7.6973591 2.3930323 10
-26.128239 -7.3065476 2.3872004 10
-26.157618 -6.9116521 2.3799152 10
-26.18808 -6.5191655 2.3732624 10
-26.078964 -7.6980667 3.3528867 11
-26.119581 -7.304276 3.3436368 11
-26.139959 -6.9071217 3.3325555 11
-26.177469 -6.516643 3.3244076 11
-26.071976 -7.6961703 4.3197207 12
-26.107407 -7.3010211 4.307138 12
-26.143696 -6.9082408 4.29567 12
-26.168394 -6.514503 4.2832623 12
-26.059561 -7.6926751 5.2957373 13
-26.083361 -7.2944479 5.2781062 13
-26.122292 -6.9027205 5.264739 13
-26.15407 -6.5110569 5.2511077 13
-26.007723 -8.0850687 6.3027034 14
-26.064777 -7.2894053 6.2619433 14
-26.104345 -6.8981166 6.2463641 14
-26.137495 -6.5070524 6.2306423 14
-26.042025 -7.6878428 7.2899594 15
-26.07481 -7.2923656 7.2684336 15
-26.099846 -6.8970656 7.2464104 15
-26.12396 -6.5038061 7.2257748 15
-25.678324 36.811413 0.73449379 8
-25.665777 36.78912 2.3019123 9
-25.640841 36.749073 3.8713036 10
-25.617025 36.710625 5.4471259 11
-25.391756 33.254196 0.68418354 8
-25.483961 34.386692 0.70002854 8
-25.578667 35.570038 0.71675462 8
-25.372789 33.225864 2.144839 9
-25.470127 34.364277 2.1946442 9
-25.556095 35.534653 2.2459173 9
-25.364214 33.211117 3.6098299 10
-25.440941 34.321159 3.6905613 10
-25.537323 35.504536 3.7781949 10
-25.339697 33.175499 5.0793028 11
-25.436201 34.310974 5.1968713 11
-25.525423 35.483944 5.3186903 11
-25.322853 33.149895 6.5602651 12
-25.420177 34.285561 6.7122808 12
-25.506918 35.454147 6.8688879 12
-25.592323 36.670868 7.0329776 12
-25.14237 26.085068 3.1298189 10
-24.839882 26.522749 3.139117 10
-25.153997 26.094995 4.410254 11
-24.821117 26.50049 4.418005 11
-25.160801 26.099901 5.7015867 12
-24.803667 26.479626 5.7060647 12
-25.159376 26.096256 7.0054631 13
-24.778664 26.450682 7.0043025 13
-18.000908 17.641745 0.41281974 8
-18.006163 17.645554 1.2941903 9
-17.654945 17.80694 0.41061181 8
-17.643049 17.793566 1.2862288 9
-17.387791 18.04862 0.41030398 8
-17.227436 18.403795 0.41264212 8
-17.302113 18.218939 1.289621 9
-16.564821 -49.536598 0.95083749 8
-16.560555 -49.537552 2.7760377 9
-16.550371 -49.520851 4.6063571 10
-16.540539 -49.505272 6.4468064 11
-16.536167 -49.506145 8.3047142 12
-15.757747 -49.470646 0.94377911 8
-15.751007 -49.463955 2.7576072 9
-15.742736 -49.452492 4.5771527 10
-15.735737 -49.445126 6.4075365 11
-15.729672 -49.440811 8.2536516 12
-14.953999 -49.385185 0.93656278 8
-14.955749 -49.406303 2.7407501 9
-14.943573 -49.38142 4.5488553 10
-14.932303 -49.359612 6.3666177 11
-14.933626 -49.379608 8.2053862 12
-14.164713 -49.317364 0.92988896 8
-14.16499 -49.334587 2.7237766 9
-14.155766 -49.318729 4.52246 10
-14.172259 -26.276917 5.8302703 13
-14.148327 -49.309196 6.3318233 11
-14.174538 -26.285524 6.9215312 14
-14.144055 -49.310848 8.1579237 12
-13.69188 -26.259405 0.54487693 8
-13.968712 21.998547 0.42769369 8
-13.68452 -26.249634 1.5788673 9
-13.957011 21.977272 1.3372592 9
-13.678766 -26.242964 2.6161871 10
-13.67881 -26.247452 3.6608956 11
-13.662988 -26.221504 4.7094851 12
-13.672114 -26.243532 5.7782521 13
-13.664057 -26.232599 6.8547578 14
-13.66042 -26.230242 7.9504919 15
-13.254471 15.005116 0.32794684 8
-13.436118 22.202766 0.42634436 8
-13.388409 -49.266384 0.92373496 8
-13.263073 15.013502 1.0284137 9
-13.431902 22.192827 1.3328747 9
-13.270608 15.020677 1.732092 10
-13.377632 -49.243946 2.706418 9
-13.376927 -49.25869 4.4974074 10
-13.370724 -49.253265 6.2978621 11
-13.362546 -49.240711 8.1122532 12
-13.357497 -49.239887 9.9482832 13
-12.979931 15.126828 0.32650772 8
-13.194822 -26.215973 0.5395143 8
-13.063004 22.674168 0.43031371 8
-13.007164 30.093773 0.54281354 8
-12.983938 15.130099 1.0235238 9
-13.188541 -26.208017 1.5643425 9
-13.073539 22.6891 1.3458471 9
-12.987727 15.133108 1.723367 10
-13.003516 30.079185 1.6878288 9
-13.183961 -26.203455 2.5926409 10
-13.016323 30.102573 2.8395095 10
-13.177778 -26.195736 3.6264465 11
-13.016064 30.095745 3.9960208 11
-13.180636 -26.206051 4.6717663 12
-13.017235 30.092175 5.1625266 12
-13.173374 -26.196266 5.7251282 13
-13.167603 -26.189514 6.7929034 14
-13.169899 -26.198906 7.8823628 15
-12.67033 15.426696 0.32705548 8
-12.699061 -26.157961 0.53401446 8
-12.512765 30.130566 0.54083788 8
-12.616619 -49.203812 0.91755694 8
-12.669137 15.423924 1.0247411 9
-12.701078 -26.166847 1.5503458 9
-12.662941 15.414895 1.7240347 10
-12.519776 30.140953 1.6816819 9
-12.608953 -49.192287 2.6918426 9
-12.696369 -26.161871 2.5697329 10
-12.519493 30.133785 2.8258483 10
-12.690993 -26.155554 3.594794 11
-12.521241 30.131456 3.9771199 11
-12.601183 -49.180405 4.4717684 10
-12.685316 -26.148653 4.6280875 12
-12.526237 30.136877 5.1394496 12
-12.687162 -26.157328 5.6757164 13
-12.599841 -49.193764 6.2649603 11
-12.528821 30.136423 6.3138885 13
-12.682971 -26.153612 6.7351508 14
-12.533534 30.140999 7.5055943 14
-12.679036 -26.150501 7.8116946 15
-12.59549 -49.19553 8.0726557 12
-12.225455 -26.129145 0.52926773 8
-12.026251 30.175035 0.53916562 8
-12.215524 -26.112816 1.5360768 9
-12.027309 30.170902 1.674221 9
-12.221848 -26.13129 2.5487146 10
-12.029509 30.169598 2.8133886 10
-12.205916 -26.102163 3.5624833 11
-12.035087 30.176699 3.960541 11
-12.213123 -26.122602 4.5914469 12
-12.032825 30.164131 5.1147718 12
-12.205469 -26.111284 5.6265917 13
-12.039722 30.174406 6.2856483 13
-12.20919 -26.124393 6.6812587 14
-12.043039 30.175625 7.4710622 14
-12.200245 -26.110456 7.7460566 15
-11.753169 -26.087397 0.52440596 8
-11.849291 -49.128838 0.91133851 8
-11.751971 -26.08987 1.5241054 9
-11.845127 -49.131248 2.6773698 9
-11.748816 -26.088009 2.5272393 10
-11.738958 -26.071283 3.5343618 11
-11.842398 -49.139675 4.4505954 10
-11.738048 -26.07449 4.5523529 12
-11.739172 -26.082279 5.5828962 13
-11.835314 -49.130146 6.2330165 11
-11.733809 -26.081165 7.6860228 15
-11.830109 -49.128578 8.0314016 12
-11.252397 -0.80919874 -0.1953945 7
-11.308629 2.9540422e-05 -0.19740747 7
-11.393759 0.81952059 -0.20096633 7
-11.394282 1.6477538 -0.20408918 7
-11.369278 2.4880173 -0.20782828 7
-11.538075 30.203979 0.53738117 8
-11.225526 32.119598 0.56698489 8
-11.540541 30.203285 1.6673558 9
-11.214724 32.080357 1.753968 9
-11.549766 30.220219 2.8030546 10
-11.55185 30.218456 3.9445415 11
-11.553314 30.215015 5.0954418 12
-11.559164 30.222931 6.2612367 13
-11.26919 -26.034592 6.5716629 14
-11.266506 -26.034077 7.6230917 15
-10.974356 -2.4001894 -0.19160663 7
-11.12296 -1.6078966 -0.19314562 7
-10.833003 -26.011002 0.51525217 8
-11.086453 30.32041 0.53730226 8
-11.092953 -49.069618 0.90559942 8
-10.826683 -26.00141 1.4990101 9
-11.07502 30.281683 1.6634628 9
-11.084701 -49.054176 2.6626329 9
-10.827544 -26.009109 2.4873033 10
-11.069291 30.258499 2.792299 10
-11.190795 32.003635 2.938952 10
-10.820631 -25.998142 3.4797368 11
-11.072886 30.260725 3.9296212 11
-11.181874 31.969734 4.1310339 11
-11.078536 -49.048065 4.4258442 10
-10.824611 -26.013432 4.4844136 12
-11.073493 30.254726 5.0755224 12
-10.817812 -26.002846 5.4959555 13
-11.162292 31.905361 5.3257732 12
-11.073176 -49.045662 6.1998901 11
-11.072168 30.243382 6.2326179 13
-10.815808 -26.003885 6.5234356 14
-11.151392 31.865692 6.5340748 13
-10.814061 -26.005634 7.5679011 15
-11.069072 -49.049007 7.9899774 12
-10.564972 -3.9620025 -0.18977621 7
-10.79181 -3.1858728 -0.19053794 7
-10.502295 10.008512 0.23820749 8
-10.478221 -26.211708 0.51559454 8
-10.487672 9.9938717 0.74433553 9
-10.466104 -26.187273 1.5003135 9
-10.479741 9.9855919 1.2516299 10
-10.482278 9.9872684 1.7629483 11
-10.466958 9.9719553 2.2749639 12
-10.447544 -26.146702 2.4852669 10
-10.463051 9.9674921 2.7941551 13
-10.43745 -26.127373 3.4760242 11
-10.459728 9.9635696 3.3201675 14
-10.44352 9.9473858 3.8495827 15
-10.42895 -26.11208 4.4745474 12
-10.417562 -26.089603 5.4815092 13
-10.406385 -26.067724 6.5006838 14
-10.031981 -5.5089393 -0.19026469 7
-10.323793 -4.7408237 -0.18989065 7
-10.220796 -29.149185 0.56222081 8
-10.311127 -28.10829 0.54560602 8
-10.391701 -27.117874 0.52983826 8
-10.341554 -49.002586 0.89989734 8
-10.299325 -28.083082 1.5901158 9
-10.381794 -27.098417 1.5432417 9
-10.203112 -29.106318 1.6389236 9
-10.338695 -49.011806 2.6503742 9
-10.192936 -29.084917 2.7184048 10
-10.285211 -28.051552 2.6359825 10
-10.371699 -27.078478 2.5588579 10
-10.355171 -27.041746 3.5769794 11
-10.185093 -29.070217 3.8037913 11
-10.275429 -28.0319 3.6874704 11
-10.331038 -48.998325 4.4058871 10
-10.260741 -27.998896 4.7442803 12
-10.349376 -27.033134 4.6059051 12
-10.162895 -29.014542 4.8905187 12
-10.15252 -28.992722 5.9921951 13
-10.246046 -27.965927 5.8103862 13
-10.332721 -26.996162 5.6396976 13
-10.32269 -48.981689 6.1707945 11
-10.320664 -26.971302 6.6878448 14
-10.146269 -28.982801 7.1102242 14
-10.231368 -27.933084 6.8886242 14
-10.222165 -27.915318 7.9862423 15
-10.309642 -26.949257 7.7519627 15
-10.124809 -28.929485 8.2333298 15
-9.7051516 -6.2736516 -0.19122839 7
-9.7310381 9.823946 -0.25587282 7
-9.3595896 -7.0492849 -0.19317876 7
-9.2943048 10.838959 -0.26429921 7
-9.5978556 -48.941952 0.89448977 8
-9.5928955 -48.941284 2.6371725 9
-9.5861225 -48.931431 4.3853736 10
-9.5815287 -48.932892 6.1450047 11
-8.9567003 -7.8109474 -0.19541799 7
-8.8591785 -48.876369 0.88916403 8
-8.8548193 -48.879143 2.6249952 9
-8.849061 -48.874279 4.3667045 10
-8.4986095 -8.5568695 -0.19802055 7
-8.7867985 11.875395 -0.27323335 7
-8.0168419 -9.3204441 -0.20180877 7
-8.2038507 12.934903 -0.28274143 7
-7.4831667 -10.077553 -0.20626149 7
-7.5470233 14.033032 -0.29318175 7
-6.9101386 -10.849998 -0.21188143 7
-6.7992344 15.157782 -0.30431679 7
-6.2633219 -11.589292 -0.2178008 7
-5.9523082 16.311474 -0.31624362 7
-5.6051121 1.5704827 0.098981179 8
-5.6015053 1.5693985 0.60924208 10.5
-5.6155005 1.5731862 1.4527272 14.5
-5.5773268 -12.361188 -0.22535816 7
-5.4779177 1.5767033 -0.10224529 7
-5.4454947 1.5815957 0.22957191 8.666667
-5.3727713 1.589146 0.5867945 10.5
-5.487886 1.5794587 1.0050844 12.5
-5.3764791 1.5901064 1.3964455 14.5
-4.8186073 -13.110167 -0.2336231 7
-4.879096 -1.8301105 -0.26978812 6
-4.973886 -1.46886 -0.26909927 6
-5.0684409 -1.1090367 -0.26984808 6
-5.1264105 -0.74149835 -0.27007246 6
-5.1848955 -0.37313026 -0.27173403 6
-5.1968513 0.18709865 -0.27306557 6
-5.1827836 0.75030529 -0.27585167 6
-5.1226096 1.1223831 -0.27689928 6
-5.0715456 1.5003902 -0.27988821 6
-5.052474 1.6134108 -0.095338993 7
-4.9953823 17.493422 -0.3290107 7
-5.0570645 1.6148639 0.18285173 8.5
-5.0639744 1.616944 0.55655259 10.5
-5.0579576 1.6149212 0.93443698 12.5
-5.0641737 1.6168447 1.3239824 14.5
-4.415473 -2.8535278 -0.27076191 6
-4.5835004 -2.5167537 -0.26970252 6
-4.7439394 -2.1786296 -0.26972601 6
-4.5188332 1.6608951 -0.14205693 6.6666665
-4.6310034 1.6452131 0.16912124 8.5
-4.5571856 1.6560204 0.59369338 11
-4.6477318 1.6508199 1.0468276 13.5
-4.5705771 1.6607237 1.3012887 15
-4.0146246 -3.4986861 -0.27372929 6
-4.2252703 -3.1808603 -0.27206919 6
-4.2046757 1.6855174 -0.081814937 7
-4.1575351 1.6868991 0.20040739 8.8000002
-4.2448411 -25.439964 0.45966688 8
-4.2092276 1.6867265 0.58657122 11.2
-4.155344 1.6924369 1.000965 13.8
-4.2444649 -25.453056 1.3613417 9
-4.2807536 1.6803776 1.2304729 15
-4.2406626 -25.44557 2.2654173 10
-3.9998276 -13.879222 -0.24348685 7
-3.7882962 -3.8106802 -0.27608871 6
-3.8498151 1.796798 -0.12598756 6.6666665
-3.8475397 2.1830711 -0.13164695 6.6666665
-3.8828797 2.5891616 -0.13917534 6.6666665
-3.9144495 2.9927042 -0.14752845 6.6666665
-3.9441032 3.4250059 -0.15715437 6.6666665
-3.8582907 4.200398 -0.30455318 6
-3.9170008 18.705303 -0.34272975 7
-3.8299789 1.8215497 0.21939316 9
-3.8497753 2.2150235 0.2299192 9
-3.8783655 2.5840576 0.20720874 8.8000002
-3.9086599 2.9923854 0.16784894 8.5
-3.9402442 3.3797858 0.17688367 8.5
-3.9704554 3.6867008 0.18437624 8.5
-3.8669875 -25.413681 0.45719928 8
-3.8406098 1.8203905 0.59568322 11.5
-3.8432357 2.2111833 0.62080842 11.5
-3.8701589 2.6207292 0.57105833 11
-3.9048293 2.987174 0.60046077 11
-3.9403946 3.3928926 0.54275411 10.5
-3.965023 3.6812878 0.46879983 10
-3.8253374 1.8190964 0.97738987 14
-3.8367655 2.2008574 1.0197451 14
-3.8699286 2.6137135 0.99017382 13.5
-3.8978958 2.994318 1.0418199 13.5
-3.9281297 3.3529587 0.96864879 12.833333
-3.8639283 -25.410427 1.3550154 9
-3.8495994 2.3438406 1.2052262 15
-3.8712423 2.6142805 1.2491591 15
-3.8993113 2.9951317 1.3143724 15
-3.9324663 3.4459248 1.3321375 14.666667
-3.9517047 3.667778 1.3405424 14.5
-3.8603137 -25.403553 2.2555718 10
-3.3934331 -4.2390552 -0.27924639 6
-3.2228703 -0.95209199 -0.29213992 5
-3.3081508 -0.60099572 -0.29316086 5
-3.3583238 -0.24185547 -0.29409802 5
-3.3690529 0.12158148 -0.29537961 5
-3.3336389 0.60626566 -0.29779637 5
-3.2666676 0.96773326 -0.29987121 5
-3.2180588 1.211628 -0.30302218 5
-3.4516568 4.6818094 -0.31016609 6
-3.4931259 -25.399084 0.45502573 8
-3.4880886 -25.38114 1.349686 9
-3.0990698 -14.615572 -0.25416431 7
-2.9676843 -4.6498137 -0.28381339 6
-2.9084821 -1.7348481 -0.29330385 5
-3.0460196 -1.3989691 -0.29059094 5
-3.145505 -1.1801099 -0.29163724 5
-3.1281993 1.4430467 -0.3039054 5
-2.9700973 1.7827586 -0.30614862 5
-3.1485078 4.9849067 -0.31406015 6
-2.8288212 5.2855067 -0.31884962 6
-3.1184201 -25.362122 0.45253161 8
-3.1157835 -25.361839 1.3451651 9
-2.6578641 -4.904428 -0.2874046 6
-2.4298882 -2.441927 -0.29754934 5
-2.6562884 -2.1514988 -0.2956022 5
-2.4335005 -0.53298527 -0.30468869 4
-2.4738107 -0.26777765 -0.30512249 4
-2.4767005 0.22454858 -0.3063727 4
-2.4381063 0.53550255 -0.30760783 4
-2.7240522 2.2250535 -0.31111073 5
-2.4927502 2.5308163 -0.31399736 5
-2.4842548 5.5702548 -0.32375747 6
-2.5864213 19.091991 -0.34206849 7
-2.6052816 15.146194 0.26244038 8
-2.7465627 -25.329565 0.45019844 8
-2.525219 12.531587 0.66432899 9
-2.3281131 -5.1412897 -0.29131624 6
-2.1692739 -2.7060544 -0.29979116 5
-2.0997863 -1.3563221 -0.30464473 4
-2.2980962 -0.95787328 -0.303799 4
-2.3861144 -0.70514452 -0.30393401 4
-2.3975651 0.71124321 -0.30849111 4
-2.3218815 0.97278881 -0.31113374 4
-2.1277149 1.3871804 -0.31466034 4
-2.3294849 2.7339396 -0.31737134 5
-2.1334927 2.9044745 -0.31822044 5
-2.1105773 5.8248072 -0.32806885 6
-2.1608803 15.15659 0.26255774 8
-2.3775244 -25.304903 0.44808614 8
-2.1558418 12.549802 0.66260332 9
-2.1779335 9.2709723 1.1644934 11
-2.2293878 10.678333 0.94945467 10
-2.0306301 5.356173 1.3183819 14
-2.0830178 6.4457159 1.3123043 13
-2.2700951 7.9802303 1.3090479 12
-2.0968132 8.023859 1.308832 12
-1.7909802 -5.4431376 -0.29707041 6
-1.7828125 -3.0201302 -0.3035017 5
-1.787097 -1.7942781 -0.30818385 4
-1.7212602 -0.9855563 -0.31220409 3
-1.8705997 -0.58912373 -0.3096256 3
-1.9393871 -0.28102833 -0.30964503 3
-1.943926 0.28234953 -0.31180489 3
-1.877915 0.59530514 -0.31389719 3
-1.7380635 0.96355253 -0.31712541 3
-1.8057503 1.8398434 -0.31932971 4
-1.9399495 3.0843363 -0.32143199 5
-1.7362872 3.2599556 -0.32542139 5
-1.713052 6.0536032 -0.33218342 6
-1.7180619 15.152706 0.26269934 8
-1.7868334 12.552975 0.66069543 9
-1.7669502 9.3060551 1.1591021 11
-1.7170058 10.698316 0.94423378 10
-1.7535193 4.5986648 1.3155792 15
-1.7883404 5.4098883 1.3119929 14
-1.7767406 6.5239716 1.3106091 13
-1.741666 8.0723257 1.3040677 12
-1.2246649 -5.7192121 -0.30444053 6
-1.3602923 -3.3018813 -0.30978554 5
-1.3823535 -2.1579566 -0.31203118 4
-1.4887693 -1.3262211 -0.31363088 3
-1.2927032 -1.0084823 -0.31625125 2
-1.3115839 -0.66016024 -0.31695256 1.3333334
-1.4719182 -0.32276398 -0.31708384 1.5
-1.4637685 0.32249475 -0.31736344 1.5
-1.3118582 0.66806465 -0.32179305 1.3333334
-1.2888904 1.0219592 -0.32203528 2
-1.460808 1.3886008 -0.32209387 3
-1.3913254 2.2231491 -0.32414579 4
-1.3890517 3.4658833 -0.32836092 5
-1.2943357 6.2583728 -0.33630461 6
-1.2007694 19.074005 -0.33543217 7
-1.3885671 15.156399 0.26308635 8
-1.3769149 12.57132 0.66007495 9
-1.2437214 -4.797276 0.96174449 13
-1.2466302 -4.2950845 1.0303752 14
-1.3600451 9.3430643 1.156252 11
-1.3675309 10.725254 0.94303077 10
-1.3676444 4.7065825 1.310539 15
-1.3693287 5.5051775 1.306728 14
-1.3210233 6.597496 1.3048465 13
-1.3600533 8.1261463 1.3017848 12
-1.0130708 -3.4688823 -0.31410363 5
-0.91177416 -2.4451411 -0.31804928 4
-1.079411 -2.3666179 -0.31664574 4
-0.99345928 -1.7694095 -0.31931305 3
-1.0185077 -1.3113174 -0.31993487 2
-0.99978709 -1.0011318 -0.32088447 1
-1.0456836 -0.68739659 -0.32003194 0.25
-1.174402 -0.25772089 -0.32097447 0
-1.1793709 0.26032069 -0.32461983 0
-1.0467349 0.68748456 -0.32481501 0.25
-0.98989445 1.0166856 -0.32685122 1
-0.93255466 1.3875664 -0.32686719 2
-1.063697 1.7551392 -0.32694983 3
-0.99184817 2.4909363 -0.32986692 4
-1.0261639 3.659611 -0.33299336 5
-0.85939324 6.4648561 -0.34189758 6
-1.0608325 15.166689 0.26375377 8
-0.91179723 -8.2842627 0.43648493 9
-0.9297995 -7.034874 0.62008983 10
-0.96632844 -6.1139288 0.75889635 11
-0.96867257 12.590176 0.66014826 9
-0.99362159 -5.3965759 0.86758441 12
-0.9766717 -4.8108506 0.95227337 13
-1.0259628 -4.3294139 1.0248529 14
-0.95347816 9.3639011 1.1536596 11
-0.9401347 10.736451 0.94116968 10
-0.97163951 4.7896986 1.3071127 15
-0.96699154 5.5694847 1.302705 14
-0.93629056 6.6361408 1.3004241 13
-0.94556922 8.1449986 1.2964653 12
-0.76603955 -3.5424826 -0.31570646 5
-0.6522997 -2.5509405 -0.3218458 4
-0.57174766 -1.8432018 -0.32408312 2.6666667
-0.64389449 -1.4041531 -0.32357559 1.5
-0.67901921 -1.0710436 -0.32436875 0.25
-0.61612517 1.0588739 -0.32988626 0
-0.64174587 1.3513231 -0.33083072 1.25
-0.60527188 1.8060176 -0.33190057 2.5
-0.4881849 2.0630968 -0.33455238 3
-0.6353721 2.6560788 -0.33468717 4
-0.63512003 3.8058379 -0.33696353 5
-0.62464821 15.180424 0.26486629 8
-0.77506506 -7.0189533 0.61663145 10
-0.65415913 -6.1029797 0.7516793 11
-0.69668394 12.595122 0.66026324 9
-0.63746995 -5.3839865 0.85623717 12
-0.59842706 -4.8174782 0.94065922 13
-0.59656233 -4.3446708 1.0091546 14
-0.50092691 -3.9537976 1.0634679 15
-0.54823601 9.3763084 1.1522619 11
-0.55414277 10.759801 0.94193041 10
-0.62881202 4.8291326 1.303158 15
-0.56423664 5.6175284 1.3018006 14
-0.55189353 6.6565609 1.2968779 13
-0.56264263 8.1531076 1.2931606 12
-0.36762887 -1.6515257 -0.3269203 2
-0.3612057 -1.3783011 -0.32656276 1
-0.31511676 -1.1931323 -0.32780784 0
-0.14217527 1.3655241 -0.3369574 0.60000002
-0.12889679 1.7276239 -0.34009823 2
-0.13164212 2.1353548 -0.3416729 3
-0.20118687 2.7603519 -0.34201646 4
-0.16753495 3.9046564 -0.34554791 5
-0.26587895 6.6501327 -0.35225695 6
-0.23440632 19.005518 -0.33826768 7
-0.19106492 15.155517 0.26346987 8
-0.15942356 12.574207 0.65821707 9
-0.38738811 -3.95946 1.061223 15
-0.12017384 9.3618021 1.149007 11
-0.111359 10.742341 0.93907994 10
-0.031197168 4.7834396 1.2852612 15
-0.18657936 4.8435278 1.29766 15
-0.10703828 5.5619969 1.286815 14
-0.20594446 5.6102009 1.295202 14
-0.13512164 6.6386514 1.290611 13
-0.10513391 8.128623 1.2872422 12
0.37524933 -6.1873212 -0.32797119 6
0.24416503 -3.7578354 -0.33175114 5
0.21711951 -2.7102985 -0.33592016 4
0.20581771 -2.0901437 -0.33443943 3
0.19490683 -1.7190957 -0.33817598 2
0.21985763 -1.3555624 -0.3382172 0.60000002
0.23392488 1.198458 -0.35003117 0
0.17447889 1.3465527 -0.3501327 0.66666669
0.22842984 1.7088743 -0.35363886 2
0.29795861 2.1090236 -0.35482863 3
0.20606831 2.7732801 -0.35605657 4
0.17814347 3.945991 -0.35810053 5
0.35948056 6.8031769 -0.36992761 6
0.13047691 15.136219 0.25588685 8
0.14514583 12.545827 0.65066141 9
0.39731187 -5.2987599 0.83594674 12
0.35456368 -4.7572784 0.92135859 13
0.34990737 -4.3063312 0.99116987 14
0.31682774 -3.9231198 1.0479984 15
0.23086809 9.3402596 1.1426095 11
0.23281299 10.708973 0.93096429 10
0.27979037 4.7601471 1.2795626 15
0.18700136 5.5360527 1.2797641 14
0.19382916 6.581192 1.2786694 13
0.24992505 8.047327 1.2719978 12
0.77945483 -12.39607 -0.22168842 7
0.4654285 -6.2045641 -0.32953924 6
0.54647112 -3.786737 -0.33836454 5
0.67167783 -2.663322 -0.34183937 4
0.55232871 -2.0629463 -0.3426491 3
0.53420138 -1.6608603 -0.34327501 2
0.65714204 -1.394937 -0.34676483 1.25
0.56114316 -1.1253927 -0.34425363 0
0.51674223 1.0984015 -0.35425711 0
0.60884839 1.2961527 -0.35831082 1
0.51173007 1.6508436 -0.35861018 2
0.60944611 2.0542443 -0.36045963 3
0.61451507 2.7349801 -0.36316395 4
0.61627752 3.9501648 -0.36686751 5
0.75094509 -9.7766266 0.16593634 8
0.56606197 15.121069 0.25180072 8
0.67604369 -8.0907192 0.42013228 9
0.59723437 -6.8901796 0.59960526 10
0.6015383 -5.9774404 0.73186421 11
0.64362371 12.55689 0.64756221 9
0.60588145 -5.2865567 0.83662033 12
0.58972788 -4.7191806 0.91805017 13
0.59273672 -4.2649379 0.98733711 14
0.59396076 -3.8806167 1.0450509 15
0.6353783 9.3268814 1.1398591 11
0.58091813 10.707401 0.92899221 10
0.68968511 4.6986647 1.2718536 15
0.66968137 5.4667244 1.2689027 14
0.59402508 6.5218272 1.269107 13
0.73823535 7.9679804 1.2602351 12
0.50963402 8.0124416 1.2662621 12
0.95606709 -12.373951 -0.22215308 7
0.92253745 -6.2574644 -0.33678254 6
0.95848489 -3.7469969 -0.34427741 5
1.0570134 -2.5754399 -0.34889555 4
0.98492384 -1.9166143 -0.34919193 3
1.0190941 -1.4291596 -0.3513267 2
0.97981334 -1.0322344 -0.35248482 0.75
1.1255482 -0.57067299 -0.35780823 0
1.1126851 0.543145 -0.36423314 0
1.0110703 0.97426713 -0.36456627 0.80000001
0.99106616 1.4288845 -0.36606276 2
0.98844272 1.9265631 -0.36819091 3
1.0181161 2.6382439 -0.37009406 4
1.0555713 3.903234 -0.37472439 5
0.8642112 6.8606644 -0.37998894 6
1.1366323 19.038082 -0.35218894 7
0.99352515 -9.7369156 0.1647497 8
0.89342469 15.119883 0.24907482 8
0.99011546 -8.0305624 0.41756278 9
1.1897022 -7.9956083 0.41637856 9
0.99513566 -6.8226461 0.59634501 10
1.0052948 -5.9211426 0.73015541 11
1.0069687 12.552623 0.64537805 9
0.92412519 -5.232676 0.83421981 12
1.109894 -5.194272 0.8331818 12
0.99169016 -4.6530395 0.91703415 13
0.98593873 -4.1950402 0.98690575 14
0.99326497 -3.8060665 1.0458244 15
1.0418596 9.3183746 1.1399148 11
1.0086251 10.711673 0.92841256 10
1.058614 4.6125002 1.2649534 15
1.098392 5.3746395 1.2609656 14
1.0595108 6.4353657 1.2602355 13
1.0795422 7.90622 1.2541084 12
1.3872298 -6.2655373 -0.34362331 6
1.3707291 -3.670712 -0.35074148 5
1.3380196 -2.4703844 -0.35384762 4
1.5196148 -2.3821969 -0.35726231 4
1.3534286 -1.7048845 -0.35590231 3
1.3930409 -1.4184469 -0.35950172 2.5
1.3686124 -1.0125576 -0.36035144 1.75
1.3569276 -0.58163011 -0.36115611 1
1.3515351 -0.21475497 -0.3639797 0.5
1.3454717 0.18621117 -0.36562869 0.5
1.3542895 0.56023657 -0.36916479 1
1.4367654 1.0169649 -0.37283999 2
1.4009922 1.3876078 -0.37277421 2.5
1.3367953 1.724898 -0.3733297 3
1.411809 2.4907579 -0.37778282 4
1.3486634 3.8470421 -0.38020495 5
1.3795617 6.882031 -0.39007589 6
1.409981 -9.6815329 0.16311151 8
1.4435251 15.141821 0.24526931 8
1.389364 -7.9624696 0.41559184 9
1.4258773 -6.7557526 0.5956068 10
1.4410477 -5.8376956 0.72941059 11
1.3689171 12.52386 0.64250934 9
1.4091908 -5.1378284 0.83483827 12
1.3488261 -4.5842805 0.91987711 13
1.389684 -4.0937362 0.98884958 14
1.3984678 -3.6887741 1.0476512 15
1.4483478 9.2897072 1.1397252 11
1.4360834 10.687369 0.92697328 10
1.3954951 4.5016427 1.2582902 15
1.3837925 5.2884336 1.2544541 14
1.3787787 6.3495941 1.253104 13
1.4716572 7.8100071 1.2459078 12
1.9097832 6.8897543 -0.40151659 6
1.8301264 -12.217786 -0.22445805 7
1.8645235 -6.2607322 -0.35186401 6
1.6497157 -3.6078889 -0.35666317 5
1.9188265 -3.5093517 -0.36120912 5
1.7778792 -2.2201533 -0.36200568 4
1.7569424 -1.331884 -0.36566165 3
1.9482924 -1.0762718 -0.37124977 3
1.6841193 -0.60661769 -0.36920926 2
1.7658257 -0.25852555 -0.37144357 2
1.7679728 0.2376716 -0.37490878 2
1.6760865 0.58707613 -0.37495458 2
1.9507972 1.0758302 -0.38307694 3
1.8041778 1.2737514 -0.37994078 3
1.779103 2.2784834 -0.38390207 4
1.7847373 3.7229731 -0.38859761 5
1.7895727 -9.6168709 0.16157994 8
1.9932424 -9.5653162 0.16055319 8
1.8846365 15.136495 0.24211788 8
1.8188175 -7.8954253 0.41491503 9
1.8388625 -6.6754255 0.59559846 10
1.7860212 -5.7647963 0.73077631 11
1.7352225 12.519578 0.64148831 9
1.8436928 -5.0336442 0.83831841 12
1.8318061 -4.4435148 0.92345071 13
1.6731806 -4.0120149 0.9929598 14
1.7584326 -3.8503613 1.0154276 14.333333
1.8155508 -3.5465126 1.0567198 15
1.8272276 9.2802858 1.1435584 11
1.7900326 10.681193 0.92806286 10
1.7982614 4.341403 1.2515991 15
1.8867183 5.1080351 1.2464907 14
1.61019 5.2154012 1.2510861 14
1.7794572 6.2134161 1.2438977 13
1.8576229 7.6971054 1.2384075 12
2.3432002 -6.2059951 -0.35952231 6
2.179203 -3.3856854 -0.36530271 5
2.0341642 -2.0452311 -0.36908293 4
2.258513 -1.8280604 -0.37424624 4
2.0308905 -0.93728077 -0.37439194 3
2.1500154 -0.59317505 -0.37687451 3
2.2217014 -0.23546609 -0.37965295 3
2.2262695 0.22165152 -0.38271725 3
2.1542163 0.58220536 -0.38355982 3
2.0280647 0.93045789 -0.3835924 3
2.297256 1.8160791 -0.39184049 4
2.0315869 2.0820374 -0.38748264 4
2.2125833 3.5570631 -0.39692503 5
2.2364035 -9.5293503 0.15985972 8
2.215543 15.121494 0.23973277 8
2.2188957 -7.8198414 0.41459215 9
2.1934624 -6.5909719 0.59604067 10
2.1846452 -5.6599388 0.73294836 11
2.3914971 -5.5923615 0.73383063 11
2.1498559 12.509432 0.64079612 9
2.2086599 -4.9269457 0.84291637 12
2.1846459 -4.3294473 0.93042332 13
2.1897202 -3.8212757 1.0046633 14
2.1879938 -3.3889349 1.0687796 15
2.2584872 9.3174038 1.155924 11
2.2198856 10.636592 0.92769367 10
2.1873598 4.1292186 1.2430105 15
2.1720765 4.9722133 1.2400333 14
2.2616882 6.0343499 1.236679 13
2.2381401 7.5715504 1.2318231 12
2.1310313 7.6121516 1.2341002 12
2.6126838 3.3241038 -0.40333545 5
2.4432118 6.8425813 -0.41205114 6
2.7006736 -12.061236 -0.22809778 7
2.4515343 -3.2682614 -0.3723779 5
2.6923096 -3.0995264 -0.37597594 5
2.562928 -1.4012604 -0.38032007 4
2.7597611 -1.026439 -0.38551047 4
2.7786894 1.0369248 -0.39673913 4
2.6350935 1.3285313 -0.39516982 4
2.5268066 19.085182 -0.36788842 7
2.6182315 -9.4649506 0.1587823 8
2.5521622 15.129666 0.23787847 8
2.6196713 -7.7332563 0.41476503 9
2.6159465 -6.4878945 0.59846443 10
2.6107616 -5.5464106 0.7388258 11
2.6602228 12.489577 0.64051563 9
2.4855869 -4.8321753 0.84708601 12
2.7043664 -4.7449932 0.85047448 12
2.560214 -4.1904726 0.94070822 13
2.5314531 -3.6794124 1.0173372 14
2.5044441 -3.2323387 1.0822352 15
2.6872702 -3.1306579 1.0914059 15
2.6292667 9.3535852 1.168873 11
2.5781014 10.616355 0.92991811 10
2.5858841 3.8716192 1.2356657 15
2.6861231 4.6839695 1.2309363 14
2.4031169 4.8621373 1.2380359 14
2.6086905 5.8681993 1.2301465 13
2.5909495 7.4294996 1.2252616 12
2.9950569 3.0544574 -0.40984356 5
2.9732945 6.7396922 -0.42157057 6
2.8340783 -6.1366959 -0.36867532 6
2.9350739 -2.9259872 -0.38131109 5
3.1518762 -2.7205715 -0.3848823 5
2.8524592 -0.83150685 -0.39026782 4
2.9177964 -0.51557928 -0.39130542 4
2.9646416 -0.1960797 -0.39375052 4
2.9722812 0.19342148 -0.39634728 4
2.9265223 0.51534837 -0.39671847 4
2.8676205 0.83707148 -0.39923429 4
3.0010827 -9.3925323 0.15779021 8
3.0042217 15.134838 0.23551664 8
2.9916723 -7.6419177 0.41522953 9
2.9135993 -6.4168959 0.60157681 10
3.1040215 -6.3470373 0.60224539 10
3.0107946 -5.4079213 0.74431282 11
3.0375743 12.481905 0.64140075 9
3.0366285 -4.6327028 0.86137605 12
2.8774109 -4.0507784 0.95043427 13
3.0049763 -3.9836328 0.95390564 13
2.9543169 -2.9648211 1.10665 15
3.0105417 9.3929539 1.183951 11
2.98048 10.58931 0.93337768 10
3.0364449 3.5147498 1.2299412 15
2.8604722 3.673063 1.2338173 15
3.1852729 4.3394265 1.2239598 14
2.9293849 4.5188794 1.2261072 14
3.080075 5.5924478 1.2195147 13
2.9612372 5.6646748 1.2217555 13
3.120662 7.1744776 1.2142079 12
2.9189258 7.2793584 1.2186223 12
3.4382427 2.609911 -0.41551194 5
3.2252903 2.8415828 -0.41290444 5
3.5179238 6.6268539 -0.4329055 6
3.5863535 -11.935165 -0.23373599 7
3.3210568 -6.0176983 -0.37732872 6
3.3813581 -2.5185111 -0.39150703 5
3.5787821 -2.2850993 -0.39605063 5
3.42504 -9.3181992 0.15702473 8
3.458569 15.126061 0.23317866 8
3.4313982 -7.5440602 0.41742125 9
3.4089956 -6.2713938 0.60718256 10
3.4011047 -5.276927 0.75327533 11
3.4173083 12.464528 0.64240116 9
3.4055364 -4.4735889 0.87273556 12
3.2206926 -2.7725489 1.1223538 15
3.2435811 9.4127016 1.1934422 11
3.3807833 10.537843 0.93596786 10
3.4838226 3.0564127 1.2247492 15
3.2887399 3.2660429 1.2260568 15
3.4225476 4.1363897 1.219601 14
3.3851683 5.4051003 1.2167128 13
3.3954914 7.0287747 1.2095516 12
3.5459554 9.3985968 1.2021081 11
3.9072411 -1.7648059 -0.40333021 5
3.970063 1.8240918 -0.42183721 5
3.7368059 2.238328 -0.4203932 5
3.7982147 -5.8488307 -0.38539946 6
3.7532079 -2.0323153 -0.39984414 5
3.9541657 19.146709 -0.38560054 7
3.7800086 -9.2468262 0.15642485 8
3.8031788 15.12113 0.23160614 8
3.8216658 -7.4598136 0.42040646 9
3.7794447 -6.1583867 0.61297727 10
3.8128357 -5.1148458 0.76359057 11
3.7975388 12.432575 0.64327294 9
3.8502169 -4.2539086 0.88881618 12
3.9961424 6.6601324 1.1993263 12
3.9267054 9.183403 1.1922737 11
3.7360916 9.2888908 1.1966792 11
3.8315871 10.490537 0.94138992 10
3.9280148 -2.4982016 1.2276613 15
3.9902372 2.3059926 1.21514 15
3.7783988 2.6614041 1.2201573 15
3.6054144 2.8950834 1.2211792 15
3.7780392 3.79059 1.2139113 14
3.8197455 5.0680308 1.2078985 13
3.8548889 6.7524958 1.201542 12
3.687366 6.8566546 1.2043084 12
4.0473609 -1.4871687 -0.40725657 5
4.2176094 -1.048596 -0.41298386 5
4.3284154 -0.58962035 -0.4168832 5
4.3785915 -0.27623999 -0.41986662 5
4.3843212 0.29600042 -0.42232648 5
4.3683777 0.61546069 -0.42471182 5
4.3059993 0.92933589 -0.42469326 5
4.1688876 1.3888522 -0.42440933 5
4.0422096 6.4397283 -0.44201255 6
4.2852845 -5.6643491 -0.39513892 6
4.2155261 -9.1660862 0.15603913 8
4.1507769 15.112644 0.23013294 8
4.2386417 -7.3413672 0.42327708 9
4.1190915 -6.0440273 0.61889958 10
4.3229628 -5.9679151 0.6226176 10
4.1809692 -4.9656773 0.77540612 11
4.2817078 12.398477 0.64555049 9
4.0887632 12.417768 0.64480406 9
4.1911159 -4.0884776 0.90543616 12
4.3776655 -3.9746115 0.91344416 12
4.2475595 6.4805059 1.1948336 12
4.2432566 9.0102654 1.1867043 11
4.2037477 10.443516 0.94632155 10
4.0101981 -2.4304349 1.2364244 15
4.1519213 -2.1753106 1.2355452 15
4.3020673 -1.8067297 1.2293811 15
4.3673716 1.4867917 1.2144306 15
4.2561154 1.7544267 1.2128533 15
4.1154637 2.0883119 1.2161011 15
4.3347268 3.1075056 1.2062356 14
4.1149101 3.4024351 1.2090424 14
4.2643209 4.6806998 1.2022029 13
4.1228337 4.8328624 1.2068992 13
4.7556157 -5.4285917 -0.40419 6
4.5623269 6.2176037 -0.4513374 6
4.4902172 -11.801979 -0.24079517 7
4.6168718 -9.0783749 0.15568867 8
4.5000606 15.098546 0.22869875 8
4.606545 -7.240416 0.42681983 9
4.6137352 -5.8670568 0.62935019 10
4.4802761 -4.8269749 0.78520769 11
4.641963 -4.755084 0.79165363 11
4.5768147 12.377099 0.64739954 9
4.6150408 -3.8394983 0.92660576 12
4.6170645 4.2894249 1.194474 13
4.4379301 4.497797 1.1986539 13
4.5917158 6.2157879 1.1896358 12
4.7415457 8.7229319 1.1792796 11
4.551826 8.824255 1.1806586 11
4.6627069 10.373509 0.95300472 10
4.4436388 -1.3768253 1.2248176 15
4.5411248 -0.98711526 1.2230232 15
4.5941029 -0.58899665 1.2186097 15
4.6203637 -0.18905628 1.2164508 15
4.6114144 0.2112803 1.2143298 15
4.5722923 0.60977548 1.2135589 15
4.504221 1.0046885 1.2144326 15
4.4183168 1.2927258 1.2115357 15
4.6679497 2.5497479 1.2015537 14
4.4728112 2.897613 1.2045836 14
5.0663495 5.9481206 -0.45998126 6
5.0301723 -8.9942398 0.1556662 8
4.9807334 15.105122 0.22741076 8
5.0139337 -7.1236959 0.43144086 9
4.9242787 -5.7489972 0.63690323 10
4.9767466 12.350509 0.65053707 9
4.988162 -4.586906 0.80583876 11
4.8915582 -3.6701512 0.94259953 12
5.0702939 -3.5535214 0.95364928 12
5.196631 1.1223229 1.1985446 14
5.1369553 1.3717076 1.1989783 14
5.030138 1.7145417 1.1986202 14
4.8793111 2.1098921 1.1995571 14
5.0375724 3.7697446 1.1905016 13
4.8050041 4.0897608 1.1949531 13
5.0246348 5.8414235 1.1832191 12
4.8430347 6.0155149 1.1869888 12
5.0637574 8.4941673 1.1723402 11
5.0491815 10.322847 0.96042788 10
4.9468002 -2.1486583 1.2196068 14
5.0729499 -1.789191 1.2155023 14
5.1613965 -1.4925767 1.2132583 14
4.9658208 1.9371285 1.2025093 14
4.8085532 2.28948 1.2021633 14
5.2170053 -5.1568747 -0.41356215 6
5.5401139 5.6231399 -0.4671222 6
5.4310322 19.197527 -0.40510195 7
5.4167519 -11.649868 -0.24917562 7
5.4149303 -8.9160595 0.1558391 8
5.3419299 15.093559 0.22636573 8
5.4649348 -6.9908705 0.43740457 9
5.2414303 -5.6386786 0.64629978 10
5.4247866 -5.5489531 0.65065479 10
5.373826 12.299357 0.65307474 9
5.2682261 -4.4416647 0.8181234 11
5.4576344 -4.3390656 0.82699496 11
5.2912865 -3.4046509 0.96817029 12
5.3122468 0.32411447 1.199664 14
5.2739863 0.70661348 1.199399 14
5.2416143 0.89621341 1.1987218 14
5.4920907 3.0178905 1.1834331 13
5.29282 3.4015224 1.189169 13
5.4583263 5.3961554 1.1761124 12
