# .PCD v0.7 - Point Cloud Data file format
VERSION 0.7
FIELDS x y z intensity
SIZE 4 4 4 4
TYPE F F F F
COUNT 1 1 1 1
WIDTH 129
HEIGHT 1
VIEWPOINT 0 0 0 1 0 0 0
POINTS 129
DATA ascii
-35.037159 3.5073199 0.60893995 8
-35.133999 7.627974 0.61555666 8
-35.050438 5.0297256 1.8476599 9
-35.071377 7.0922546 3.1192174 10
-35.033772 6.0507841 4.3555722 11
-35.012783 6.5622187 5.6314549 12
-35.018696 7.6021857 6.9532084 13
-34.985016 0.4987545 0.60986841 8
-34.922901 -1.4941994 1.8343104 9
-34.987877 1.9968997 1.8333335 9
-34.889397 -1.4927584 3.0576265 10
-34.959576 1.9952656 3.0602481 10
-34.855274 -1.9893029 4.2898989 11
-34.93301 1.9937304 4.2929025 11
-34.884281 0.49730906 5.5248098 12
-34.947102 3.4981306 5.5569611 12
-34.819248 -1.9872285 6.7824855 13
-34.898617 1.4931191 6.7872605 13
-34.939445 4.5063167 6.8403358 13
-34.811695 -0.99262112 8.04181 14
-34.873844 1.9902953 8.0609465 14
-34.985031 7.5947208 8.252615 14
-34.870914 2.4891143 9.3630886 15
-34.921978 5.5197926 9.4641447 15
-34.643902 -18.23769 0.71251249 8
-34.701416 -14.633079 0.68110079 8
-34.69944 -12.914963 1.9614681 9
-34.613644 -18.22221 2.0791562 9
-34.684872 -12.909735 3.2590311 10
-34.602417 -17.591522 3.4243484 10
-34.623981 -14.60122 4.6377296 11
-34.626255 -13.453274 5.9059148 12
-34.635117 -11.779286 8.4659777 14
-34.779823 -0.99170482 9.3246641 15
-34.558723 -18.828136 4.8623981 11
-34.532841 -18.814528 6.2590146 12
-34.586941 -14.586138 7.3207083 13
-34.516148 -18.805929 7.6712308 13
-34.539467 -15.149875 8.7329264 14
-34.487186 -18.790663 9.098279 14
-34.554501 -12.862204 9.9016485 15
-26.889751 -6.2404094 0.49203676 8
-26.891359 -6.2408218 1.4569664 9
-26.863249 -6.2343373 2.4228954 10
-26.847742 -6.2307811 3.3943431 11
-26.830568 -6.2268357 4.3727975 12
-26.815901 -6.2234726 5.3614249 13
-26.795059 -6.218677 6.3610687 14
-26.787931 -6.2170663 7.3792639 15
-16.280499 -25.221514 0.55471581 8
-16.27202 -25.210878 1.6032521 9
-16.268793 -25.208387 2.6556232 10
-16.25864 -25.195181 3.7126739 11
-16.246008 -25.178148 4.7770171 12
-13.357838 -25.18211 0.5256173 8
-13.339563 -25.150837 1.5200194 9
-13.342231 -25.15906 2.5195658 10
-13.325866 -25.131407 3.5208788 11
-13.327183 -25.137135 4.5346608 12
-13.315015 -25.117451 5.5545716 13
-4.0999794 1.940375 -0.081523374 7
-4.1077495 3.8713987 -0.10223532 7
-4.1221585 1.9507964 0.07728868 8
-4.1066103 3.7609632 0.093607932 8
-4.1220531 1.9506419 0.31672171 9.5
-4.1042018 3.8675292 0.29195583 9
-4.1164818 1.9479012 0.5569669 11
-4.1074986 3.8703687 0.4902066 10
-4.1155834 1.9474058 0.71895176 12
-4.09445 3.857816 0.68722713 11
-4.1177754 1.9483707 0.88332123 13
-4.0961089 3.8591101 0.88784593 12
-4.1227317 1.9506418 1.0508019 14
-4.0941353 3.8569798 1.0898653 13
-4.1333055 1.9555684 1.2230418 15
-4.0808878 3.7359087 1.2739047 14
-4.0777001 3.7327306 1.477845 15
-2.1341574 9.0816011 1.1448567 11
-2.1485343 7.6569915 1.2586062 12
-1.8511628 -10.500297 0.19149505 8
-1.8913273 -8.5678196 0.46460086 9
-1.8024743 -7.1854305 0.6522041 10
-1.8350579 -6.1824627 0.79557586 11
-1.9337825 -3.7716603 1.1383955 15
-1.943193 4.3987541 1.2873595 15
-1.9508219 5.1985931 1.2808307 14
-1.946782 6.2486405 1.2713125 13
-1.7723536 -5.4016647 0.90370536 12
-1.5791078 -4.8123145 0.98720664 13
0.37883475 -7.0953193 0.6207912 10
0.32772055 -6.1423941 0.75424957 11
0.28940368 -5.4277744 0.85975927 12
0.25825247 -4.846962 0.94225287 13
0.23249322 -4.3667941 1.0082598 14
0.54653579 -10.22201 0.17834947 8
0.44741005 -8.3739185 0.43884587 9
0.73057777 14.370293 0.22873636 8
2.613811 9.1201792 1.1337999 11
3.0013232 11.73147 0.59830457 9
3.3640013 -2.7818086 1.1549821 15
3.9030743 -2.9555626 1.1131461 14
4.5594864 -5.019536 0.81476665 11
4.5496674 -3.2448988 1.0662322 13
4.8686066 -3.9093657 0.96824521 12
5.7467151 -7.3104987 0.46633202 9
5.6998558 -5.7590327 0.68647265 10
6.150877 13.714376 0.2032468 8
6.4697003 -9.2721949 0.17493267 8
6.7384987 9.1330452 0.9363414 10
7.4026771 -0.04579905 1.1308633 12
7.9385309 -8.9915304 0.18002085 8
7.9588046 9.0567265 0.14652933 8
7.9673643 9.0635395 0.56871212 9
7.9519944 4.4198322 1.0621899 11
17.020401 -5.1039958 0.22841425 8
17.034044 -5.6408815 0.8598333 9
17.048368 -5.6443191 1.4905065 10
17.054243 -5.6449513 2.124826 11
38.297188 17.174068 0.48976693 8
38.339218 17.189903 1.9587965 9
39.774715 15.172684 3.4772282 10
40.813984 13.603354 2.0060647 9
40.890308 13.624779 5.0410166 11
42.260326 11.457034 0.51292145 8
42.346264 11.47742 3.5857913 10
43.452065 9.8058577 2.0804365 9
43.922836 9.2543993 5.2540464 11
44.601742 8.0797424 0.53510773 8
44.693306 8.094986 3.7162895 10
