# .PCD v0.7 - Point Cloud Data file format
VERSION 0.7
FIELDS x y z intensity
SIZE 4 4 4 4
TYPE F F F F
COUNT 1 1 1 1
WIDTH 1386
HEIGHT 1
VIEWPOINT 0 0 0 1 0 0 0
POINTS 1386
DATA ascii
-35.25771 -17.925793 0.71779037 8
-35.270611 -17.304163 0.71192062 8
-35.271004 -16.684896 0.70603293 8
-35.276672 -16.076307 0.70047969 8
-35.281639 -15.475118 0.69513452 8
-35.282043 -14.879334 0.68991584 8
-35.302242 -13.716266 0.68048507 8
-35.316273 -13.145501 0.67614377 8
-35.313091 -12.574235 0.67166787 8
-35.312576 -12.009738 0.66743517 8
-35.320061 -11.453295 0.66354078 8
-35.34206 -10.906244 0.6600998 8
-35.322994 -10.351318 0.65607399 8
-35.347507 -9.8136587 0.65303135 8
-35.349705 -9.2736883 0.64974695 8
-35.363033 -8.7404289 0.64683622 8
-35.380684 -8.211545 0.64416969 8
-35.410137 -5.0816307 0.63014394 8
-35.421608 -4.5690284 0.62846601 8
-35.415691 -4.0559912 0.6266309 8
-35.438866 -3.5477047 0.62546045 8
-35.436584 -3.0380163 0.62399125 8
-35.444309 -2.5303588 0.62284416 8
-35.450565 -2.0234296 0.62181878 8
-35.459248 -1.5172487 0.62098223 8
-35.476696 -0.50579 0.61974943 8
-35.48019 9.1465459e-05 0.61926031 8
-35.502468 0.50616199 0.61924678 8
-35.503563 1.0124617 0.61900771 8
-35.501488 1.5190704 0.61885995 8
-35.517086 2.0272479 0.61916697 8
-35.53331 3.0463533 0.61996323 8
-35.533863 3.5572655 0.62045246 8
-35.535851 4.0698299 0.62111837 8
-35.552822 4.5860515 0.62219566 8
-35.554516 5.1024714 0.62315863 8
-35.579449 5.6247306 0.62468302 8
-35.569313 6.1440063 0.62574804 8
-35.592392 7.1983848 0.62911493 8
-35.596413 7.7289147 0.63090909 8
-35.276642 -13.130261 1.991064 9
-35.290321 -12.565655 1.9806086 9
-35.299683 -12.004898 1.9704295 9
-35.312912 -10.896824 1.9512804 9
-35.3269 -10.352056 1.9428536 9
-35.316586 -9.8046789 1.9335687 9
-35.343182 -9.2716017 1.9267749 9
-35.341114 -8.7346554 1.9188787 9
-35.356049 -8.2054863 1.9123607 9
-35.397709 -5.0796232 1.879842 9
-35.394985 -4.5653901 1.8753914 9
-35.4095 -4.0550981 1.8722667 9
-35.416801 -3.5453329 1.8691685 9
-35.40892 -3.0355031 1.8656785 9
-35.414455 -2.5281081 1.8632978 9
-35.432243 -2.0222871 1.8619628 9
-35.448128 -1.5166994 1.8609263 9
-35.448486 -1.0108329 1.8594738 9
-35.445503 -0.50531906 1.8582441 9
-35.446316 9.2948307e-05 1.8576118 9
-35.472256 1.01152 1.8588165 9
-35.469311 1.5176183 1.8591818 9
-35.487251 2.0254438 1.8610423 9
-35.526115 2.536103 1.8644028 9
-35.508217 3.0440452 1.8651888 9
-35.510616 3.5547528 1.8674458 9
-35.527588 4.0686684 1.8708807 9
-35.534527 4.583447 1.8741995 9
-35.551796 5.6200533 1.8822696 9
-35.548969 6.1401558 1.8863326 9
-35.564766 6.6662364 1.8918142 9
-35.5709 7.193635 1.8972191 9
-35.590584 7.7272124 1.9037917 9
-35.583088 8.2583494 1.9093584 9
-35.200733 -21.177948 2.1869884 9
-35.201393 -20.500715 2.1675377 9
-35.217117 -19.843111 2.14977 9
-35.229141 -19.193535 2.1325004 9
-35.246227 -17.919373 2.0996332 9
-35.245827 -17.291431 2.0836728 9
-35.241493 -16.670376 2.0681322 9
-35.242996 -16.060411 2.0535657 9
-35.270615 -15.469747 2.0411234 9
-35.278938 -14.288721 2.0152695 9
-35.281525 -13.707716 2.0031025 9
-35.316532 -8.7282228 3.1937876 10
-35.318336 -8.1963949 3.1822748 10
-35.363297 -5.0744576 3.13131 10
-35.382713 -4.5636015 3.1262901 10
-35.382713 -4.0518446 3.1202278 10
-35.39019 -3.5425053 3.115494 10
-35.400761 -3.034662 3.1116984 10
-35.406498 -2.5274212 3.108135 10
-35.413204 -2.0211039 3.1053126 10
-35.421764 -1.5154978 3.1033072 10
-35.44083 -0.50522643 3.1014202 10
-35.438385 9.4545081e-05 3.100404 10
-35.448421 0.50534463 3.1011324 10
-35.466839 1.0113167 3.1032429 10
-35.466343 1.5174166 3.1043522 10
-35.478653 2.0248511 3.1072352 10
-35.476688 2.5324452 3.1095252 10
-35.475979 3.0411253 3.1125846 10
-35.505703 3.5540771 3.1189802 10
-35.508675 4.0662894 3.1236985 10
-35.515255 5.0962892 3.1352158 10
-35.519627 5.6146626 3.1420951 10
-35.545353 6.1391931 3.1515627 10
-35.537807 6.6608129 3.1587856 10
-35.557232 7.1904678 3.1691186 10
-35.56266 7.7207127 3.178931 10
-35.5639 8.2534237 3.1890996 10
-35.209972 -18.536602 3.5100946 10
-35.224068 -17.280186 3.4588687 10
-35.22171 -16.660452 3.4339361 10
-35.222153 -16.050364 3.4103107 10
-35.236904 -15.454423 3.3890653 10
-35.234612 -14.858281 3.3671467 10
-35.258625 -13.69832 3.3288457 10
-35.265934 -13.125793 3.3105981 10
-35.283016 -12.562585 3.2941356 10
-35.275665 -11.996274 3.2762468 10
-35.273323 -11.437259 3.2596674 10
-35.30204 -10.893046 3.2467718 10
-35.299919 -10.343739 3.2318344 10
-35.301231 -9.800025 3.2179999 10
-35.30566 -9.2613859 3.205224 10
-35.578884 8.7931051 3.2012472 10
-35.570038 9.3307819 3.2120073 10
-35.595081 10.430281 3.2397118 10
-35.349873 -5.0723042 4.3906312 11
-35.355049 -4.5598264 4.3820915 11
-35.35984 -4.0490394 4.3744426 11
-35.364113 -3.5397313 4.3676591 11
-35.377003 -3.0324836 4.3628645 11
-35.389172 -2.5260639 4.3588939 11
-35.395794 -2.0200129 4.3551526 11
-35.393887 -1.5142308 4.3512707 11
-35.422043 -0.50493228 4.3501544 11
-35.427593 9.6150761e-05 4.3499064 11
-35.433525 0.50510889 4.3506088 11
-35.432755 1.0102954 4.3513937 11
-35.452217 1.5167365 4.3555694 11
-35.46764 2.5316696 4.3637691 11
-35.477772 3.0411217 4.3695421 11
-35.4911 3.5524292 4.3766341 11
-35.485859 4.0634613 4.3823676 11
-35.485889 4.5766854 4.3896861 11
-35.488213 5.0921311 4.3982301 11
-35.207607 -16.043182 4.7746654 11
-35.226704 -15.449409 4.7459002 11
-35.232662 -14.85693 4.7166977 11
-35.236618 -14.270552 4.6885448 11
-35.233753 -13.688157 4.6607695 11
-35.252804 -12.551351 4.6122036 11
-35.259945 -11.990467 4.5893989 11
-35.280563 -11.439166 4.5695024 11
-35.278477 -10.885348 4.5477958 11
-35.281487 -10.337926 4.5278692 11
-35.293705 -9.7975416 4.5102129 11
-35.300709 -9.2597094 4.492959 11
-35.286823 -8.7205181 4.4741073 11
-35.315922 -8.1954899 4.46174 11
-35.497761 5.610899 4.408627 11
-35.516285 6.1338325 4.4211059 11
-35.509918 6.6552124 4.4314675 11
-35.557648 7.7191825 4.462739 11
-35.553257 8.2504787 4.4763598 11
-35.55653 8.7870684 4.4919758 11
-35.566334 9.3292627 4.5094714 11
-35.577156 9.8760872 4.528173 11
-35.579384 10.425056 4.5468731 11
-35.206242 -16.652567 4.8072138 11
-35.242142 -12.54708 5.9427071 12
-35.245914 -11.985238 5.9130154 12
-35.24881 -11.428424 5.8846722 12
-35.254005 -10.877368 5.8581748 12
-35.275131 -10.335651 5.8357463 12
-35.267632 -9.7899084 5.809978 12
-35.28064 -9.2540617 5.7889681 12
-35.283894 -8.7194338 5.7677088 12
-35.292591 -8.1897316 5.7486663 12
-35.317455 -5.0674233 5.6568189 12
-35.337601 -4.5573673 5.6483979 12
-35.338776 -4.0464411 5.6381445 12
-35.36377 -3.5395317 5.6328793 12
-35.362663 -3.0311096 5.6246395 12
-35.369263 -2.5245214 5.6188021 12
-35.367401 -2.0182941 5.6127949 12
-35.397419 -1.0092254 5.6096249 12
-35.40239 -0.50462568 5.608192 12
-35.415047 9.7758166e-05 5.6091328 12
-35.411789 0.50477529 5.6087193 12
-35.422016 1.0099398 5.6115999 12
-35.435669 1.5159528 5.6161847 12
-35.44944 2.5302401 5.62672 12
-35.459862 3.0394266 5.6343117 12
-35.461128 3.5492408 5.6416354 12
-35.456585 4.0598917 5.6492267 12
-35.468998 4.5742602 5.6607213 12
-35.483837 5.6083884 5.68577 12
-35.485985 6.1282582 5.6993032 12
-35.497787 6.6525645 5.7156415 12
-35.535934 7.1853456 5.7375083 12
-35.52663 7.7120042 5.7530127 12
-35.527061 8.2439184 5.7713909 12
-35.543076 8.7832279 5.7936335 12
-35.535164 9.3205318 5.813324 12
-35.559734 9.8706617 5.8397083 12
-35.556332 10.417666 5.8629055 12
-35.201187 -16.039701 6.1511145 12
-35.203629 -15.43874 6.1114459 12
-35.208515 -14.846216 6.0739365 12
-35.21093 -14.259626 6.0376902 12
-35.225182 -13.684319 6.0051079 12
-35.235294 -10.87116 7.1825328 13
-35.25042 -10.32799 7.1540051 13
-35.247314 -9.7838631 7.1234879 13
-35.25906 -9.2480154 7.0976577 13
-35.275764 -8.7170591 7.0744677 13
-35.267086 -8.183466 7.0478115 13
-35.300972 -5.0648274 6.9379349 13
-35.316963 -4.5544958 6.926939 13
-35.31731 -4.0437946 6.9143434 13
-35.333469 -3.5363321 6.9063015 13
-35.35363 -3.0301912 6.9004822 13
-35.342411 -2.5224829 6.8899755 13
-35.370117 -1.513064 6.8830352 13
-35.369106 -1.0083668 6.8788056 13
-35.380489 -0.50428671 6.8784041 13
-35.387348 9.9319484e-05 6.8785448 13
-35.394245 0.5045014 6.8801093 13
-35.400021 1.0092628 6.8828754 13
-35.413933 1.5149463 6.8886471 13
-35.412636 2.0207739 6.8928852 13
-35.42498 2.5283618 6.9012103 13
-35.425709 3.0363388 6.9087143 13
-35.44593 4.0584526 6.9317398 13
-35.45076 4.5716586 6.9444242 13
-35.475388 5.0897312 6.9624715 13
-35.466148 5.6052799 6.9753766 13
-35.467693 6.1247535 6.9919081 13
-35.501347 7.177938 7.0356379 13
-35.500122 7.7058034 7.0562873 13
-35.508602 8.239152 7.080461 13
-35.535286 8.7807808 7.1099072 13
-35.527973 9.3180857 7.1342077 13
-35.531395 9.8621941 7.1623354 13
-35.539673 10.412146 7.1931543 13
-35.2132 -12.536293 7.2834673 13
-35.222679 -11.976866 7.2484503 13
-35.227352 -11.421014 7.2142649 13
-35.23967 -8.7077656 8.3918619 14
-35.256481 -8.1806498 8.3664284 14
-35.29554 -5.0638137 8.2379847 14
-35.294121 -4.5513368 8.2209902 14
-35.320869 -4.0440092 8.2122946 14
-35.301304 -3.5329418 8.1945629 14
-35.327919 -3.0278406 8.18927 14
-35.321194 -2.5208447 8.1779451 14
-35.329098 -2.015909 8.1717072 14
-35.339954 -1.5116971 8.167841 14
-35.34713 -1.0076882 8.1648073 14
-35.361351 0.00010092783 8.1637487 14
-35.383018 0.50431716 8.1690998 14
-35.372204 1.0084187 8.1686316 14
-35.410473 1.5147204 8.1811895 14
-35.401165 2.0200143 8.1844406 14
-35.409725 3.0348065 8.2023268 14
-35.418644 3.544606 8.2149076 14
-35.424046 4.0557232 8.2284079 14
-35.421749 4.5676646 8.2418566 14
-35.439533 5.0843029 8.2617388 14
-35.452866 5.6028633 8.2823639 14
-35.458775 6.1228642 8.3030539 14
-35.464703 6.6456013 8.3255644 14
-35.494221 7.7040668 8.3803101 14
-35.201965 -11.969352 8.6010647 14
-35.207146 -11.414004 8.5607824 14
-35.222698 -10.866827 8.5251255 14
-35.216061 -10.317496 8.4861746 14
-35.230122 -9.7786827 8.4542456 14
-35.232803 -9.2407389 8.4215727 14
-35.491104 8.234601 8.4062958 14
-35.503716 8.7724514 8.4379301 14
-35.494038 9.3086195 8.466218 14
-35.515251 9.8571062 8.5038662 14
-35.525455 10.407334 8.540925 14
-35.270847 -5.0600324 9.5535746 15
-35.279652 -4.5492549 9.5367336 15
-35.262516 -4.0371342 9.5149069 15
-35.302711 -3.5329115 9.5105438 15
-35.30772 -3.0259602 9.4986811 15
-35.300823 -2.5192645 9.4855824 15
-35.320274 -1.5107781 9.4742231 15
-35.32325 -1.0069547 9.4696569 15
-35.329918 -0.50351113 9.4680271 15
-35.339291 0.00010256287 9.4690695 15
-35.351128 0.50383806 9.4727173 15
-35.37392 1.5130777 9.4856205 15
-35.372337 2.0182621 9.4915228 15
-35.384903 2.5252314 9.5031843 15
-35.382446 3.0323026 9.5127897 15
-35.392387 3.5417836 9.5277109 15
-35.394855 4.0521564 9.5426254 15
-35.403427 4.5650439 9.5611973 15
-35.200081 -10.859404 9.8858299 15
-35.203949 -10.313519 9.8437319 15
-35.203526 -9.7708893 9.8027887 15
-35.211567 -9.2347736 9.7665176 15
-35.226059 -8.7040272 9.7342892 15
-35.235546 -8.1754341 9.7028942 15
-35.418381 5.5970907 9.6038837 15
-35.43734 6.1188073 9.6314592 15
-35.430099 6.6387281 9.6540136 15
-35.442234 7.1651416 9.6839743 15
-35.4566 7.6954393 9.7167206 15
-35.466084 8.2282963 9.750329 15
-35.467865 8.7630558 9.7840471 15
-35.48159 9.3047781 9.8233328 15
-35.495991 9.8511457 9.8651295 15
-35.498631 10.398818 9.9060106 15
-35.190041 -24.747477 0.79243046 8
-35.188976 -24.004444 0.7834416 8
-35.187859 -23.275694 0.7747885 8
-35.184792 -48.256237 1.1369879 8
-35.057556 -38.082798 0.9747777 8
-35.058022 -37.010284 0.95865607 8
-35.078339 -35.989944 0.94373113 8
-35.078312 -34.978157 0.92888182 8
-35.076874 -33.993389 0.91458702 8
-35.093288 -33.052322 0.90131855 8
-35.105457 -32.131855 0.88846886 8
-35.118835 -31.235836 0.87615317 8
-35.124123 -30.354889 0.86411804 8
-35.140839 -29.504848 0.85282421 8
-35.138851 -28.659182 0.84152138 8
-35.154705 -27.847162 0.83106452 8
-35.164459 -27.048134 0.82086349 8
-35.165138 -26.259403 0.81083894 8
-35.175209 -25.49408 0.80140364 8
-35.119877 -27.818926 2.396348 9
-35.115307 -27.009686 2.3682854 9
-35.137791 -26.238333 2.3431127 9
-35.141567 -25.469048 2.3177071 9
-35.160789 -24.726255 2.2942965 9
-35.171028 -23.991556 2.2712338 9
-35.175735 -23.267038 2.2487226 9
-35.174847 -22.552357 2.2267313 9
-35.191933 -21.861818 2.206717 9
-35.038155 -38.061249 2.7826705 9
-35.04166 -36.992512 2.7394118 9
-35.04871 -35.959015 2.6982503 9
-35.053085 -34.952442 2.6586092 9
-35.060665 -33.977104 2.6208408 9
-35.067822 -33.027748 2.5845914 9
-35.072441 -32.101017 2.5496292 9
-35.093475 -31.212664 2.5172541 9
-35.088261 -30.323271 2.4843297 9
-35.102951 -29.47241 2.454098 9
-35.111988 -28.636631 2.4246829 9
-35.15699 -48.21804 3.2221661 9
-35.173134 -20.483633 3.5938306 10
-35.195255 -19.830185 3.5657413 10
-35.18961 -19.171392 3.5360305 10
-35.097767 -27.800764 3.9657919 10
-35.107727 -27.003202 3.9217756 10
-35.105053 -26.213242 3.8781075 10
-35.111877 -25.446884 3.837177 10
-35.145306 -24.71472 3.8007352 10
-35.129917 -23.962858 3.760555 10
-35.144329 -23.245625 3.7250729 10
-35.157925 -22.540863 3.6909156 10
-35.15443 -21.837887 3.656347 10
-35.164719 -21.155649 3.6245475 10
-35.023994 -34.922874 4.3918347 10
-35.041569 -33.958019 4.3315425 10
-35.041935 -33.002773 4.271657 10
-35.053207 -32.082821 4.2155242 10
-35.054539 -31.177418 4.1604972 10
-35.06451 -30.30212 4.1086931 10
-35.072083 -29.445854 4.0586944 10
-35.090637 -28.618578 4.0119514 10
-34.995438 -38.014351 4.5922785 10
-35.003689 -36.9519 4.5223851 10
-35.01696 -35.925892 4.4561014 10
-35.139545 -22.528444 5.1625218 11
-35.146954 -21.832611 5.1162057 11
-35.145168 -21.143257 5.0704117 11
-35.157154 -20.473709 5.0283928 11
-35.163719 -19.8118 4.9873171 11
-35.169903 -19.160046 4.9478545 11
-35.172485 -18.516268 4.909502 11
-35.190231 -17.263006 4.8391829 11
-35.157227 -48.218285 5.3161588 10
-35.074207 -27.78145 5.5427423 11
-35.086639 -26.986334 5.4820967 11
-35.093681 -26.204092 5.4230328 11
-35.097141 -25.435549 5.3657594 11
-35.104599 -24.685438 5.3113413 11
-35.125423 -23.959145 5.2610798 11
-35.128403 -23.234438 5.2101994 11
-35.025806 -32.986984 5.9683585 11
-35.041134 -32.071156 5.8911233 11
-35.051556 -31.174135 5.8162394 11
-35.055347 -30.293568 5.743309 11
-35.06012 -29.435165 5.6734633 11
-35.068958 -28.60025 5.6070633 11
-34.970592 -36.916458 6.313447 11
-35.004345 -35.912418 6.2250838 11
-34.999405 -34.8978 6.1337299 11
-35.000465 -33.917614 6.0471916 11
-35.15847 -19.153208 6.3718185 12
-35.17638 -17.882095 6.2779298 12
-35.185677 -17.260189 6.2339787 12
-35.185463 -16.642172 6.1902323 12
-34.967651 -37.983692 6.4114552 11
-35.110973 -23.948631 6.7723007 12
-35.105808 -23.218851 6.7055812 12
-35.121235 -22.516062 6.6453533 12
-35.128677 -21.82062 6.5860634 12
-35.124176 -21.129995 6.526926 12
-35.155411 -20.472065 6.4766979 12
-35.149109 -19.80295 6.4217515 12
-35.04755 -27.75968 7.1306324 12
-35.06308 -26.967558 7.0535846 12
-35.074257 -26.188934 6.9787555 12
-35.09919 -25.436377 6.9096184 12
-35.084507 -24.670654 6.835566 12
-35.147423 -48.204777 7.4211292 11
-34.997688 -32.030769 7.5733333 12
-35.033352 -31.157322 7.4828238 12
-35.02644 -30.267958 7.3870983 12
-35.04417 -29.421133 7.3003178 12
-35.03566 -28.572441 7.211659 12
-35.159969 -16.02035 7.5349655 13
-35.180981 -15.428252 7.4905472 13
-35.1936 -14.839388 7.4464259 13
-35.19614 -14.25311 7.4022274 13
-35.199192 -13.67371 7.3601494 13
-34.972549 -34.870457 7.8878136 12
-34.986305 -33.903301 7.7797222 12
-35.000034 -32.962105 7.6761265 12
-35.109631 -21.120604 7.999454 13
-35.102779 -20.440775 7.9295359 13
-35.124966 -19.788721 7.8688855 13
-35.135494 -19.140072 7.8081994 13
-35.132378 -18.493944 7.7470255 13
-35.15099 -17.868591 7.6930852 13
-35.1492 -17.241709 7.6370473 13
-34.946888 -37.960651 8.2452345 12
-34.960068 -36.904831 8.1219521 12
-34.961174 -35.86758 8.0011826 12
-35.066231 -24.657139 8.3755331 13
-35.079208 -23.926306 8.2950888 13
-35.086018 -23.205099 8.2164221 13
-35.095699 -22.499037 8.1415462 13
-35.09111 -21.796631 8.0663929 13
-35.031147 -27.746038 8.736454 13
-35.026672 -26.938887 8.6373882 13
-35.044338 -26.165928 8.5476131 13
-35.052662 -25.401991 8.4591894 13
-35.17551 -14.244226 8.7828789 14
-35.173504 -13.663215 8.7318668 14
-35.186607 -13.094288 8.686923 14
-34.992149 -31.120047 9.1603317 13
-34.993938 -30.239227 9.0456705 13
-35.006386 -29.388767 8.9383392 13
-35.007607 -28.54891 8.83251 13
-35.115105 -18.48424 9.1915503 14
-35.13068 -17.857664 9.1269569 14
-35.139931 -16.619473 9.0004091 14
-35.147327 -16.014027 8.9418659 14
-35.158451 -15.417816 8.8868361 14
-35.16621 -14.827293 8.8334494 14
-35.139107 -48.193306 9.543704 12
-34.951454 -33.868938 9.5246353 13
-34.967892 -32.931232 9.3988199 13
-34.977955 -32.012089 9.2765293 13
-35.074963 -21.785944 9.5697594 14
-35.082001 -21.103336 9.4874487 14
-35.092346 -20.434065 9.4093342 14
-35.097507 -19.772617 9.3330355 14
-35.097244 -19.118616 9.2584066 14
-34.929443 -36.871994 9.9439306 13
-34.93261 -35.837742 9.796936 13
-34.945412 -34.842831 9.6588078 13
-35.040821 -24.638601 9.9330416 14
-35.050407 -23.905993 9.8368979 14
-35.04977 -23.18046 9.7417498 14
-35.063618 -22.47781 9.6543303 14
-35.181137 -11.961788 9.9741268 15
-34.906094 -37.915844 10.091627 13
-35.001835 -27.722139 10.359026 14
-35.003914 -26.920706 10.2437 14
-35.010956 -26.140327 10.134371 14
-35.033688 -25.387562 10.033878 14
-35.146976 -14.232127 10.182155 15
-35.158035 -13.656679 10.126925 15
-35.157772 -13.083046 10.071116 15
-35.160629 -12.516592 10.018835 15
-34.127831 -48.236176 1.126348 8
-34.121082 -48.226658 3.1913297 9
-34.106304 -48.20578 5.262063 10
-34.093216 -48.187283 7.3443003 11
-34.079166 -48.167454 9.4428616 12
-27.452293 -5.5516596 0.49548927 8
-27.455824 -5.146194 0.49361864 8
-27.472321 -4.7450356 0.49210083 8
-27.474289 -4.343082 0.49044263 8
-27.422876 -5.545475 1.4728626 9
-27.451624 -5.145185 1.4697576 9
-27.442633 -4.7397022 1.4649616 9
-27.451967 -4.3393621 1.4614753 9
-27.422922 -5.5452485 2.4543707 10
-27.425945 -5.1401501 2.4472725 10
-27.450905 -4.7409244 2.442672 10
-27.447073 -4.3383965 2.4360445 10
-27.402241 -5.5408301 3.4393103 11
-27.420143 -5.1388416 3.4314504 11
-27.413179 -4.7342005 3.4212339 11
-27.435482 -4.3363724 3.4154167 11
-27.392057 -5.5385313 4.4329658 12
-27.407116 -5.1361766 4.4225368 12
-27.411886 -4.7337694 4.4114127 12
-27.413046 -4.332633 4.400672 12
-27.371073 -5.5340476 5.4348125 13
-27.386675 -5.1321173 5.4222593 13
-27.400341 -4.7315636 5.410501 13
-27.393047 -4.3292766 5.3957796 13
-27.366154 -5.5328083 6.452652 14
-27.36623 -5.1280575 6.4341998 14
-27.366793 -4.7255564 6.4172754 14
-27.377724 -4.3266568 6.4041734 14
-27.351618 -5.5296202 7.4840665 15
-27.357666 -5.1262197 7.4643803 15
-27.353897 -4.7231121 7.4436498 15
-27.352953 -4.3225403 7.4253111 15
-24.152636 34.141571 0.7544356 8
-24.173893 35.226295 0.77200121 8
-24.193716 36.355522 0.7904498 8
-24.216482 37.539345 0.8099916 8
-24.244143 38.785149 0.83077884 8
-24.124947 34.098553 2.2137432 9
-24.145889 35.181396 2.2627554 9
-24.169312 36.314545 2.3145776 9
-24.193701 37.499485 2.3692679 9
-24.215784 38.734989 2.4267178 9
-24.099396 34.058533 3.6752074 10
-24.127846 35.151012 3.7568872 10
-24.145319 36.27417 3.8410904 10
-24.174561 37.465263 3.9317153 10
-24.187737 38.685318 4.0246072 10
-24.081432 34.02924 5.1439805 11
-24.097237 35.102295 5.2550249 11
-24.116104 36.225937 5.3725762 11
-24.13888 37.405388 5.4973011 11
-24.169146 38.650749 5.6305728 11
-24.055758 33.98901 6.6209326 12
-24.07873 35.071182 6.765492 12
-24.105536 36.205692 6.9187126 12
-24.122564 37.375477 7.0772309 12
-24.144327 38.606194 7.2458282 12
-21.257364 -48.093094 1.0176575 8
-21.24884 -48.075615 2.8548563 9
-21.243952 -48.06638 4.6984873 10
-21.236223 -48.050701 6.5520625 11
-20.439524 -48.085106 1.012123 8
-20.428076 -48.060169 2.8372669 9
-20.423851 -48.052261 4.6690869 10
-20.41637 -48.036682 6.5107226 11
-19.628113 -48.068214 1.0066391 8
-19.625488 -48.064022 2.8215597 9
-19.617693 -48.047169 4.6418214 10
-18.833109 -48.067989 1.0017453 8
-18.820866 -48.039192 2.8049078 9
-18.821562 -48.043457 4.6159201 10
-18.044464 -48.06118 0.99694246 8
-18.037373 -48.04501 2.7907565 9
-18.031103 -48.03104 4.5903769 10
-17.748074 18.737934 0.45890468 8
-17.748798 18.736916 1.3611729 9
-17.364983 18.865051 0.45657164 8
-17.260386 -48.043175 0.99213004 8
-17.373753 18.872755 1.3535782 9
-17.261959 -48.05056 2.7772753 9
-17.258749 -48.044636 4.5684781 10
-17.08806 19.103783 0.45707747 8
-17.088093 19.101942 1.3530813 9
-16.491714 -48.0453 0.98795122 8
-16.489462 -48.042046 2.763653 9
-16.71773 -25.113316 2.6891541 10
-16.695339 -25.079979 5.9078636 13
-16.695431 -25.080219 7.0081277 14
-16.205139 -25.111805 0.57105297 8
-16.207333 -25.115358 1.6161094 9
-16.200096 -25.104437 3.7189007 11
-16.18676 -25.08392 4.779223 12
-16.183418 -25.078894 5.8533683 13
-16.171501 -25.060577 6.9382248 14
-15.694167 -25.098063 0.56624293 8
-15.727194 -48.037441 0.98377693 8
-15.698077 -25.104515 1.601504 9
-15.723977 -48.031246 2.750562 9
-15.701385 -25.110014 2.6411145 10
-15.685473 -25.084763 3.683157 11
-15.681069 -25.077921 4.7356853 12
-15.673743 -25.06641 5.7984014 13
-15.668602 -25.058395 6.8757768 14
-15.198068 -25.093336 0.56182176 8
-14.970222 -48.0303 0.97982365 8
-15.195215 -25.088884 1.5871636 9
-14.968801 -48.029743 2.7386456 9
-15.190992 -25.082165 2.6157844 10
-15.190183 -25.081089 3.6511035 11
-15.179337 -25.063438 4.6922698 12
-15.175187 -25.056847 5.7462311 13
-14.719302 -25.103474 0.55790865 8
-14.717016 -25.099895 1.5750488 9
-14.707681 -25.08428 2.5945034 10
-14.702613 -25.075954 3.6201115 11
-14.699457 -25.070898 4.6546049 12
-14.698813 -25.070126 5.7012935 13
-14.233953 -25.088526 0.55360579 8
-14.216852 -48.012089 0.97584116 8
-14.236946 -25.094181 1.5623981 9
-14.213565 -48.005394 2.7260544 9
-14.228138 -25.079033 2.5733287 10
-14.221626 -25.067936 3.5899358 11
-14.212983 -25.05308 4.6138339 12
-14.217446 -25.061342 5.6532617 13
-13.760069 -25.079512 0.5496006 8
-13.756321 -25.07312 1.5493037 9
-13.754959 -25.071087 2.5527258 10
-13.743221 -25.050133 3.5595663 11
-13.749887 -25.062742 4.5796571 12
-13.745081 -25.054441 5.6075506 13
-13.254282 -27.808424 0.59438187 8
-13.260272 -26.829071 0.57682222 8
-13.264757 -25.901566 0.56028467 8
-13.298435 -25.079281 0.54594409 8
-13.372483 22.815733 0.48283744 8
-13.246012 -25.865551 1.5754764 9
-13.292309 -25.068241 1.5377011 9
-13.369682 22.808006 1.4070284 9
-13.230749 -27.759865 1.6684606 9
-13.240032 -26.78882 1.6206713 9
-13.211958 -27.721254 2.7438302 10
-13.224682 -26.758461 2.6663196 10
-13.228761 -25.83246 2.5919759 10
-13.287427 -25.059542 2.532577 10
-13.283878 -25.05337 3.5333357 11
-13.206959 -27.711605 3.8269274 11
-13.211337 -26.732166 3.716697 11
-13.212047 -25.800419 3.6123717 11
-13.204418 -25.786133 4.6423516 12
-13.277214 -25.041315 4.5412803 12
-13.012544 15.863317 0.36786601 8
-12.992566 22.910217 0.48178059 8
-13.008017 15.856152 1.0847738 9
-12.998672 22.917948 1.4031521 9
-13.195136 -26.700096 4.7731609 12
-13.185208 -27.6668 4.9124928 12
-12.738625 15.988989 0.36712429 8
-12.527431 16.192358 0.36825433 8
-12.704609 23.166143 0.48421964 8
-12.743071 15.992881 1.0821847 9
-12.52569 16.18837 1.0838213 9
-12.695753 23.146854 1.406862 9
-12.382441 16.485382 0.37147179 8
-12.066563 30.808624 0.61691052 8
-12.370055 16.467089 1.0911727 9
-12.075283 30.825476 1.7747538 9
-12.079053 30.829672 2.9370511 10
-11.569498 30.826902 0.61519641 8
-11.572573 30.829496 1.7665981 9
-11.577235 30.8363 2.922961 10
-11.582266 30.844048 4.087193 11
-11.589471 30.857527 5.2631607 12
-11.073589 30.835114 0.61343777 8
-11.079201 30.844938 1.7595485 9
-11.080264 30.842083 2.9095445 10
-11.082847 30.843414 4.0670738 11
-11.092487 30.864334 5.2381473 12
-10.49784 2.789027e-05 -0.18325411 7
-10.597887 0.75638425 -0.18603601 7
-10.664834 1.5301428 -0.18906084 7
-10.725829 2.3283348 -0.19284755 7
-10.773388 3.1566281 -0.19732496 7
-10.694818 9.5122604 0.25303146 8
-10.684514 9.7794933 0.25637129 8
-10.706705 10.230286 0.26260531 8
-10.715548 10.685204 0.26886377 8
-10.687349 9.5047922 0.7529102 9
-10.693233 9.7866116 0.76338899 9
-10.693158 10.216266 0.77935678 9
-10.714655 10.683326 0.79785901 9
-10.580334 30.837036 0.61170763 8
-10.682125 9.4993172 1.2541518 10
-10.691009 9.7837124 1.2717575 10
-10.686649 10.209149 1.2975112 10
-10.702383 10.670097 1.3272556 10
-10.67387 9.4911423 1.7574441 11
-10.653818 9.748805 1.7771677 11
-10.684506 10.20611 1.8189095 11
-10.687814 10.654579 1.8582429 11
-10.583417 30.840006 1.7517822 9
-10.661034 9.4788866 2.263289 12
-10.655477 9.7494469 2.2917075 12
-10.675525 10.196574 2.3430533 12
-10.688916 10.654677 2.3958287 12
-10.649175 9.4674959 2.7737737 13
-10.648806 9.7424583 2.8098958 13
-10.66221 10.182997 2.8709636 13
-10.676919 10.641706 2.9358621 13
-10.588284 30.848146 2.8968887 10
-10.651024 9.4682808 3.2943218 14
-10.648696 9.7414627 3.3365481 14
-10.650903 10.17122 3.4053822 14
-10.659486 10.623304 3.4802692 14
-10.645792 9.4627571 3.8209286 15
-10.644983 9.737154 3.8704026 15
-10.644509 10.164207 3.9491832 15
-10.657022 10.619809 4.0374155 15
-10.594514 30.860214 4.050281 11
-10.593206 30.850283 5.210938 12
-10.173717 -1.4595032 -0.17790511 7
-10.356144 -0.73908627 -0.18054417 7
-10.150425 8.7727308 -0.23154615 7
-10.121696 30.93021 0.61192721 8
-10.105 30.872952 1.7465949 9
-10.107273 30.873606 2.886765 10
-10.102531 30.852812 4.0313196 11
-9.7977676 -2.8700678 -0.17474987 7
-9.9957132 -2.1694489 -0.17611413 7
-9.8961811 9.8689632 -0.23965561 7
-9.3032379 -4.2377276 -0.17264794 7
-9.5662718 -3.5592532 -0.17357878 7
-9.5867329 11.03077 -0.24875396 7
-9.0176535 -4.9107194 -0.17214358 7
-9.186842 12.232121 -0.25822639 7
-8.7054729 -5.5787067 -0.17202723 7
-8.7253618 13.52741 -0.26923785 7
-8.3730774 -6.2489815 -0.17247571 7
-8.1705103 14.900909 -0.2814064 7
-7.9971395 -6.9069943 -0.1730711 7
-7.5846844 -7.5579424 -0.17399994 7
-7.5091472 16.36261 -0.29493013 7
-7.1467624 -8.2160044 -0.17559551 7
-6.6686783 -8.8702936 -0.17762235 7
-6.7293239 17.935516 -0.31024367 7
-6.155303 -9.5319281 -0.18033032 7
-6.1707349 1.9504389 0.22561309 8.5
-6.1365571 1.9555762 0.63762707 10.333333
-6.2329617 1.9536624 0.95566118 11.666667
-6.2030187 1.9601005 1.3829567 13.5
-6.1917677 1.956328 1.7397131 15
-5.7652035 1.9598671 -0.10678125 7
-5.8031101 19.615576 -0.32731605 7
-5.7626233 1.9588095 0.21242075 8.5
-5.7759838 1.9631115 0.64122784 10.5
-5.7849135 1.9659023 1.077577 12.5
-5.774034 1.9620141 1.4077431 14
-5.7852554 1.9657013 1.6370763 15
-5.5943737 -10.189163 -0.18353073 7
-5.3946567 1.9626571 -0.10059989 7
-5.4020896 1.9651306 0.20048919 8.5
-5.4004345 1.9642916 0.60396582 10.5
-5.4123845 1.9683635 1.0157293 12.5
-5.4137588 1.9686584 1.43677 14.5
-4.9892268 -10.854795 -0.18750757 7
-4.8612161 -1.0544698 -0.25965828 6
-4.9252176 -0.7061826 -0.26013112 6
-4.9837551 -0.35549405 -0.26156953 6
-5.0484557 0.18013996 -0.26503286 6
-5.0594158 0.72559464 -0.26825005 6
-5.0337968 1.0922884 -0.27041087 6
-4.9960251 1.4633045 -0.27328855 6
-4.9548664 1.9241234 -0.15446344 6.6666665
-4.9685645 1.9694904 0.18657829 8.5
-4.9753633 1.9719145 0.56263989 10.5
-4.9826565 1.9744815 0.94547796 12.5
-4.9808969 1.9735967 1.3365946 14.5
-4.5090818 -2.0525405 -0.25715178 6
-4.6313372 -1.7220401 -0.2569927 6
-4.7570724 -1.3926526 -0.25829396 6
-4.6852798 1.9748757 -0.088914998 7
-4.5634322 2.1585121 -0.14661288 6.6666665
-4.5739317 2.563158 -0.15204307 6.6666665
-4.5837884 2.9696977 -0.15822172 6.6666665
-4.5336027 3.3518388 -0.16187753 6.6666665
-4.6007524 3.6977055 -0.10162469 7
-4.7080398 21.422066 -0.34655979 7
-4.6816463 1.9731499 0.17746904 8.5
-4.5655456 2.1990957 0.17711899 8.5
-4.5702457 2.596873 0.18406692 8.5
-4.5709953 2.9650018 0.19097106 8.5
-4.588057 3.3755324 0.20017388 8.5
-4.5860386 3.7400248 0.24336228 8.666667
-4.6972332 1.9794006 0.62597072 11
-4.5577722 2.1712277 0.58453608 10.8
-4.5654631 2.593745 0.5528056 10.5
-4.5692081 2.975148 0.574283 10.5
-4.5799961 3.3689146 0.59931111 10.5
-4.5840049 3.7650149 0.62565136 10.5
-4.6912475 1.9766129 0.99054188 13
-4.5467391 2.1978502 1.019369 13.2
-4.5587187 2.5679595 0.98012483 12.8
-4.5649533 2.9718778 0.96209729 12.5
-4.5706 3.3616943 1.0026772 12.5
-4.5755277 3.7575002 1.046693 12.5
-4.6845427 1.9735161 1.3624197 15
-4.5409975 2.1862636 1.3512434 15
-4.5528846 2.5896573 1.3267399 14.6
-4.5541115 2.9644113 1.3569261 14.5
-4.5621214 3.3547134 1.4144348 14.5
-4.5707793 3.7257698 1.4364991 14.333333
-4.5706296 3.9466548 1.6210841 15
-4.3321609 -11.525062 -0.19225121 7
-4.0138001 -2.9930973 -0.25817823 6
-4.1959014 -2.6867757 -0.25749165 6
-4.3554182 -2.3700991 -0.25682491 6
-4.2639551 3.6846325 -0.29377902 6
-4.0499592 4.0383925 -0.29746896 6
-3.6203589 -12.209556 -0.19799124 7
-3.8142493 -3.291378 -0.25919905 6
-3.8208768 4.3962312 -0.30215791 6
-3.3551064 -3.8530319 -0.26171276 6
-3.5897751 -3.5736766 -0.26003021 6
-3.238327 -0.58216608 -0.28755957 5
-3.2922401 -0.23471886 -0.28860366 5
-3.3052239 0.11774337 -0.28960192 5
-3.3006186 0.59450042 -0.2938228 5
-3.2393048 0.9484157 -0.29551488 5
-3.5598896 4.7401147 -0.30663478 6
-3.2755001 5.0789003 -0.31162077 6
-2.8396547 -12.882209 -0.20440486 7
-2.9663818 -4.2492104 -0.26483276 6
-2.940294 -1.4658059 -0.2859982 5
-3.1131797 -1.0323169 -0.28612766 5
-3.1787624 1.1822454 -0.29685462 5
-3.0981853 1.410889 -0.29783979 5
-2.9769297 1.7617592 -0.30250922 5
-2.8185563 2.1039264 -0.30694094 5
-2.963985 5.4070206 -0.31685761 6
-2.5393212 -4.6182818 -0.2684491 6
-2.5117114 -2.1654882 -0.28735039 5
-2.7096014 -1.873123 -0.28609198 5
-2.4035795 -0.52078366 -0.30157429 4
-2.442307 -0.26181743 -0.30161378 4
-2.4539585 0.21930185 -0.30312541 4
-2.4176111 0.52417278 -0.30388692 4
-2.6845109 2.3194039 -0.30921897 5
-2.5454319 2.537895 -0.31284878 5
-2.6230159 5.7182021 -0.32210129 6
-2.7548428 18.8657 -0.2969487 7
-2.6315849 15.011674 0.29406178 8
-2.7390373 12.46169 0.6912033 9
-2.4508655 -5.9890752 0.80614221 11
-2.4354985 -4.0122824 1.0912819 14
-2.5843081 9.212965 1.1914383 11
-2.491142 10.608571 0.97286111 10
-2.4819891 4.2312899 1.3217597 15
-2.5132589 5.0843139 1.3182372 14
-2.5394163 6.2186561 1.3165166 13
-2.4911764 7.7988586 1.3108151 12
-2.2284548 -4.8403268 -0.27101082 6
-2.1078949 -2.6001949 -0.28944317 5
-2.351501 -2.3387015 -0.28704914 5
-2.0731862 -1.3255063 -0.30076408 4
-2.2166264 -1.0077066 -0.29852775 4
-2.3528321 -0.6879763 -0.30042055 4
-2.3885124 0.6990509 -0.30569777 4
-2.3284807 0.96183652 -0.30954152 4
-2.1477382 1.3768249 -0.31338102 4
-2.3920455 2.7521358 -0.31685978 5
-2.112823 3.0343795 -0.32061246 5
-2.2568119 6.0192995 -0.32786793 6
-2.1606007 -10.139912 0.20106083 8
-2.1911266 15.004439 0.29389274 8
-2.1458623 -8.3064775 0.4659389 9
-2.2146525 -7.0003672 0.65608186 10
-2.1618106 -6.0028944 0.79510421 11
-2.2566204 -5.9966083 0.798361 11
-2.1842167 12.457098 0.68684012 9
-2.3483193 -5.9802361 0.80046064 11
-2.141974 -5.2320609 0.90570557 12
-2.3477156 -5.1985011 0.91351235 12
-2.2108798 -4.5844731 0.99847287 13
-2.197392 -4.0620923 1.0744892 14
-2.1046691 -3.6390421 1.1337337 15
-2.2994175 -3.5823016 1.1475918 15
-2.2404017 9.2428589 1.1853006 11
-2.2554941 10.621491 0.97014016 10
-2.2280948 4.3495083 1.3177154 15
-2.0701542 4.423696 1.3173707 15
-2.329263 5.1686616 1.3182378 14
-2.1364298 5.2313671 1.3146577 14
-2.2168944 6.312427 1.3124959 13
-2.1475785 7.8708167 1.3073453 12
-1.900857 -5.0471025 -0.27394587 6
-1.7371317 -2.9058781 -0.29223174 5
-1.7481678 -1.737326 -0.30116612 4
-1.9621669 -1.4607608 -0.2987951 4
-1.6873165 -0.95537871 -0.30682614 3
-1.84655 -0.57553679 -0.30644688 3
-1.9325905 -0.27664891 -0.30904189 3
-1.9501876 0.27932543 -0.31212831 3
-1.8963931 0.59200054 -0.31528154 3
-1.7611475 0.95921981 -0.31801251 3
-1.6266197 1.2136964 -0.32097384 3
-1.8462515 1.8421764 -0.3195239 4
-1.8127344 3.3077643 -0.32584941 5
-1.868 6.3211226 -0.33482906 6
-1.858459 -10.131096 0.19987069 8
-1.8618689 14.984672 0.2936548 8
-1.8631365 -8.3021441 0.46227846 9
-1.809387 -7.0001273 0.64637613 10
-1.8376635 -6.0298862 0.78594083 11
-1.728001 12.452313 0.68409514 9
-1.8364875 -5.272439 0.89487207 12
-1.8153371 -4.6675 0.98297268 13
-1.7764932 -4.1650553 1.0540664 14
-1.7451094 -3.7400594 1.1140503 15
-1.8644165 9.2645102 1.1790128 11
-1.8235899 10.622279 0.96429688 10
-1.8061482 4.513937 1.3126764 15
-1.8075117 5.3284302 1.3103553 14
-1.9389495 6.3829713 1.309474 13
-1.7515676 6.4198499 1.3068646 13
-1.8297502 7.9172478 1.3031977 12
-1.381294 -5.3424859 -0.28009042 6
-1.2159632 -3.2222741 -0.2966449 5
-1.4361583 -3.11427 -0.29552656 5
-1.2879962 -2.15133 -0.30553851 4
-1.5030077 -1.9923483 -0.30410296 4
-1.3909621 -1.3811774 -0.30971229 3
-1.3775178 -1.047556 -0.31238461 2.3333333
-1.2989302 -0.64629197 -0.31517166 1.3333334
-1.4641441 -0.31678116 -0.31628618 1.5
-1.4777329 0.32007569 -0.31946838 1.5
-1.3227683 0.65923297 -0.32141188 1.3333334
-1.3489268 0.9699952 -0.32322592 2
-1.4504863 1.447076 -0.32410246 3
-1.2515343 1.6666615 -0.32852864 3
-1.4482608 2.2476022 -0.32630426 4
-1.5897056 3.4671464 -0.32875931 5
-1.3590153 3.6272891 -0.33307782 5
-1.4403861 6.5654993 -0.34002027 6
-1.3820659 18.724312 -0.28835234 7
-1.446003 -10.098143 0.19806729 8
-1.4261266 14.952992 0.29343355 8
-1.4286038 -8.2809858 0.4567273 9
-1.46849 -7.0070591 0.64018941 10
-1.4514272 -6.0554795 0.77671623 11
-1.3651652 12.435213 0.68184471 9
-1.4358699 -5.3146744 0.88274485 12
-1.4386722 -4.7164335 0.96832973 13
-1.4226656 -4.2263803 1.0385662 14
-1.4080492 -3.8179808 1.0987602 15
-1.4548758 9.265274 1.1713823 11
-1.474471 10.624942 0.96077931 10
-1.4065741 4.6299157 1.3079122 15
-1.4162844 5.4186611 1.305665 14
-1.4458923 6.4667177 1.3025975 13
-1.453732 7.9549561 1.2981919 12
-0.99684608 -3.3459356 -0.30059814 5
-0.97747833 -2.3318295 -0.30794805 4
-0.95944548 -1.7379211 -0.31341341 3
-1.0687436 -1.3824111 -0.31534731 2.3333333
-0.9897024 -0.98053271 -0.31896806 1
-1.0389779 -0.67502755 -0.31967682 0.25
-1.1737905 0.25407282 -0.32190397 0
-1.0615747 0.67921966 -0.32507667 0.25
-1.013002 1.0098571 -0.32752228 1
-0.97044021 1.3949516 -0.33000976 2
-1.0096604 1.8449701 -0.33129847 3
-1.0508906 2.5297887 -0.33261409 4
-0.97954118 3.819078 -0.33795428 5
-0.98922658 6.7937703 -0.34580567 6
-1.1116612 -10.053534 0.19642749 8
-0.99491459 14.928972 0.29359642 8
-1.034143 -8.2629843 0.45272273 9
-1.0823005 -7.0133171 0.63474768 10
-1.0261351 -6.0702801 0.7680707 11
-1.0057824 12.418845 0.68020248 9
-1.039933 -5.3349552 0.87180901 12
-1.016382 -4.7577324 0.9557488 13
-1.0422523 -4.2750635 1.0251976 14
-1.0196937 -3.8788602 1.0835212 15
-1.051952 9.2758579 1.1672277 11
-1.0515454 10.623483 0.95753825 10
-0.99972028 4.7071457 1.3021644 15
-1.0218655 5.4839382 1.3018233 14
-0.99964148 6.5192189 1.2979006 13
-0.95399201 7.9880695 1.2930763 12
-0.76249915 -3.437912 -0.30315199 5
-0.64682144 -2.4869714 -0.31295833 4
-0.61325628 -1.9241018 -0.31890655 3
-0.62431097 -1.3868257 -0.32158458 1.5
-0.67330337 -1.0531943 -0.32345521 0.25
-0.62007648 1.0734245 -0.3331303 0
-0.58351153 1.401956 -0.33412254 1.25
-0.55358881 1.6599908 -0.33754835 2
-0.64295292 2.047719 -0.33684772 3
-0.69136238 2.6982443 -0.33696428 4
-0.40564257 2.8034334 -0.34145948 4
-0.57767874 3.979759 -0.34312752 5
-0.51395893 7.006907 -0.35234228 6
-0.5667522 14.901999 0.29393613 8
-0.77557254 -7.0045347 0.63036978 10
-0.69455653 -6.0692873 0.7622025 11
-0.64938408 12.413317 0.67970729 9
-0.67082155 -5.3502007 0.86496544 12
-0.64651239 -4.782825 0.94824475 13
-0.61895663 -4.3048568 1.0137109 14
-0.54954904 -3.9187019 1.0696583 15
-0.65146202 9.2772093 1.1640915 11
-0.6698342 10.620908 0.95573711 10
-0.60691184 4.7510719 1.2973862 15
-0.62486094 5.5153961 1.2967489 14
-0.62278408 6.5337887 1.2928641 13
-0.58926225 7.9861355 1.2882545 12
-0.36382613 -1.6252408 -0.32328704 2
-0.3594811 -1.3706856 -0.3275252 1
-0.30967456 -1.1762401 -0.32688424 0
-0.20386548 1.3604332 -0.33925679 0.5
-0.22043365 1.7622653 -0.34174514 2
-0.23498568 2.1813977 -0.34247932 3
-0.20542239 2.8416803 -0.34274638 4
-0.29551518 4.0579414 -0.34621328 5
-0.24703857 14.876351 0.2942296 8
-0.29418162 12.395888 0.67911464 9
-0.25274482 9.2647343 1.1613697 11
-0.25184718 10.618272 0.95513821 10
-0.24817038 4.764513 1.2937183 15
-0.22870512 5.518651 1.2917401 14
-0.24723634 6.5241909 1.2873201 13
-0.2741285 7.9686179 1.2837306 12
0.37462777 4.1963377 -0.4024609 5
0.14230672 7.1966219 -0.43050778 6
0.396494 18.62104 -0.45399627 7
0.31845507 -5.9537249 -0.30249897 6
0.22031768 -3.6689625 -0.31686479 5
0.20546824 -2.6529973 -0.3247641 4
0.2041961 -2.0712793 -0.32937449 3
0.19723541 -1.6961741 -0.33323398 2
0.18357091 -1.3236768 -0.33462486 0.5
0.19899182 1.4062215 -0.36599916 0.5
0.21647327 1.8096097 -0.37119466 2
0.23149765 2.2385359 -0.37636453 3
0.15106711 2.9160979 -0.38283524 4
0.074596792 4.14745 -0.39544243 5
0.31618723 14.887351 0.15468864 8
0.26291049 12.409946 0.56051457 9
0.3221412 -4.7345943 0.93223351 13
0.3221921 -4.286521 1.0016856 14
0.29392257 -3.9115605 1.0599594 15
0.26197159 9.2930241 1.069388 11
0.3003501 10.634239 0.85102934 10
0.26582825 4.7828016 1.2363962 15
0.28971088 5.5355802 1.2286909 14
0.18199399 6.5518341 1.2175707 13
0.22423802 7.9902802 1.2012658 12
0.67773747 4.1967826 -0.40679765 5
0.67024672 7.3494549 -0.44275096 6
0.67812937 -12.560522 -0.19500108 7
0.40494534 -5.9716539 -0.30372867 6
0.65351433 -3.7095942 -0.32542741 5
0.6622327 -2.6439185 -0.33344975 4
0.55012804 -2.0438371 -0.33607969 3
0.53771591 -1.6452082 -0.33835146 2
0.56795293 -1.4198259 -0.34077972 1.25
0.57828957 -1.1190159 -0.3436805 0
0.72398055 1.1172507 -0.3710241 0
0.57446533 1.3605326 -0.37254399 0.66666669
0.63338321 1.7394686 -0.37782171 2
0.5952462 2.2140741 -0.38399303 3
0.57489473 2.9295068 -0.39249444 4
0.67437583 -9.8793697 0.19183451 8
0.6337325 14.872652 0.15369056 8
0.61373347 -8.1402349 0.44338161 9
0.54560483 -6.9116154 0.61987031 10
0.45184851 -6.0006542 0.750588 11
0.66711658 -5.9928102 0.75199157 11
0.65878117 12.375104 0.55849648 9
0.55004841 -5.2857833 0.8524555 12
0.56033492 -4.7290287 0.93564075 13
0.56598288 -4.2560401 1.0006448 14
0.57093644 -3.8697271 1.0574101 15
0.56166357 7.9382615 1.195214 12
0.55820942 9.2692719 1.0674238 11
0.6012786 10.597076 0.84823126 10
0.66807121 4.7226319 1.2305692 15
0.58169174 5.4942627 1.2239527 14
0.527767 6.5048652 1.2117739 13
1.1037382 2.8345158 -0.40040061 4
0.98869413 4.1991315 -0.41330111 5
0.8576358 -12.55613 -0.1952056 7
0.84490716 -6.0364699 -0.30967635 6
1.0642055 -3.6817667 -0.33157706 5
1.0438987 -2.5514419 -0.33823493 4
0.99219012 -1.9157829 -0.34398976 3
0.97971249 -1.3898091 -0.34903261 1.75
1.0098352 -1.0342414 -0.35246861 0.75
1.0963587 -0.70510876 -0.35804433 0
1.1302152 0.71909064 -0.37380022 0
0.99189043 0.98292643 -0.37492061 0.25
0.99366158 1.408154 -0.38075954 1.5
0.90511674 1.6226935 -0.37905893 2
1.023302 2.0756168 -0.38859525 3
0.89233285 2.8826385 -0.39702025 4
0.9203186 -9.8542194 0.19157715 8
1.0552347 14.827028 0.15227468 8
0.96201199 -8.111331 0.44343382 9
0.91555882 -6.8793087 0.62024283 10
0.96535677 -5.9502153 0.75156677 11
1.0547085 12.348973 0.55749291 9
1.0279795 -5.2277546 0.85428429 12
0.96378499 -4.6656642 0.93570083 13
0.99934751 -4.1910253 1.0038323 14
0.99714023 -3.7956078 1.0602705 15
1.0077177 7.8641486 1.1898718 12
0.95257264 9.2339849 1.06616 11
1.0143989 10.55985 0.84680068 10
1.0827296 4.6179323 1.2234704 15
1.0026593 5.4035106 1.2173493 14
1.1166477 6.3811831 1.2017034 13
0.89215559 6.4354048 1.2055044 13
1.4131221 2.7260332 -0.404486 4
1.296676 4.1566277 -0.41749966 5
1.219803 7.4569912 -0.45440298 6
1.3034202 -6.1023068 -0.31752235 6
1.3406551 -3.6407795 -0.33623728 5
1.4332483 -2.437238 -0.34808451 4
1.375338 -1.7196271 -0.35232317 3
1.4232237 -1.4324317 -0.35724494 2.5
1.4058686 -1.0390816 -0.36101004 1.75
1.3512385 -0.58775747 -0.36240694 0.75
1.4154885 -0.20859227 -0.3670454 0.5
1.4375432 0.20427249 -0.37420967 0.5
1.3892986 0.56430602 -0.37822556 0.66666669
1.4055382 1.0004498 -0.38070035 1.5
1.3446703 1.3210171 -0.38506067 2
1.4253302 1.8590432 -0.39323974 3
1.3415771 -9.8097458 0.19130783 8
1.4755969 14.776596 0.15104051 8
1.336924 -8.0566092 0.44298249 9
1.3080235 -6.8227572 0.62048036 10
1.3714983 -5.8917074 0.75381607 11
1.4043447 12.30296 0.55616111 9
1.3789459 -5.1664543 0.85675979 12
1.3668616 -4.5899644 0.94009119 13
1.3549308 -4.115479 1.0089172 14
1.3401152 -3.7092767 1.0650018 15
1.4070781 6.3109818 1.1991662 13
1.3630184 7.7711058 1.1833458 12
1.4465719 9.1908989 1.0676258 11
1.249037 9.2108536 1.066908 11
1.3896554 10.519235 0.84617496 10
1.4597828 4.4910359 1.2184753 15
1.4689342 5.2636418 1.2101064 14
1.8053998 2.5247445 -0.40854812 4
1.7695532 4.0776873 -0.4266085 5
1.7813349 7.4945621 -0.46406338 6
1.7148838 18.486118 -0.45634291 7
1.7486856 -12.453146 -0.19574143 7
1.7717582 -6.1197901 -0.32485577 6
1.7568965 -3.5439467 -0.34406453 5
1.7992289 -2.2491703 -0.35605147 4
1.7747366 -1.385377 -0.36299303 3
1.6064022 -0.87963003 -0.36393628 2
1.7420177 -0.61419797 -0.36927661 2
1.8621833 -0.23068389 -0.37722209 2
1.8749163 0.21413127 -0.38158602 2
1.7876511 0.61087793 -0.38374165 2
1.6377292 0.95182067 -0.38558611 2
1.8648117 1.4681441 -0.396925 3
1.6908633 1.6534659 -0.39585331 3
1.7279707 -9.7642307 0.19120285 8
1.7934964 14.764115 0.15053301 8
1.6567944 -8.0216932 0.4439244 9
1.8310518 -7.9968629 0.44438916 9
1.7999003 -6.7429552 0.62280631 10
1.7774124 -5.8173385 0.75738657 11
1.7545629 12.262192 0.55561483 9
1.7562511 -5.0890799 0.86211908 12
1.7704645 -4.4948726 0.94759673 13
1.6564983 -4.0350151 1.014954 14
1.8654799 -3.9664807 1.0194246 14
1.7134393 6.2133784 1.1952507 13
1.9251677 7.5956001 1.1745327 12
1.7372562 7.6486239 1.1759224 12
1.7433946 9.1573744 1.0692943 11
1.8026944 10.472591 0.84667593 10
1.8760741 4.3164477 1.2148455 15
1.8842305 5.1025043 1.2047702 14
2.199389 2.217314 -0.41062734 4
2.2227428 3.9176898 -0.4318257 5
2.3624527 7.5146632 -0.47501445 6
2.2525942 -6.1103978 -0.33287835 6
2.1699665 -3.4060535 -0.35229656 5
2.052516 -2.0667949 -0.36110091 4
2.2958322 -1.8613596 -0.3680197 4
2.0637341 -0.99075782 -0.37156403 3
2.2504563 -0.57551801 -0.37901646 3
2.3341792 -0.25028881 -0.38482067 3
2.3555474 0.2223281 -0.39030302 3
2.2734535 0.63731652 -0.39194581 3
2.1406901 1.0403932 -0.39641601 3
2.0138805 1.2619601 -0.396483 3
2.1162088 -9.7182941 0.19133627 8
2.107393 14.715731 0.1497854 8
2.1197786 -7.9430151 0.44496801 9
2.2476664 -6.6695304 0.62722421 10
2.1628768 -5.7317171 0.76207578 11
2.2393186 12.217525 0.55631149 9
2.1201248 -4.9955292 0.86822599 12
2.0373435 -4.4147372 0.95288378 13
2.206804 -4.3643155 0.95814097 13
2.2084196 -3.8499992 1.0317794 14
2.3254364 5.9589267 1.1862557 13
2.0961959 6.0609498 1.189302 13
2.2051356 7.4965973 1.1714126 12
2.2539527 9.1525841 1.0807352 11
2.1417205 10.432569 0.84810394 10
2.216985 4.1282854 1.2105477 15
2.1988645 4.9546428 1.200738 14
2.622107 1.7675519 -0.41348785 4
2.5214577 3.78742 -0.43582764 5
2.6473513 -12.370321 -0.19787537 7
2.740463 -6.0619159 -0.34103647 6
2.4376185 -3.2825778 -0.35762486 5
2.7024429 -3.1425166 -0.36357343 5
2.5047908 -1.619457 -0.37267271 4
2.7165415 -1.3674676 -0.3818081 4
2.630024 -9.6697941 0.19209445 8
2.5313275 14.682749 0.14931758 8
2.5622361 -7.8812003 0.44783565 9
2.5201597 -6.6083097 0.6297878 10
2.5106344 -5.6525631 0.76867765 11
2.727694 -5.594451 0.7729246 11
2.6346281 12.164134 0.55682582 9
2.5722578 -4.8696613 0.88005853 12
2.6039972 -4.2318296 0.97249413 13
2.5587263 -3.7066522 1.0457571 14
2.7973502 -3.594347 1.0563613 14
2.6815453 4.6758733 1.1951729 14
2.4041355 4.8487601 1.1991994 14
2.6927488 5.7796178 1.1830045 13
2.6999996 7.2879224 1.164912 12
2.5671659 9.1511602 1.0896236 11
2.5556083 10.371182 0.85008526 10
2.6835189 3.8102579 1.2055273 15
3.1287897 -0.22689936 -0.40012363 4
3.1608393 0.17886405 -0.40596738 4
3.1147227 0.51575607 -0.40689293 4
3.0238602 0.95905191 -0.41105404 4
2.8572898 1.3810784 -0.41322762 4
3.0745106 3.4355178 -0.44038197 5
2.8134773 3.634973 -0.43974206 5
2.9545333 7.4870687 -0.48552325 6
3.0329874 18.358963 -0.46035156 7
2.9686048 -2.9902883 -0.37074998 5
2.9133048 -0.97507519 -0.38798258 4
3.0519004 -0.5548324 -0.39412758 4
3.0116396 -9.6132584 0.19249727 8
2.9547486 14.635727 0.14892837 8
2.9478931 -7.8139896 0.45063958 9
2.9034231 -6.537982 0.63626909 10
2.9500265 -5.538291 0.77880985 11
2.9879618 12.117193 0.557926 9
2.9527028 -4.7364674 0.8908444 12
2.9692652 -4.0803509 0.98645169 13
3.1560733 -3.9974093 0.99472868 13
3.1522868 4.3477998 1.1921321 14
2.9194667 4.5148406 1.1927564 14
3.12379 5.5300164 1.1789914 13
2.9442179 5.6249976 1.1781309 13
3.0046508 7.1567006 1.1634125 12
2.9607711 9.1600161 1.1035272 11
2.9709437 10.303018 0.85309929 10
3.0744579 3.4863389 1.2040023 15
2.9262049 3.6186082 1.2044618 15
3.5790641 3.0026867 -0.44437513 5
3.3536148 3.2480261 -0.44505388 5
3.5461018 7.3950315 -0.49455705 6
3.5664167 -12.302723 -0.20161439 7
3.2396438 -5.9872537 -0.35014263 6
3.3203487 -2.693676 -0.3783761 5
3.3356521 -9.5600376 0.19292593 8
3.3790863 14.583707 0.14871788 8
3.3358166 -7.7353673 0.45373908 9
3.2818069 -6.437314 0.64174366 10
3.4582851 -6.3843932 0.64438337 10
3.346329 -5.4121985 0.78869867 11
3.3427708 12.067348 0.55945605 9
3.3259525 -4.6063929 0.90564072 12
3.3405774 -3.904165 1.0030342 13
3.4408083 3.0836318 1.1991744 15
3.4254401 4.1093173 1.1890486 14
3.4394994 5.3118415 1.1756085 13
3.3883951 6.9382029 1.158024 12
3.3609977 9.1560392 1.1181836 11
3.3506241 10.236274 0.85674328 10
3.5793552 2.9207733 1.2001227 15
3.269479 3.2842438 1.2016703 15
3.8166075 2.7630904 -0.44700739 5
3.7427549 -5.8730702 -0.35955334 6
3.7623072 -2.2475133 -0.39068547 5
3.8218546 -9.5103045 0.19440304 8
3.8069751 14.53447 0.14876908 8
3.7668383 -7.6582894 0.45875013 9
3.8081656 -6.2934918 0.65204048 10
3.6608872 -5.308692 0.79823494 11
3.9681971 11.971615 0.56310719 9
3.7005432 12.01715 0.56154764 9
3.8409104 -5.2425632 0.80389762 11
3.6340103 -4.4711232 0.91722125 12
3.872066 -4.3671217 0.92824394 12
3.7076697 -3.726716 1.0246246 13
3.9932523 2.2892342 1.199926 15
3.8937819 2.4592848 1.1995344 15
3.7722907 3.770808 1.1875728 14
3.808553 5.0296936 1.1734935 13
3.8102033 6.6801853 1.1537453 12
3.8058567 9.0521669 1.1258874 11
3.7692373 10.153171 0.86138868 10
3.8937857 -2.6124628 1.2557957 15
3.7557702 2.6831105 1.2007339 15
3.662313 2.8185606 1.2011403 15
4.2844648 -1.4386857 -0.40776393 5
4.3434477 1.8998824 -0.44559944 5
4.1957889 2.2045703 -0.44698188 5
4.0253959 2.4969046 -0.44809911 5
4.1418266 7.2602754 -0.50355238 6
4.3676009 18.244986 -0.46627179 7
4.2367911 -5.7049594 -0.36842063 6
4.0523205 -1.8653992 -0.39976051 5
4.268744 -9.4348049 0.1954805 8
4.2411714 14.494327 0.14915201 8
4.1388912 -7.5770211 0.46318454 9
4.1752572 -6.196826 0.66120851 10
4.2445245 11.944161 0.56590778 9
4.1991878 -5.1168451 0.81774378 11
4.3006816 3.1142814 1.1857637 14
4.0881729 3.412811 1.187583 14
4.2869797 4.5788589 1.1687193 13
4.0762267 4.8130069 1.1737757 13
4.3175921 6.3088651 1.1480747 12
4.0983138 6.4709172 1.1497269 12
4.1458898 8.8726978 1.12314 11
4.1986132 10.080937 0.86870652 10
4.1146498 -2.1796842 1.2447201 15
4.2667909 -1.8464658 1.240584 15
4.3529963 -1.594686 1.2351197 15
4.3517199 1.4805927 1.203969 15
4.2345147 1.7750536 1.200748 15
4.0805254 2.1312902 1.2014501 15
4.4791903 -0.98672324 -0.41613802 5
4.5665789 -0.66823798 -0.42051998 5
4.6536016 -0.34404588 -0.42695701 5
4.7057076 0.25869188 -0.43448457 5
4.6825223 0.5951733 -0.43697289 5
4.6476111 0.932028 -0.44057667 5
4.5147691 1.4216864 -0.44278076 5
4.7324338 7.0720129 -0.51181644 6
4.5062556 -12.212596 -0.206461 7
4.7501388 -5.5243621 -0.37945363 6
4.5008044 -9.4056358 0.19633943 8
4.5680561 14.458122 0.1495222 8
4.5981708 -7.4804716 0.46990567 9
4.5560317 -6.0822716 0.67130476 10
4.7997036 -5.9963546 0.67765385 10
4.6065025 11.87913 0.56878924 9
4.439043 -5.0087986 0.82574552 11
4.7866716 2.2615488 1.1875439 14
4.6308832 2.5632851 1.1856235 14
4.4518447 2.8740995 1.1847291 14
4.6391387 4.2056794 1.1686964 13
4.7968445 5.907671 1.1443242 12
4.5923285 6.08604 1.1458173 12
4.5696778 8.6066132 1.1179993 11
4.7042999 9.969141 0.8771593 10
4.4710574 10.024523 0.87323809 10
4.7378368 -2.5557027 1.2388265 14
