# .PCD v0.7 - Point Cloud Data file format
VERSION 0.7
FIELDS x y z intensity
SIZE 4 4 4 4
TYPE F F F F
COUNT 1 1 1 1
WIDTH 134
HEIGHT 1
VIEWPOINT 0 0 0 1 0 0 0
POINTS 134
DATA ascii
-36.103088 4.1635933 0.63041383 8
-36.08625 4.1614628 1.8998462 9
-36.112152 4.6896572 7.0742784 13
-35.822262 1.0285318 1.877033 9
-35.937511 2.5831208 3.1496933 10
-35.976818 3.105346 4.4308558 11
-35.925137 2.582005 5.7021508 12
-35.830166 1.5433697 6.9695644 13
-35.957073 3.1032214 8.3292665 14
-35.805241 1.5421607 9.6012983 15
-35.774853 0.51354331 0.62392634 8
-35.716133 0.00010281249 4.385335 11
-35.56776 -2.0439644 1.8693552 9
-35.518642 -2.55287 3.1183324 10
-35.495277 -2.5509894 5.6391983 12
-35.526379 -2.0412583 6.9192066 13
-35.567673 -1.5319475 8.2206573 14
-35.5653 -1.5317795 9.5401316 15
-35.366894 -4.5934076 0.62806726 8
-35.338539 -4.5892215 4.3808589 11
-35.326164 -4.5870981 8.2295332 14
-35.305401 -4.5842257 9.5448656 15
-34.505898 -14.660462 1.9863859 9
-34.492455 -14.654377 3.3001959 10
-34.530018 -14.088297 5.9270644 12
-34.515926 -14.08217 7.2665296 13
-34.364693 -16.380547 0.68938762 8
-34.287155 -16.950304 4.7218928 11
-34.233795 -17.539118 6.1190338 12
-34.266907 -16.939106 8.8507957 14
-34.051254 -19.991791 0.72101754 8
-34.048031 -19.989519 2.1007609 9
-34.03603 -19.982092 3.4844708 10
-34.075066 -19.351931 7.6475019 13
-33.926323 -21.249102 4.9491601 11
-33.917858 -21.243427 6.3727145 12
-33.891819 -21.226345 9.2667913 14
-27.102047 -7.99856 0.50411558 8
-27.106777 -7.9997163 1.4919182 9
-27.089563 -7.9943938 2.4817004 10
-27.099289 -7.9970226 3.4797757 11
-27.075048 -7.989624 4.4815583 12
-27.106583 -7.5777106 5.4807968 13
-27.073172 -7.988574 6.5272155 14
-27.05784 -7.9837947 7.569634 15
-15.200796 -26.328764 3.7810755 11
-15.196401 -26.320274 2.7071221 10
-14.683909 -26.294399 0.57414329 8
-14.682314 -26.292471 1.6264687 9
-14.669751 -26.272779 4.8142805 12
-13.642378 15.443283 0.36344534 8
-13.645958 15.445834 1.0842317 9
-4.8669391 1.6696184 -0.090532966 7
-4.9866548 3.6552477 -0.10788935 7
-4.8793545 1.673779 0.089499906 8
-4.9811387 3.6509414 0.10812728 8
-4.8594313 1.6668609 0.26888081 9
-4.9753323 3.6464229 0.32389769 9
-4.8589349 1.6665987 0.44923297 10
-4.9861832 3.6540837 0.54174489 10
-4.8549399 1.6651366 0.63019514 11
-4.9925389 3.6584558 0.76117259 11
-4.869061 1.66988 0.81544352 12
-4.9797726 3.648844 0.97927982 12
-4.8746266 1.6716425 1.0962696 13.5
-4.971004 3.6421542 1.1996511 13
-4.8617988 1.6671031 1.377859 15
-4.8952546 2.7850921 1.3016008 14
-4.9762845 3.64573 1.4262708 14
-4.9703641 3.641114 1.6533046 15
-3.5812089 14.97574 0.28898501 8
-3.4713793 10.455649 0.97686428 10
-3.3326278 12.365753 0.68757814 9
-3.2895181 9.0362701 1.1920192 11
-3.0217204 4.7772336 1.3109779 14
-3.0915647 5.968071 1.3137819 13
-2.9637401 3.897517 1.3171057 15
-2.9164515 7.6730175 1.3101654 12
-2.2008049 -5.2483387 0.90854985 12
-2.2520378 -4.6084104 1.0026832 13
-2.0192325 -4.1282573 1.0654839 14
-1.8907392 -8.2872858 0.45900586 9
-1.9198035 -7.0008311 0.64604926 10
-1.6952155 -10.079437 0.19536544 8
-1.1573682 15.073952 0.29068655 8
-1.0172429 -3.8940594 1.0826423 15
-0.21779193 15.127565 0.17268845 8
0.36665925 -6.0129914 0.74813896 11
0.31975162 -5.2921681 0.84699023 12
0.28496855 -4.7572837 0.93278891 13
0.25460166 -4.2906017 0.99798602 14
0.22988825 -3.9106925 1.0547894 15
0.50245261 -8.1004534 0.43740287 9
0.42536262 -6.9153285 0.61615723 10
0.61492062 -9.8291378 0.18702593 8
1.094007 15.195904 0.16920233 8
1.7455542 9.3596802 1.1039143 11
2.0316694 -3.4522414 1.0784658 15
2.3593564 -3.7524419 1.0280132 14
2.4331472 15.251568 0.16770197 8
3.5679181 9.5475101 1.1803876 11
3.7987816 -4.3243194 0.91374171 12
3.7743542 -3.6164241 1.0177048 13
4.1544003 -2.3735154 1.2826172 15
5.1109657 -4.612761 0.84426904 11
5.0280137 -2.3179195 1.2749431 14
5.5642724 -7.098772 0.47497311 9
5.8905344 -9.0091887 0.19332381 8
6.0326805 -5.4392853 0.70841396 10
6.0902686 8.0811749 1.1737385 11
6.4907665 9.7197895 0.12069216 8
6.5067596 9.7427044 0.53176111 9
6.5056896 9.7403288 0.94363523 10
6.4611263 0.29182473 1.2374214 13
6.9422717 3.7293966 1.2057025 12
16.753899 -4.4162655 0.2594988 8
16.742657 -4.4107323 0.86601305 9
16.7339 -4.1494455 1.4673965 10
16.701756 -3.8848531 2.0648797 11
16.738312 -4.14536 2.6928389 12
35.883484 20.4839 0.48091525 8
35.91573 20.50518 1.9282987 9
35.909817 20.504717 3.3795166 10
35.939617 20.524637 4.8434815 11
38.229496 17.646976 0.50298423 8
38.642036 17.171654 1.9868606 9
39.496059 16.216257 5.0169001 11
39.929371 15.731697 6.5729733 12
40.309879 15.208298 3.5463729 10
42.418686 12.599866 0.55418497 8
42.930214 12.101841 6.8500533 12
43.326286 11.530066 2.1356242 9
43.360897 11.548789 5.2968335 11
43.807091 10.991324 3.7396066 10
