# .PCD v0.7 - Point Cloud Data file format
VERSION 0.7
FIELDS x y z intensity
SIZE 4 4 4 4
TYPE F F F F
COUNT 1 1 1 1
WIDTH 1364
HEIGHT 1
VIEWPOINT 0 0 0 1 0 0 0
POINTS 1364
DATA ascii
-2.4375553 -0.53656787 -0.30314091 0
-2.3547761 -0.56094056 -0.30389172 0
-2.2317929 -0.55404598 -0.30647936 0
-2.1467166 -0.5492577 -0.30757982 0
-2.0634742 -0.54369408 -0.30886447 0
-1.9455782 -0.53077811 -0.31080529 0
-1.8798409 -0.54170054 -0.31123987 0
-1.2355471 -0.58179182 -0.31838894 0
-1.1414427 -0.57081211 -0.32027727 0
-1.0674835 -0.5551551 -0.32249549 0
1.1940572 -0.57805699 -0.3554906 0
1.2545817 -0.54832572 -0.35672233 0
1.351832 -0.53883606 -0.35723898 0
1.4422436 -0.5511623 -0.35757983 0
1.5399224 -0.55337095 -0.35844374 0
1.6494979 -0.55030733 -0.36045066 0
1.7729566 -0.54849696 -0.36257187 0
1.8642277 -0.56319886 -0.363758 0
1.9501969 -0.5408535 -0.36636978 0
2.0464766 -0.55490124 -0.36733425 0
2.1333246 -0.54589957 -0.36805785 0
2.2513423 -0.54182994 -0.36950439 0
2.3538914 -0.54864103 -0.37020147 0
2.4446471 -0.5513801 -0.37164059 0
2.5368941 -0.55316842 -0.37309018 0
2.6267292 -0.55310172 -0.37443659 0
2.7445648 -0.56438816 -0.37613797 0
2.8516371 -0.53681368 -0.37753612 0
2.9821668 -0.56138474 -0.37963593 0
3.0520401 -0.55193287 -0.38084725 0
-2.5045109 -0.45294267 -0.30047208 0
-2.41313 -0.44982073 -0.30162963 0
-2.3411164 -0.44958112 -0.30265319 0
-2.2388036 -0.45476255 -0.30457422 0
-2.1568282 -0.4381133 -0.30564544 0
-2.0726426 -0.45203391 -0.30747673 0
-1.9424937 -0.44685054 -0.30997449 0
-1.8542029 -0.44623256 -0.31185129 0
-1.7413899 -0.45454463 -0.3130478 0
-1.6404623 -0.43214843 -0.31397322 0
-1.552421 -0.41500333 -0.31363213 0
1.2520933 -0.46158087 -0.35474202 0
1.3436395 -0.44831696 -0.35554767 0
1.4703207 -0.4429144 -0.35802484 0
1.5645789 -0.4483915 -0.35950857 0
1.6409569 -0.45758861 -0.36090538 0
1.7491571 -0.45508972 -0.36254093 0
1.8288833 -0.4503563 -0.3637211 0
1.951581 -0.43444705 -0.3647764 0
2.0661907 -0.45049343 -0.3662529 0
2.150727 -0.4528431 -0.36746275 0
2.2699301 -0.44414395 -0.36852062 0
2.3710506 -0.46395361 -0.3700287 0
2.4639132 -0.44557706 -0.37136033 0
2.551053 -0.46133539 -0.3727659 0
2.646282 -0.43948528 -0.37422261 0
2.733588 -0.45398697 -0.37557182 0
2.8269172 -0.44875759 -0.37723333 0
2.938992 -0.45598298 -0.37898493 0
3.0402102 -0.43811497 -0.38013357 0
-2.617691 -0.37724304 -0.30003572 0
-2.530982 -0.3462823 -0.30134115 0
-2.4307911 -0.34582928 -0.3021726 0
-2.3378732 -0.33695015 -0.30301192 0
-2.2521465 -0.35755458 -0.30376777 0
-2.1696205 -0.34445575 -0.30488965 0
-2.0582206 -0.34188616 -0.30651137 0
-1.9245565 -0.34964597 -0.30825001 0
-1.8521218 -0.3483915 -0.3095572 0
-1.7370225 -0.339849 -0.31166101 0
-1.6596481 -0.34952223 -0.31349146 0
-1.5715426 -0.35452989 -0.31557754 0
-1.4445291 -0.34144938 -0.31620932 0
-1.3325858 -0.33086005 -0.31701362 0
-1.2533505 -0.32058883 -0.3191762 0
-1.1456691 -0.30186385 -0.31745762 0
1.2760201 -0.35580119 -0.35505664 0
1.3508648 -0.34567961 -0.3557682 0
1.4558169 -0.35032576 -0.35585222 0
1.5322387 -0.34783769 -0.3582499 0
1.6551491 -0.34437355 -0.36058876 0
1.7473962 -0.35481146 -0.36257863 0
1.8349915 -0.34544459 -0.36382511 0
1.9417837 -0.35857359 -0.36500508 0
2.0454779 -0.33984587 -0.36566126 0
2.167011 -0.36002406 -0.36715984 0
2.267015 -0.35677406 -0.368698 0
2.3388937 -0.34870067 -0.37032726 0
2.4692836 -0.3378239 -0.37235665 0
2.5778871 -0.35268041 -0.37374553 0
2.6692805 -0.34576523 -0.3750746 0
2.756928 -0.35711795 -0.37626284 0
2.8445454 -0.34781894 -0.37732372 0
2.93276 -0.33729535 -0.37849241 0
3.0501714 -0.35078639 -0.38020921 0
-2.5310085 -0.29108006 -0.30064744 0
-2.4400766 -0.24533848 -0.30113447 0
-2.2562616 -0.29225865 -0.30422828 0
-2.1729503 -0.28146714 -0.30495119 0
-2.0336521 -0.27316824 -0.30628207 0
-1.9224446 -0.26302966 -0.30732948 0
-1.8161328 -0.28831804 -0.30991751 0
-1.7396673 -0.27617887 -0.31070912 0
-1.6663947 -0.27682438 -0.31228346 0
-1.5819414 -0.28108183 -0.31405488 0
-1.4498397 -0.26854938 -0.31625828 0
-1.3407407 -0.2584967 -0.31774902 0
-1.2529385 -0.26165336 -0.31819329 0
-1.1697118 -0.24635422 -0.32039475 0
1.2906226 -0.29110754 -0.35450852 0
1.3452655 -0.24762644 -0.356686 0
1.4446194 -0.25057754 -0.35742462 0
1.5291998 -0.25404876 -0.35817358 0
1.6451231 -0.2530773 -0.35957727 0
1.7477748 -0.24436697 -0.36104816 0
1.8449246 -0.24255429 -0.3619833 0
1.9290369 -0.24979258 -0.36345589 0
2.0454891 -0.25612029 -0.3655284 0
2.1647434 -0.24586883 -0.36744118 0
2.2659769 -0.24418135 -0.3689321 0
2.3208036 -0.25007847 -0.36973175 0
2.4296527 -0.26180974 -0.3711513 0
2.5639229 -0.23923782 -0.37267062 0
2.6721897 -0.24934781 -0.37394819 0
2.7601712 -0.2575576 -0.37515661 0
2.8499873 -0.24539343 -0.37601301 0
2.9379621 -0.25296703 -0.37715507 0
3.0503106 -0.26264429 -0.3786135 0
-2.5466754 -0.18256478 -0.30106464 0
-2.4528661 -0.14063273 -0.30168885 0
1.3466423 -0.15033554 -0.35518506 0
1.4531864 -0.15660219 -0.35659122 0
1.5386817 -0.14676706 -0.35803297 0
1.6468242 -0.15369755 -0.35951388 0
1.7563972 -0.1438451 -0.36107016 0
1.8538122 -0.15156291 -0.36252075 0
1.9411911 -0.15314899 -0.36366144 0
2.0248685 -0.14515629 -0.3647908 0
2.142267 -0.14682575 -0.36612242 0
2.2714212 -0.14649735 -0.36746135 0
2.3185928 -0.14955537 -0.36801672 0
2.4509375 -0.15808965 -0.36994377 0
2.5843649 -0.14813453 -0.37201935 0
2.6727066 -0.1531978 -0.37337273 0
2.7610483 -0.15826105 -0.37472618 0
2.8562748 -0.14312871 -0.37673172 0
2.9446194 -0.14755842 -0.37803337 0
3.054774 -0.16198574 -0.37949198 0
3.1025529 -0.11106049 -0.38118902 0
-2.5526791 -0.036544442 -0.30096349 0
-2.4634514 -0.035267051 -0.30250433 0
1.3538327 -0.048383318 -0.35454282 0
1.4594847 -0.052177608 -0.35731369 0
1.5479519 -0.048548426 -0.35978082 0
1.6345704 -0.046853945 -0.36081415 0
1.7475929 -0.050085999 -0.36178303 0
1.8638169 -0.052174546 -0.36282423 0
1.9475943 -0.055774953 -0.36383557 0
2.0296407 -0.043579012 -0.36488247 0
2.1529732 -0.046232756 -0.36654529 0
2.2763059 -0.048886497 -0.36820808 0
2.3287151 -0.050112158 -0.36894226 0
2.436703 -0.043472979 -0.37017944 0
2.5497947 -0.054514833 -0.37235841 0
2.6632099 -0.066595107 -0.374336 0
2.7710903 -0.059609789 -0.3756403 0
2.8543253 -0.040895216 -0.37645185 0
2.942863 -0.042163193 -0.37786224 0
3.0492251 -0.036312941 -0.37910977 0
3.1093314 -0.066763632 -0.38186529 0
-2.4467332 0.052532203 -0.30049753 0
1.3520291 0.048395369 -0.35380584 0
1.4559733 0.052125275 -0.35535616 0
1.5355417 0.048169855 -0.35626119 0
1.655874 0.047405515 -0.35806304 0
1.7697864 0.050667435 -0.35994518 0
1.8543237 0.053090099 -0.36138216 0
1.9410915 0.055572107 -0.36284488 0
2.0419421 0.051330358 -0.36449739 0
2.1570423 0.040261652 -0.36688009 0
2.2712152 0.048732046 -0.36887178 0
2.3359969 0.050138455 -0.37009552 0
2.4242926 0.052035298 -0.37123182 0
2.533154 0.054378282 -0.37243813 0
2.6550682 0.056989528 -0.37435758 0
2.7774756 0.059622649 -0.37577716 0
2.865479 0.040976495 -0.3765856 0
2.9537454 0.042240351 -0.37768084 0
3.0656586 0.043857954 -0.37907156 0
-2.5406153 0.14561592 -0.30017918 0
-2.446991 0.1578033 -0.3010841 0
1.3433503 0.14992793 -0.35445938 0
1.4505535 0.15624416 -0.35659647 0
1.5405791 0.14683126 -0.3588635 0
1.6343966 0.15653773 -0.35967878 0
1.7440096 0.14488366 -0.36082911 0
1.8521358 0.16065687 -0.36166224 0
1.9361337 0.15273272 -0.36255169 0
2.0457408 0.15671985 -0.36392131 0
2.1522305 0.13274416 -0.36525342 0
2.2658937 0.14611655 -0.36669686 0
2.3260372 0.15004575 -0.36740112 0
2.4565156 0.15846905 -0.36970946 0
2.5776725 0.14771503 -0.37134734 0
2.6661396 0.152785 -0.37285063 0
2.7546065 0.15785497 -0.37435395 0
2.8508346 0.14281847 -0.37642789 0
2.9392643 0.14725272 -0.37783626 0
3.0604429 0.15335549 -0.37977147 0
-2.4355853 0.24484117 -0.30055907 0
-2.2620924 0.2930139 -0.3032878 0
-2.1794212 0.28230533 -0.30458087 0
-2.0371227 0.27359617 -0.3062872 0
-1.9246181 0.2632817 -0.30767596 0
-1.8480942 0.29339206 -0.30771467 0
-1.7339609 0.27527294 -0.3092587 0
-1.6588833 0.27556062 -0.31100982 0
-1.5689846 0.27872479 -0.31127039 0
-1.4506023 0.26887661 -0.31293166 0
-1.3419439 0.26368698 -0.31388485 0
-1.256819 0.25522202 -0.31616038 0
-1.15683 0.25209352 -0.31737572 0
1.2906433 0.25746423 -0.35271877 0
1.3586706 0.24570535 -0.35503316 0
1.4570764 0.25645843 -0.35506248 0
1.5335939 0.25194979 -0.35626379 0
1.6653178 0.23758328 -0.35917443 0
1.7545896 0.25278538 -0.36062834 0
1.8436176 0.25222844 -0.36267161 0
1.9304459 0.25010067 -0.3633436 0
2.0527668 0.25098854 -0.36440024 0
2.1762619 0.25029129 -0.36554825 0
2.2719955 0.25811851 -0.36611891 0
2.3342505 0.24043767 -0.36747822 0
2.4582367 0.25295565 -0.3700496 0
2.575906 0.24035741 -0.37140551 0
2.6638401 0.24856108 -0.37260184 0
2.7517738 0.25676477 -0.37379804 0
2.8378947 0.24425691 -0.37477496 0
2.9259458 0.25183725 -0.37604344 0
3.04094 0.26174828 -0.37770134 0
-2.4212804 0.34893048 -0.30068398 0
-2.3342519 0.33635435 -0.30184725 0
-2.2483628 0.35700479 -0.30288643 0
-2.1659706 0.34392729 -0.30409864 0
-2.0631711 0.34562224 -0.30552292 0
-1.9316975 0.34211877 -0.30723667 0
-1.8710037 0.34771112 -0.30726343 0
-1.7485194 0.35516328 -0.30910805 0
-1.641498 0.34570873 -0.31021768 0
-1.5539736 0.35055199 -0.31152126 0
-1.4435444 0.34739396 -0.31391534 0
-1.3453169 0.34011054 -0.31529373 0
-1.2484244 0.31630206 -0.31589532 0
-1.1969628 0.31537884 -0.31388137 0
1.2662013 0.35298267 -0.35231861 0
1.3410257 0.35334253 -0.35404482 0
1.455891 0.35409501 -0.35552439 0
1.540953 0.34763584 -0.35716796 0
1.659449 0.34948999 -0.35834584 0
1.7335788 0.35208559 -0.35885304 0
1.8296415 0.34842569 -0.36040422 0
1.9548575 0.34785104 -0.36236209 0
2.0612912 0.33495015 -0.364858 0
2.159296 0.35858962 -0.36593315 0
2.2787116 0.34507662 -0.36731774 0
2.3812866 0.36063811 -0.36866212 0
2.4678364 0.33768067 -0.36905012 0
2.5553577 0.34965292 -0.37029943 0
2.6432879 0.34240383 -0.37153643 0
2.7309887 0.3537631 -0.37288648 0
2.8269043 0.34554544 -0.37463534 0
2.9345624 0.35872611 -0.3762002 0
3.0457118 0.34297776 -0.37791729 0
-2.4073277 0.45320907 -0.30079529 0
-2.3470588 0.44890469 -0.30168051 0
-2.2263079 0.45224413 -0.30274925 0
-2.1427455 0.45128477 -0.30367202 0
-2.0621121 0.44966182 -0.30520499 0
-1.9485331 0.43469036 -0.30665112 0
-1.8736614 0.45947441 -0.30747795 0
-1.7529755 0.44851109 -0.30898437 0
-1.641832 0.43909568 -0.31039688 0
-1.5404638 0.41768786 -0.31220949 0
-1.4575471 0.40643361 -0.31357828 0
1.1988658 0.47784275 -0.34581101 0
1.2559388 0.45366555 -0.35048026 0
1.3549404 0.44904938 -0.3525067 0
1.4601125 0.44411188 -0.35463467 0
1.5485303 0.45577359 -0.35652578 0
1.6406265 0.46010047 -0.35752714 0
1.7594396 0.46039537 -0.35932308 0
1.8324921 0.4332011 -0.35971355 0
1.959412 0.45662373 -0.36131582 0
2.0484478 0.44667235 -0.36259744 0
2.1312153 0.44875047 -0.36373594 0
2.2451034 0.44578844 -0.3653557 0
2.3509865 0.45987979 -0.36667085 0
2.4544961 0.44378304 -0.36936936 0
2.5413005 0.45948014 -0.37048468 0
2.6380596 0.43816629 -0.37204883 0
2.7250664 0.45261779 -0.37313625 0
2.817143 0.44725364 -0.37457836 0
2.9570286 0.45631981 -0.37633544 0
3.0378165 0.43774354 -0.37685865 0
-2.3571606 0.56772077 -0.30132976 0
-2.2502072 0.54988945 -0.30177569 0
-2.1357923 0.55443841 -0.30343139 0
-2.0328326 0.55128801 -0.30488983 0
-1.9535524 0.54471016 -0.30668199 0
-1.8588077 0.54718685 -0.30782369 0
-1.3045256 0.59729975 -0.31425729 0
-1.242311 0.58326197 -0.31685436 0
-1.1491753 0.57219994 -0.31783414 0
-1.0600818 0.55125344 -0.32025304 0
1.178828 0.56037199 -0.34978226 0
1.243006 0.54268056 -0.35056445 0
1.3507053 0.55756056 -0.35233635 0
1.432433 0.54739058 -0.35339135 0
1.5457551 0.54739004 -0.35574034 0
1.6644175 0.5395624 -0.3590138 0
1.7687503 0.54826981 -0.36101028 0
1.8592693 0.54723454 -0.36154467 0
1.9425994 0.55670959 -0.36235502 0
2.0509574 0.55617678 -0.36276942 0
2.1597607 0.55259305 -0.36413527 0
2.2444987 0.54010087 -0.36566564 0
2.3301058 0.56070071 -0.36666593 0
2.436527 0.55897141 -0.36723822 0
2.5386963 0.54714304 -0.36905849 0
2.6485465 0.54766095 -0.37084845 0
2.7751737 0.56359297 -0.37231916 0
2.8541572 0.53033143 -0.37390032 0
2.9778233 0.56794083 -0.3752203 0
3.0273788 0.52505493 -0.37727362 0
-2.3662376 0.62346244 -0.3004528 0
-2.2742877 0.6341477 -0.30120501 0
-2.1547172 0.64084113 -0.30321211 0
-2.0525827 0.65256834 -0.30498827 0
-1.9506278 0.65087521 -0.30648395 0
-1.8367639 0.65699798 -0.30898583 0
-1.5304939 0.67443651 -0.30956185 0
-1.4433104 0.67331243 -0.31147569 0
-1.3471166 0.64982611 -0.31393534 0
-1.2374822 0.64350015 -0.31632206 0
-1.1519172 0.66081399 -0.31863689 0
-1.0432768 0.65163583 -0.32056916 0
-0.98591709 0.67610103 -0.32034624 0
1.1371489 0.65464723 -0.34945109 0
1.2509836 0.65011799 -0.35122842 0
1.3670007 0.64980179 -0.35249361 0
1.4420851 0.64239782 -0.35531276 0
1.5558707 0.64618677 -0.35578972 0
1.635679 0.638421 -0.35639253 0
1.729169 0.64759564 -0.35836035 0
1.8437089 0.65217561 -0.36113015 0
1.9328458 0.65280157 -0.36260465 0
2.0448565 0.64989144 -0.36321238 0
2.1819491 0.66903973 -0.36371946 0
2.2428458 0.637209 -0.36506823 0
2.3633385 0.65306073 -0.36702821 0
2.4622033 0.64259422 -0.36832634 0
2.5742533 0.65864891 -0.36922374 0
2.6725338 0.64310008 -0.37066686 0
2.7620165 0.64371872 -0.37202585 0
2.8491147 0.64263415 -0.37328252 0
2.9666884 0.64690822 -0.37541902 0
-2.3200266 0.77408743 -0.30079457 0
-2.2445674 0.73101664 -0.30161974 0
-2.1515212 0.752343 -0.30300003 0
-2.0539246 0.74801904 -0.30508575 0
-1.966911 0.76769966 -0.30552211 0
-1.8688968 0.74187821 -0.30697575 0
-1.7714373 0.77041823 -0.30741546 0
-1.6395016 0.7451641 -0.30854756 0
-1.5315753 0.75113249 -0.31101426 0
-1.4232789 0.75093335 -0.31403375 0
-1.3459883 0.7495091 -0.31514978 0
-1.250651 0.75994956 -0.31563354 0
-1.1500299 0.74319386 -0.3184526 0
-1.0442588 0.75580072 -0.31909955 0
-0.94800663 0.74579579 -0.32063645 0
-0.89016199 0.78516573 -0.31805259 0
1.0540551 0.75641352 -0.34777385 0
1.1463506 0.75041348 -0.34974042 0
1.2512525 0.76084495 -0.35061705 0
1.3315839 0.74308586 -0.35195279 0
1.4466114 0.75954157 -0.35384241 0
1.5518796 0.74593198 -0.35518229 0
1.668422 0.7413491 -0.35729676 0
1.7689977 0.74952173 -0.35858893 0
1.8521863 0.75362909 -0.35901561 0
1.9423928 0.75807762 -0.36033511 0
2.0404134 0.7462309 -0.36239016 0
2.1597016 0.75501949 -0.36420691 0
2.2679584 0.75676203 -0.36583224 0
2.3583086 0.74952739 -0.36640716 0
2.4532292 0.74115902 -0.36775851 0
2.5440867 0.74879056 -0.36917007 0
2.6364639 0.75549126 -0.37058404 0
2.7362986 0.7419014 -0.37171674 0
2.8287513 0.7453078 -0.37241936 0
2.9323051 0.75024301 -0.37357596 0
-2.2553701 0.84326309 -0.3010633 0
-2.1396258 0.85886794 -0.30267313 0
-2.0378027 0.8633877 -0.30402362 0
-1.9250885 0.84824711 -0.30473781 0
-1.831723 0.85458064 -0.30590177 0
-1.7376282 0.84546161 -0.30751342 0
-1.636117 0.85072696 -0.30979279 0
-1.5512607 0.84929848 -0.31127316 0
-1.4572664 0.85296983 -0.31215176 0
-1.3563224 0.85200995 -0.31332195 0
-1.2473472 0.85113358 -0.31610173 0
-1.1389319 0.84047216 -0.31819645 0
-1.0572788 0.85058552 -0.31765538 0
-0.94936603 0.84671229 -0.31894562 0
-0.85324991 0.85627365 -0.32164556 0
-0.79335195 0.89303362 -0.32007447 0
0.9674592 0.85310853 -0.34569067 0
1.0541717 0.85219723 -0.34771296 0
1.1579973 0.84374112 -0.34888792 0
1.244698 0.86172903 -0.35075724 0
1.3344526 0.84655124 -0.35285601 0
1.4428241 0.84443301 -0.35269982 0
1.5485104 0.8622359 -0.3546111 0
1.6311032 0.83726406 -0.3567943 0
1.7332844 0.85764039 -0.35771412 0
1.8327295 0.85501671 -0.35909042 0
1.9571238 0.85233086 -0.36140227 0
2.0668476 0.83762711 -0.36214861 0
2.1267014 0.84760517 -0.36262751 0
2.2227609 0.84931469 -0.36403573 0
2.3412235 0.85628474 -0.36590081 0
2.4322381 0.83092451 -0.36827049 0
2.518712 0.84042007 -0.36908722 0
2.6472559 0.86225742 -0.37061319 0
2.7575266 0.84764355 -0.37202552 0
2.8574159 0.83375949 -0.37398925 0
2.9292006 0.86212325 -0.37492388 0
-2.2545962 0.95524174 -0.30101058 0
-2.1547475 0.94945312 -0.30177715 0
-2.0662479 0.94606239 -0.30257496 0
-1.9577922 0.93057477 -0.30399087 0
-1.8646878 0.95269471 -0.30619523 0
-1.7338188 0.9309541 -0.30814758 0
-1.6654632 0.9571923 -0.30818629 0
-1.5569903 0.95387805 -0.31041911 0
-1.4565285 0.95356226 -0.31174234 0
-1.3363087 0.94485217 -0.31375214 0
-1.2609886 0.96108401 -0.31502151 0
-1.1478293 0.95535117 -0.31558329 0
-1.0431942 0.93908155 -0.3171832 0
-0.96782452 0.95657974 -0.31941649 0
-0.85585666 0.94956493 -0.32015687 0
-0.75625271 0.95320541 -0.32197675 0
-0.69597661 0.99186188 -0.32466874 0
0.77850163 0.99905229 -0.33937278 0
0.86127412 0.95545805 -0.34474617 0
0.95367813 0.94358313 -0.34714332 0
1.0639354 0.96579689 -0.34733054 0
1.15456 0.95481014 -0.34862638 0
1.2354699 0.95110887 -0.34915188 0
1.3522224 0.94558233 -0.35236099 0
1.4582881 0.93693888 -0.35263377 0
1.549438 0.9470349 -0.35315335 0
1.6505963 0.95023996 -0.35532564 0
1.7475467 0.95669556 -0.35724971 0
1.8524363 0.9463346 -0.35886157 0
1.9393895 0.95606148 -0.35966676 0
2.0469103 0.96520698 -0.36069408 0
2.1389751 0.94257265 -0.36375892 0
2.2775879 0.94579554 -0.36485854 0
2.3720436 0.94539601 -0.36583874 0
2.4695442 0.94360584 -0.3672874 0
2.5704842 0.94011831 -0.36891913 0
2.6625547 0.95226079 -0.37050077 0
2.7532237 0.96253681 -0.37179923 0
2.861887 0.95489794 -0.37353766 0
2.9057934 0.92350072 -0.37437135 0
-2.2054253 1.0613698 -0.30122206 0
-2.1355562 1.0527755 -0.30185965 0
-2.0303996 1.0373621 -0.30299577 0
-1.9476631 1.052009 -0.30485338 0
-1.8302225 1.0538541 -0.30592561 0
-1.7454855 1.0386045 -0.30730748 0
-1.6433918 1.0425463 -0.3093797 0
-1.5501865 1.0564563 -0.31001177 0
-1.4377277 1.0602669 -0.31172532 0
-1.3336349 1.0468884 -0.31343934 0
-1.2346402 1.0403181 -0.31336418 0
-1.166857 1.0632199 -0.3151553 0
-1.0582843 1.0532372 -0.31754008 0
-0.9414047 1.0403174 -0.31921789 0
-0.85490507 1.0594107 -0.31931674 0
-0.7528674 1.0515207 -0.32151434 0
-0.65278172 1.0428154 -0.32382652 0
-0.55831921 1.0718701 -0.32393149 0
0.66922152 1.0803459 -0.34056026 0
0.7498433 1.0468665 -0.34219947 0
0.84377229 1.0360886 -0.34463134 0
0.9450956 1.0484911 -0.3455995 0
1.0507485 1.0589087 -0.34758183 0
1.1380317 1.0480741 -0.34895825 0
1.2510525 1.0565194 -0.35067558 0
1.3525833 1.0462414 -0.35152641 0
1.4542636 1.0531473 -0.35299617 0
1.5366369 1.037499 -0.35380694 0
1.6708845 1.0599886 -0.35491821 0
1.7555889 1.0445448 -0.35628986 0
1.859093 1.0492551 -0.35801917 0
1.9728895 1.0618598 -0.36016008 0
2.0179012 1.0440112 -0.36052054 0
2.1322656 1.0702139 -0.36192879 0
2.2286465 1.0396174 -0.36360097 0
2.3302574 1.0467428 -0.36554635 0
2.4273493 1.0490589 -0.36678672 0
2.540061 1.0547882 -0.36813089 0
2.6281803 1.0258131 -0.36936659 0
2.7396495 1.0616461 -0.37050191 0
2.8387594 1.0382624 -0.37227249 0
-2.2848346 1.1263387 -0.30062029 0
-2.1674657 1.1548097 -0.30228227 0
-2.0628729 1.1486571 -0.30216008 0
-1.9679998 1.1519855 -0.30344546 0
-1.8743908 1.1519769 -0.30490762 0
-1.7604153 1.1490048 -0.30695704 0
-1.6379048 1.140632 -0.30897671 0
-1.5542638 1.1601846 -0.30906832 0
-1.4449661 1.1510451 -0.31091464 0
-1.3505514 1.1404941 -0.31198487 0
-1.247776 1.1493257 -0.31382126 0
-1.1419914 1.1460198 -0.31589296 0
-1.0449058 1.1520786 -0.31702551 0
-0.94936651 1.1492387 -0.31848934 0
-0.84429109 1.1401619 -0.31814173 0
-0.75125122 1.1567347 -0.32187098 0
-0.64031041 1.1531976 -0.32329804 0
-0.54635137 1.1442803 -0.32602271 0
-0.45505095 1.1536213 -0.32529539 0
-0.34899965 1.1701359 -0.32728252 0
-0.27975148 1.1811149 -0.32524264 0
0.37607911 1.1980042 -0.33647212 0
0.45511925 1.1783673 -0.33851698 0
0.55428624 1.1497433 -0.33994105 0
0.64221287 1.1577227 -0.34198245 0
0.74801135 1.1397555 -0.34196192 0
0.8554607 1.147756 -0.34382537 0
0.94345689 1.1472894 -0.34430599 0
1.0349976 1.1411518 -0.34653273 0
1.1485997 1.1527957 -0.34781131 0
1.2562615 1.1569496 -0.35011804 0
1.3604555 1.1701169 -0.3526822 0
1.4333445 1.1362613 -0.35330093 0
1.5422617 1.1409246 -0.35396925 0
1.626627 1.1327373 -0.35511503 0
1.7381243 1.1558262 -0.35601369 0
1.8532453 1.1571798 -0.35795805 0
1.9502642 1.141543 -0.35915381 0
2.0595601 1.1468517 -0.36050758 0
2.1590135 1.1620054 -0.36256754 0
2.2708676 1.1397945 -0.36397883 0
2.3633854 1.1440849 -0.36482143 0
2.4675996 1.151107 -0.36648056 0
2.5706692 1.1547463 -0.3682096 0
2.6693542 1.1536323 -0.36949658 0
2.772454 1.1606567 -0.37118 0
2.8185246 1.1234049 -0.3725473 0
-2.3245571 1.2727487 -0.30020955 0
-2.2320518 1.2428926 -0.30121279 0
-2.1222682 1.234079 -0.30175248 0
-2.0403872 1.2607279 -0.30267212 0
-1.952147 1.2451949 -0.30344662 0
-1.8469036 1.2587299 -0.3052159 0
-1.7433863 1.2579069 -0.30710647 0
-1.6494591 1.2571651 -0.30726022 0
-1.5335914 1.2337242 -0.30997816 0
-1.472235 1.2615392 -0.31031018 0
-1.3524284 1.2456464 -0.31209004 0
-1.2474644 1.2518975 -0.31407461 0
-1.1479125 1.2556804 -0.31474358 0
-1.0495336 1.237331 -0.31687126 0
-0.95818615 1.2618128 -0.31688961 0
-0.84777039 1.2512723 -0.31953481 0
-0.73531026 1.2509482 -0.32215396 0
-0.63950676 1.2471602 -0.32250193 0
-0.55729395 1.2524973 -0.32461107 0
-0.44031408 1.253089 -0.3250626 0
-0.35611337 1.2503885 -0.32580894 0
-0.24328285 1.2405099 -0.32885164 0
-0.14787529 1.2472628 -0.32787117 0
-0.056341216 1.2556593 -0.33025762 0
0.054013249 1.2526467 -0.33165491 0
0.15439631 1.2487997 -0.33428392 0
0.25248373 1.2502608 -0.33585331 0
0.3426131 1.2573457 -0.33728066 0
0.44695985 1.244476 -0.33917892 0
0.54875249 1.2442119 -0.33893019 0
0.654697 1.2481823 -0.34178686 0
0.75405604 1.2631481 -0.34215948 0
0.84856099 1.2277448 -0.34401187 0
0.95365363 1.2421885 -0.34516025 0
1.044782 1.2642883 -0.34595013 0
1.146181 1.2534801 -0.34803012 0
1.2570078 1.261495 -0.34873191 0
1.3480363 1.2415367 -0.35117757 0
1.4407805 1.2344848 -0.35349312 0
1.5476704 1.2510856 -0.35390261 0
1.6487846 1.2380722 -0.35507041 0
1.7417744 1.2502074 -0.35596815 0
1.8570068 1.2617733 -0.35753852 0
1.9433321 1.2428169 -0.35892326 0
2.0384226 1.2394639 -0.36055341 0
2.1467297 1.2565507 -0.36168221 0
2.2455828 1.2366209 -0.3632268 0
2.3466024 1.2487757 -0.36512163 0
2.4467452 1.2575593 -0.36694315 0
2.5515633 1.2578238 -0.36774933 0
2.6501286 1.2599163 -0.36864769 0
2.7294364 1.2496694 -0.3696976 0
-2.1693318 1.3331337 -0.30037796 0
-2.0505643 1.350871 -0.30180198 0
-1.9449886 1.3544868 -0.30371135 0
-1.8477708 1.3464381 -0.30533549 0
-1.7410641 1.346789 -0.30620944 0
-1.6337113 1.359845 -0.30788165 0
-1.5417397 1.3402841 -0.30922121 0
-1.4284366 1.3345265 -0.31070888 0
-1.3632983 1.368147 -0.31164467 0
-1.2481558 1.3494328 -0.31250221 0
-1.1458602 1.3667541 -0.31468755 0
-1.0491378 1.3464104 -0.31588352 0
-0.93882352 1.3380865 -0.31706482 0
-0.85542434 1.3690115 -0.3196359 0
-0.75319588 1.3411582 -0.32088047 0
-0.65276223 1.3438987 -0.32259348 0
-0.53911227 1.3341159 -0.3250536 0
-0.454474 1.3405491 -0.32405365 0
-0.34875029 1.3534458 -0.32654974 0
-0.25932887 1.3708303 -0.32768345 0
-0.15022412 1.3491397 -0.32858446 0
-0.045008112 1.3479273 -0.33079123 0
0.043275215 1.3427434 -0.33290821 0
0.14411357 1.3438711 -0.33437619 0
0.23589131 1.3469476 -0.33556122 0
0.35012153 1.3585362 -0.33559749 0
0.46009111 1.3629906 -0.33730245 0
0.55819201 1.3540033 -0.33967781 0
0.65825826 1.3323447 -0.34144187 0
0.75107855 1.3601393 -0.34174448 0
0.85186523 1.3414556 -0.34296539 0
0.95248967 1.3369162 -0.34594491 0
1.053295 1.351728 -0.34630629 0
1.1560316 1.3619192 -0.34847438 0
1.2530715 1.3509395 -0.3489942 0
1.3525981 1.3460177 -0.35001343 0
1.4471339 1.332657 -0.35205299 0
1.5502425 1.3475084 -0.35374689 0
1.6537064 1.3565749 -0.35475147 0
1.7611648 1.3600388 -0.35590032 0
1.8304656 1.338035 -0.35653833 0
1.9425063 1.3526416 -0.35874033 0
2.0391157 1.3349506 -0.36030281 0
2.133564 1.353501 -0.36144701 0
2.2509508 1.3392725 -0.36307105 0
2.3465295 1.3510338 -0.36442149 0
2.4436119 1.3607097 -0.36571726 0
2.5588932 1.3537531 -0.36803114 0
2.6713519 1.3647406 -0.37009731 0
2.7073638 1.3106226 -0.36932492 0
-2.1414611 1.43857 -0.30059099 0
-2.0305667 1.4357049 -0.30242568 0
-1.9821739 1.4663254 -0.30373219 0
-1.8580623 1.4372691 -0.30457395 0
-1.7576535 1.4418132 -0.30577314 0
-1.6562656 1.4608759 -0.30684042 0
-1.5550741 1.4528461 -0.3086518 0
-1.4462051 1.4514191 -0.3103905 0
-1.3317573 1.435714 -0.31103539 0
-1.266253 1.4671403 -0.31276974 0
-1.154135 1.4594094 -0.31383684 0
-1.0452631 1.4451791 -0.31510344 0
-0.93657339 1.4420928 -0.31810176 0
-0.84438813 1.4341052 -0.32133436 0
-0.7458483 1.456081 -0.32078832 0
-0.64419788 1.4478911 -0.32215518 0
-0.54794484 1.4496182 -0.3233878 0
-0.44946513 1.4468975 -0.32310179 0
-0.35340366 1.4461282 -0.3265689 0
-0.237655 1.4454867 -0.3277306 0
-0.15779121 1.4298248 -0.32910421 0
-0.056636896 1.4395021 -0.33059612 0
0.046365123 1.4410644 -0.33326855 0
0.15002185 1.4402732 -0.33462077 0
0.25353092 1.4386654 -0.33518928 0
0.35615546 1.4369676 -0.33635437 0
0.43971968 1.4490331 -0.33829245 0
0.54443425 1.44017 -0.33867851 0
0.64248902 1.4524008 -0.34018943 0
0.74551249 1.4464812 -0.34156999 0
0.8421495 1.4505624 -0.34160075 0
0.95638049 1.4640708 -0.34453753 0
1.050106 1.4401667 -0.34754127 0
1.1563987 1.4623295 -0.34722325 0
1.2505543 1.4616158 -0.34945205 0
1.3436902 1.4486358 -0.34982663 0
1.4384367 1.4435343 -0.35082048 0
1.5350075 1.4506427 -0.35290545 0
1.6548685 1.4595283 -0.35411271 0
1.7318139 1.4415311 -0.35559943 0
1.8346457 1.4401001 -0.35652173 0
1.9389089 1.4558251 -0.35818923 0
2.0562975 1.4537754 -0.36014152 0
2.1628368 1.4606045 -0.3616353 0
2.2496502 1.442444 -0.3633039 0
2.3488944 1.4590926 -0.36468419 0
2.4596524 1.4474405 -0.3659687 0
2.5702972 1.4556882 -0.36721975 0
2.6294916 1.4315978 -0.368646 0
-2.1412613 1.5604819 -0.30080307 0
-2.0362761 1.5519218 -0.30216706 0
-1.9303257 1.5321712 -0.30303833 0
-1.8574803 1.5597799 -0.30266705 0
-1.7515383 1.5448427 -0.30563492 0
-1.6561159 1.5544521 -0.306981 0
-1.5505363 1.5411463 -0.30861256 0
-1.4503254 1.5635343 -0.3097077 0
-1.3502079 1.5420668 -0.31063837 0
-1.2377759 1.5403664 -0.31278887 0
-1.1568516 1.5677013 -0.3125535 0
-1.0511572 1.5447779 -0.31512937 0
-0.94884872 1.5318187 -0.31756005 0
-0.84535497 1.542244 -0.31896165 0
-0.74916291 1.5616179 -0.32049471 0
-0.65108222 1.5366603 -0.3210229 0
-0.55370414 1.5557355 -0.32348132 0
-0.4565835 1.5631033 -0.32288748 0
-0.3532646 1.5407544 -0.32593349 0
-0.25082707 1.5444188 -0.32734841 0
-0.1437397 1.5475432 -0.32955429 0
-0.050013203 1.5530275 -0.3309406 0
0.049888186 1.5501449 -0.33190459 0
0.15004097 1.5482293 -0.33346608 0
0.23549928 1.5490303 -0.33454561 0
0.34586868 1.559491 -0.33488134 0
0.44862068 1.5443736 -0.33695441 0
0.55373627 1.5462792 -0.33847666 0
0.65441751 1.5600567 -0.33943683 0
0.74545342 1.5639296 -0.3403399 0
0.84492421 1.5347859 -0.34165069 0
0.93618608 1.5524808 -0.34245944 0
1.0484529 1.5404288 -0.34684741 0
1.1531417 1.5518353 -0.34795901 0
1.2566235 1.5658734 -0.3484084 0
1.3425919 1.5332514 -0.35003531 0
1.4408653 1.5534587 -0.35081682 0
1.5551629 1.5741204 -0.35195136 0
1.6397998 1.5319155 -0.35401741 0
1.7463083 1.5401767 -0.35570207 0
1.8460138 1.5589969 -0.35652584 0
1.9578393 1.5596631 -0.35798514 0
2.0545728 1.550259 -0.35992265 0
2.1539981 1.5619835 -0.36112881 0
2.2452927 1.5478235 -0.36289349 0
2.3205705 1.5430943 -0.3639127 0
2.430228 1.5417098 -0.36540917 0
2.5422103 1.5521724 -0.36730587 0
-2.1958439 1.6488163 -0.3001138 0
-2.07008 1.6491299 -0.30073649 0
-1.9526075 1.6491104 -0.30176738 0
-1.8413416 1.6476541 -0.30403703 0
-1.7443501 1.6531703 -0.30561695 0
-1.6392307 1.6451879 -0.30767438 0
-1.5469825 1.6444088 -0.30832535 0
-1.4726843 1.6578517 -0.30920541 0
-1.3638287 1.6505847 -0.31071386 0
-1.2431369 1.6432216 -0.31212324 0
-1.1444395 1.6311063 -0.31361821 0
-1.0596499 1.6572692 -0.31436086 0
-0.95636177 1.6206906 -0.31679404 0
-0.84537101 1.6696376 -0.31847897 0
-0.75909251 1.642406 -0.31927484 0
-0.65178376 1.6585906 -0.32155901 0
-0.54470801 1.652196 -0.3224521 0
-0.44508538 1.6444664 -0.32450032 0
-0.35218734 1.6342372 -0.32480606 0
-0.24807724 1.6482444 -0.32739618 0
-0.14986378 1.6709884 -0.32923701 0
-0.065798752 1.6651217 -0.3307983 0
0.039622866 1.6794112 -0.32969144 0
0.15659089 1.667523 -0.33227825 0
0.25251204 1.6757962 -0.33310804 0
0.35743394 1.6675979 -0.33479586 0
0.45295241 1.6467838 -0.33519995 0
0.5515821 1.6463811 -0.33889949 0
0.65817952 1.6342094 -0.33942422 0
0.7556932 1.666203 -0.3405081 0
0.85370517 1.6275737 -0.34198764 0
0.93957901 1.6732614 -0.34280083 0
1.0457284 1.6405489 -0.34493265 0
1.1324995 1.6590307 -0.34733915 0
1.2477726 1.6490217 -0.34834987 0
1.3563149 1.6414104 -0.34948877 0
1.4595983 1.6573174 -0.3508949 0
1.5466543 1.6554151 -0.35226056 0
1.6488109 1.6312028 -0.35426494 0
1.7478585 1.6563861 -0.35527879 0
1.8622682 1.6663988 -0.35667986 0
1.950923 1.647643 -0.357959 0
2.0447874 1.6370991 -0.35932598 0
2.1254227 1.6439695 -0.36079389 0
2.2332692 1.6520544 -0.36217058 0
2.3570116 1.6412673 -0.36448336 0
2.4609735 1.6619376 -0.36560294 0
2.5335433 1.6073251 -0.36840093 0
-2.1465507 1.7100301 -0.30034041 0
-2.0028663 1.7412122 -0.30151585 0
-1.9483572 1.7604084 -0.30223474 0
-1.8754739 1.7521293 -0.30302405 0
-1.7627319 1.7508339 -0.30594432 0
-1.6480348 1.7513665 -0.30691999 0
-1.5417067 1.7520094 -0.30882701 0
-1.4416707 1.7447286 -0.30917326 0
-1.3449705 1.7516446 -0.31044516 0
-1.2451752 1.7480586 -0.31187978 0
-1.1488876 1.7412724 -0.31298405 0
-1.050634 1.7515566 -0.31501931 0
-0.95067406 1.7430477 -0.31614822 0
-0.85791349 1.777391 -0.31651148 0
-0.7422061 1.734466 -0.31938648 0
-0.64285451 1.7532288 -0.32170185 0
-0.5440309 1.732928 -0.32189631 0
-0.44068184 1.7586057 -0.32394937 0
-0.35029849 1.7568264 -0.32454506 0
-0.2577242 1.7442828 -0.32691425 0
-0.15833181 1.7651794 -0.32865331 0
-0.048546612 1.7353823 -0.33109459 0
0.047918934 1.7502995 -0.33006385 0
0.13562009 1.7332481 -0.33179325 0
0.23422579 1.7564182 -0.33419657 0
0.33535311 1.7451116 -0.33508956 0
0.45290351 1.7442368 -0.33515811 0
0.55811632 1.734286 -0.33846444 0
0.65628731 1.7509762 -0.33906806 0
0.75193691 1.7572775 -0.34071812 0
0.85109037 1.7421222 -0.34168208 0
0.95352292 1.7564301 -0.34302559 0
1.0504892 1.751265 -0.34447739 0
1.1553217 1.7508258 -0.3468627 0
1.260864 1.7611065 -0.34773067 0
1.342575 1.7415061 -0.34895679 0
1.4408783 1.743708 -0.3504163 0
1.5570477 1.7527102 -0.35148096 0
1.6545744 1.7333359 -0.35321561 0
1.7404331 1.7716846 -0.35422966 0
1.8429687 1.7466295 -0.35618535 0
1.945901 1.749794 -0.3579886 0
2.0348685 1.7435416 -0.35840127 0
2.1520703 1.7397372 -0.36039415 0
2.2487495 1.7651824 -0.36245379 0
2.3522601 1.7611386 -0.36353841 0
2.4074066 1.7281107 -0.36479104 0
-2.0454235 1.8302749 -0.30064747 0
-1.945877 1.8617382 -0.30221942 0
-1.8379985 1.8446151 -0.30438921 0
-1.7262596 1.8346001 -0.30525339 0
-1.6537296 1.8615946 -0.30705276 0
-1.5493147 1.8478796 -0.30786341 0
-1.4455405 1.8457575 -0.30841556 0
-1.3416989 1.8551042 -0.309982 0
-1.2442297 1.8568383 -0.31191623 0
-1.1470664 1.8517421 -0.31275544 0
-1.0466053 1.8638194 -0.31417641 0
-0.95452631 1.8520788 -0.3158339 0
-0.83754313 1.8377264 -0.31641477 0
-0.74387819 1.8602933 -0.32018527 0
-0.63870984 1.8562635 -0.32083392 0
-0.54899079 1.8410516 -0.32215342 0
-0.43945321 1.8554332 -0.32322371 0
-0.33713239 1.8634794 -0.32473791 0
-0.25354916 1.8422832 -0.32628641 0
-0.15191989 1.8424503 -0.32780209 0
-0.059857555 1.8598416 -0.3297776 0
0.046466343 1.8541191 -0.32960835 0
0.15333647 1.8589427 -0.33172083 0
0.24712105 1.8561467 -0.33330455 0
0.34083429 1.8473732 -0.33427989 0
0.44741264 1.8306959 -0.33542764 0
0.5521462 1.8519293 -0.33706668 0
0.64139128 1.8558235 -0.33891317 0
0.74226546 1.8430275 -0.34006304 0
0.85062724 1.8539822 -0.34208494 0
0.95222849 1.8474607 -0.34277943 0
1.0497805 1.8504887 -0.34469861 0
1.1529696 1.8530003 -0.34641597 0
1.2463646 1.8353912 -0.34802514 0
1.3521976 1.8415866 -0.34856439 0
1.4490851 1.859596 -0.35038054 0
1.533455 1.8289438 -0.3516911 0
1.646338 1.8530967 -0.35277092 0
1.7573619 1.8677688 -0.35365337 0
1.84556 1.843191 -0.35641348 0
1.9381046 1.8367929 -0.35723799 0
2.0432093 1.8547564 -0.35849509 0
2.1523559 1.8442334 -0.35971379 0
2.2687125 1.860983 -0.36139172 0
2.31637 1.8363119 -0.36364266 0
-2.0439157 1.9933608 -0.30137596 0
-1.9501473 1.957172 -0.30233967 0
-1.8323945 1.9473544 -0.30396935 0
-1.7332249 1.9231575 -0.30575144 0
-1.6419096 1.9439058 -0.30635792 0
-1.5454298 1.9542508 -0.30666217 0
-1.4429803 1.9361073 -0.30855474 0
-1.3408108 1.9701825 -0.31095862 0
-1.2485329 1.9526294 -0.31042913 0
-1.1270865 1.9414288 -0.31361285 0
-1.0427601 1.9651161 -0.31432688 0
-0.95233768 1.9493246 -0.31534386 0
-0.85402268 1.9565339 -0.31696612 0
-0.74472272 1.9702718 -0.31948373 0
-0.65082914 1.9276699 -0.32024029 0
-0.55057812 1.9534228 -0.32245958 0
-0.45613566 1.9639442 -0.32264256 0
-0.36423412 1.9727769 -0.32321665 0
-0.25014114 1.9412231 -0.32670352 0
-0.15433083 1.9365168 -0.32740831 0
-0.048590343 1.9406819 -0.32961667 0
0.048457567 1.9334121 -0.3295508 0
0.14604481 1.9396979 -0.33152953 0
0.24358678 1.9348053 -0.33317572 0
0.35529268 1.9256945 -0.33430338 0
0.45662585 1.9487418 -0.33537677 0
0.55656356 1.9685054 -0.33689129 0
0.65948731 1.9533558 -0.33818907 0
0.7715283 1.95601 -0.33963355 0
0.84659427 1.9697061 -0.34121144 0
0.94962478 1.9438959 -0.34340623 0
1.0573056 1.9229288 -0.34425327 0
1.1544415 1.9562201 -0.34634063 0
1.2503306 1.9551995 -0.34765115 0
1.3469534 1.9491296 -0.34872532 0
1.4420946 1.964043 -0.34930605 0
1.5586166 1.942167 -0.35207134 0
1.660376 1.9517645 -0.35304356 0
1.7442021 1.954174 -0.35319027 0
1.8473743 1.9353273 -0.35505554 0
1.9595102 1.9385767 -0.35794601 0
2.0494938 1.9703475 -0.3586233 0
2.160331 1.9610354 -0.36041251 0
2.2324984 1.9129568 -0.36098301 0
-2.1080818 2.0559397 -0.30008739 0
-2.007525 2.014729 -0.30020177 0
-1.9702759 2.0640769 -0.30132416 0
-1.8520244 2.055047 -0.30326897 0
-1.7518383 2.0296896 -0.30485678 0
-1.6473845 2.0527556 -0.30514097 0
-1.5329361 2.0413318 -0.30745161 0
-1.4398297 2.0521426 -0.30912474 0
-1.331925 2.050066 -0.31013402 0
-1.2296336 2.0499964 -0.3114298 0
-1.1390761 2.0285044 -0.31271729 0
-1.0483394 2.0702002 -0.31389999 0
-0.94437885 2.0434079 -0.31453928 0
-0.84897232 2.0509593 -0.31797633 0
-0.74513972 2.0599656 -0.31866303 0
-0.64556217 2.0392797 -0.32018501 0
-0.54721355 2.0467772 -0.32171196 0
-0.44553986 2.078887 -0.32279459 0
-0.34484145 2.0311222 -0.32289076 0
-0.25221083 2.0364134 -0.32613721 0
-0.1498055 2.0414815 -0.32639405 0
-0.051432081 2.055583 -0.32870901 0
0.051619474 2.0570827 -0.32947755 0
0.15537967 2.063561 -0.33136451 0
0.25254175 2.0604157 -0.33322525 0
0.34837598 2.0530691 -0.33431429 0
0.44379786 2.0644922 -0.3354634 0
0.54901552 2.0535753 -0.33697453 0
0.64777213 2.0296826 -0.33749947 0
0.74990082 2.0273018 -0.34035027 0
0.84995747 2.0674961 -0.34065238 0
0.94477326 2.0439796 -0.34327316 0
1.037959 2.0497756 -0.34390861 0
1.1502109 2.0480256 -0.3453227 0
1.2509954 2.0521331 -0.3469317 0
1.3515766 2.048321 -0.34892201 0
1.4604332 2.0813251 -0.34967059 0
1.5384318 2.0335693 -0.35080376 0
1.6544145 2.0615289 -0.35338446 0
1.7456534 2.0520582 -0.35341173 0
1.8485029 2.0509403 -0.3544918 0
1.9558654 2.04897 -0.35648027 0
2.053021 2.0750103 -0.35849762 0
2.1150658 2.0334117 -0.36024749 0
-2.0510168 2.118161 -0.30014181 0
-1.937862 2.1397045 -0.30204645 0
-1.8529093 2.1781354 -0.30251384 0
-1.7474337 2.1457968 -0.30361858 0
-1.6413065 2.1587629 -0.30513215 0
-1.5468571 2.1387153 -0.30623192 0
-1.4536403 2.1692345 -0.30862689 0
-1.3388281 2.127198 -0.30913392 0
-1.2606001 2.1714339 -0.31131428 0
-1.1628865 2.1421509 -0.31215137 0
-1.063398 2.1766813 -0.31297716 0
-0.96148092 2.152719 -0.31446284 0
-0.85020798 2.1401865 -0.3173213 0
-0.7584278 2.144594 -0.31803748 0
-0.65619129 2.1432943 -0.320061 0
-0.55370432 2.1321084 -0.32128456 0
-0.44758439 2.1638002 -0.32213849 0
-0.35572949 2.1581514 -0.32322752 0
-0.25275332 2.1312566 -0.32587275 0
-0.1455452 2.1376159 -0.32557896 0
-0.054009717 2.1591232 -0.32831123 0
0.038829591 2.16396 -0.32912266 0
0.1478489 2.1704245 -0.33090571 0
0.25771809 2.1719949 -0.33270004 0
0.33547691 2.1415715 -0.33510947 0
0.4453423 2.1536436 -0.33475363 0
0.53961867 2.1412265 -0.33604434 0
0.65647525 2.1339996 -0.33754766 0
0.75043952 2.151593 -0.33955747 0
0.8513543 2.1583774 -0.34047878 0
0.94910479 2.1328743 -0.34292427 0
1.0473309 2.1565821 -0.34426579 0
1.1429658 2.1417611 -0.34450242 0
1.2460393 2.134398 -0.34684801 0
1.3511409 2.1465468 -0.34832001 0
1.4592129 2.1549823 -0.35030445 0
1.5579733 2.1218455 -0.35035059 0
1.6434236 2.1723537 -0.35182157 0
1.7525638 2.152113 -0.35512078 0
1.854266 2.1589224 -0.35440433 0
1.9376589 2.149864 -0.35538772 0
2.0057089 2.1012421 -0.3566688 0
-2.03391 2.2567773 -0.3002089 0
-1.9446805 2.2208183 -0.30140001 0
-1.8551768 2.2558815 -0.30224371 0
-1.7545642 2.2516804 -0.30281812 0
-1.6296273 2.2532034 -0.30524272 0
-1.5366541 2.2236915 -0.30758029 0
-1.450883 2.2687962 -0.30695471 0
-1.3435203 2.2401178 -0.30879784 0
-1.2397516 2.237344 -0.31167156 0
-1.1464729 2.254179 -0.31129855 0
-1.0657445 2.2631614 -0.31250757 0
-0.943461 2.2493742 -0.31494859 0
-0.84900922 2.2460847 -0.31624314 0
-0.75546461 2.2375929 -0.3178753 0
-0.64727134 2.2522945 -0.32068515 0
-0.55736208 2.251833 -0.3204813 0
-0.44844398 2.2491045 -0.32166329 0
-0.3420811 2.2579377 -0.32302836 0
-0.2575095 2.2377222 -0.32531545 0
-0.15133967 2.222728 -0.32529873 0
-0.056150168 2.2445364 -0.32805446 0
0.040358759 2.249557 -0.32898998 0
0.13742332 2.2556877 -0.3306165 0
0.23475425 2.2544343 -0.33171633 0
0.34987053 2.2564001 -0.33406213 0
0.46276328 2.2378623 -0.33478603 0
0.56060952 2.2245052 -0.33592817 0
0.64601183 2.2546022 -0.33741581 0
0.74829501 2.2695589 -0.33862278 0
0.85054976 2.2502511 -0.34052932 0
0.95810825 2.2389963 -0.34223393 0
1.0454514 2.2618241 -0.34430176 0
1.151415 2.234051 -0.34488633 0
1.239012 2.2443178 -0.34577298 0
1.3464291 2.2447002 -0.34785575 0
1.452247 2.2593544 -0.34973037 0
1.544722 2.2353113 -0.35071883 0
1.660861 2.261975 -0.35124364 0
1.7453828 2.2621381 -0.35347429 0
1.8325931 2.2503958 -0.35635209 0
-1.9531689 2.3295949 -0.30056977 0
-1.8526257 2.3427172 -0.30072409 0
-1.7529488 2.3520675 -0.30314669 0
-1.6522206 2.3548393 -0.30494395 0
-1.5382134 2.3312781 -0.30696809 0
-1.4584625 2.3543999 -0.30475053 0
-1.3642157 2.3499959 -0.30959538 0
-1.2547293 2.3374665 -0.30991551 0
-1.1545008 2.3633502 -0.31106859 0
-1.0455678 2.3177934 -0.31284958 0
-0.95176286 2.3633184 -0.31415001 0
-0.83638096 2.3650157 -0.3163844 0
-0.74962443 2.3299525 -0.31756297 0
-0.65261358 2.3731043 -0.31997338 0
-0.55742192 2.3522997 -0.32045779 0
-0.44884318 2.3386261 -0.32149884 0
-0.34869394 2.3603377 -0.32201248 0
-0.25564343 2.3557639 -0.32477838 0
-0.16003139 2.3503959 -0.32487845 0
-0.058290619 2.3299496 -0.32779768 0
0.041887928 2.3351543 -0.32885733 0
0.14263235 2.3412454 -0.3305257 0
0.24364172 2.3397577 -0.33165145 0
0.34656706 2.3455751 -0.33389547 0
0.45926523 2.3461185 -0.33464855 0
0.54355156 2.3325937 -0.33505398 0
0.64149934 2.3663831 -0.33684018 0
0.74100834 2.3607464 -0.33846131 0
0.84707499 2.3416116 -0.34044072 0
0.94715142 2.3517313 -0.34107655 0
1.0546575 2.3701065 -0.34377575 0
1.1581303 2.328269 -0.34528303 0
1.2478383 2.3791647 -0.34570795 0
1.3386227 2.3442256 -0.3470374 0
1.4497889 2.3526554 -0.34872961 0
1.5666482 2.3525262 -0.35099488 0
1.6609243 2.3314416 -0.35150254 0
-1.9413249 2.4548345 -0.30066815 0
-1.8365225 2.4277816 -0.30176371 0
-1.7443345 2.4479785 -0.30300581 0
-1.655562 2.4704905 -0.30488187 0
-1.5480694 2.4207833 -0.30537507 0
-1.4480397 2.4536633 -0.30768049 0
-1.3390871 2.4665205 -0.30888632 0
-1.2440512 2.4138486 -0.30969059 0
-1.1602286 2.4639585 -0.31065223 0
-1.0556126 2.4189746 -0.31226799 0
-0.95596093 2.4754014 -0.31402558 0
-0.85701299 2.4232972 -0.3156237 0
-0.75235379 2.4585352 -0.31781101 0
-0.63923568 2.4615357 -0.31992778 0
-0.54348809 2.4503603 -0.32047939 0
-0.46018866 2.4437749 -0.32076299 0
-0.34411919 2.4507339 -0.32222649 0
-0.2399828 2.4763184 -0.32421365 0
-0.15099275 2.4793437 -0.32437891 0
-0.069859922 2.4346218 -0.3272129 0
0.034797963 2.4399967 -0.3286173 0
0.14784136 2.4268031 -0.33043489 0
0.2525292 2.4250805 -0.33158654 0
0.35908139 2.4302464 -0.33356425 0
0.44506454 2.4448352 -0.33425859 0
0.55538571 2.4628813 -0.33508092 0
0.66017193 2.4693699 -0.33633113 0
0.74850917 2.4459369 -0.33792457 0
0.84013104 2.430609 -0.34063467 0
0.94401026 2.461529 -0.3406429 0
1.0517086 2.4577038 -0.34309492 0
1.1626651 2.4238346 -0.34544742 0
1.2534176 2.4752707 -0.3461042 0
1.3450482 2.4524662 -0.34659606 0
1.4349325 2.431489 -0.34817904 0
1.5229596 2.4196515 -0.35104564 0
-1.9598553 2.5525668 -0.30039158 0
-1.8404875 2.5447443 -0.30113825 0
-1.7411027 2.5195394 -0.30311275 0
-1.6342381 2.5555835 -0.30422735 0
-1.545249 2.5351021 -0.30466923 0
-1.4593333 2.5551827 -0.30752501 0
-1.3449007 2.5642817 -0.30804706 0
-1.233739 2.5255518 -0.30941737 0
-1.1459831 2.5755777 -0.31067151 0
-1.057982 2.5224595 -0.31215337 0
-0.96988308 2.5660243 -0.3133598 0
-0.85284871 2.5260973 -0.31563509 0
-0.76580483 2.5679097 -0.31716424 0
-0.65434772 2.5199716 -0.3196961 0
-0.54586625 2.5473683 -0.31989941 0
-0.44444519 2.555058 -0.32045546 0
-0.35761642 2.546633 -0.32133266 0
-0.24818861 2.561012 -0.32371947 0
-0.13795328 2.5689027 -0.32471612 0
-0.045549057 2.5476861 -0.32767856 0
0.045372497 2.5487113 -0.32854185 0
0.15565489 2.5551398 -0.33029866 0
0.25431007 2.5322077 -0.33123872 0
0.33835676 2.5427132 -0.33259913 0
0.45275441 2.5551493 -0.33417946 0
0.54972494 2.5651631 -0.33491489 0
0.64457273 2.5576193 -0.3354634 0
0.75654179 2.5370476 -0.33786783 0
0.86461025 2.5403807 -0.34062794 0
0.94930059 2.566268 -0.34112155 0
1.0442989 2.5612507 -0.34209773 0
1.1516453 2.5393937 -0.34484771 0
1.2561388 2.5253508 -0.34633827 0
-1.8589453 2.6494434 -0.30084929 0
-1.7557929 2.6200647 -0.30287862 0
-1.6734984 2.6586924 -0.30296159 0
-1.5451627 2.6616955 -0.30571973 0
-1.4452857 2.6173565 -0.30738235 0
-1.3488232 2.6637306 -0.30718517 0
-1.2371703 2.6273508 -0.30906013 0
-1.1451722 2.6762838 -0.31019694 0
-1.0567182 2.6239526 -0.31186637 0
-0.94078475 2.6601968 -0.31413907 0
-0.84518415 2.6271546 -0.31533971 0
-0.74279553 2.6513033 -0.31826994 0
-0.65382302 2.6329684 -0.31842288 0
-0.54678208 2.643568 -0.31975666 0
-0.47070807 2.6572576 -0.31971714 0
-0.32852748 2.6096036 -0.32294768 0
-0.25395802 2.6212962 -0.32338324 0
-0.1416478 2.6388495 -0.32449809 0
-0.047713071 2.6653905 -0.32732916 0
0.047377262 2.6585407 -0.32846668 0
0.14438732 2.6869006 -0.33083794 0
0.25452828 2.6664131 -0.33115759 0
0.35333028 2.6539872 -0.33217862 0
0.4539631 2.6738801 -0.33358827 0
0.55864578 2.6626823 -0.33504409 0
0.65389782 2.6476967 -0.33521923 0
0.74498969 2.6349125 -0.33702901 0
0.84302366 2.619817 -0.34016895 0
0.92698532 2.6210771 -0.34137022 0
-1.8560236 2.7696395 -0.30087531 0
-1.7655934 2.7180967 -0.30266076 0
-1.6671276 2.749459 -0.30251369 0
-1.5506884 2.761472 -0.30536318 0
-1.4471194 2.7117312 -0.30622575 0
-1.3525964 2.7688541 -0.30694053 0
-1.2583654 2.7225838 -0.30894542 0
-1.1628534 2.7724702 -0.30985299 0
-1.0537266 2.7285652 -0.31190601 0
-0.95846665 2.7730558 -0.31335336 0
-0.85575908 2.7264638 -0.31533173 0
-0.76109695 2.7678707 -0.31695691 0
-0.65180475 2.7517452 -0.31785768 0
-0.54540467 2.7354305 -0.31910071 0
-0.46721649 2.7519932 -0.31953636 0
-1.8727354 2.8680003 -0.30076122 0
-1.7537638 2.831238 -0.30144668 0
-1.6550152 2.8508554 -0.30356944 0
-1.5543513 2.8630531 -0.30472118 0
-1.4508636 2.8151164 -0.30575117 0
-1.3525828 2.8724391 -0.3066721 0
-1.2562255 2.8233464 -0.30850095 0
-1.1580573 2.8755877 -0.30969432 0
-1.0475652 2.832854 -0.31201774 0
-0.93260497 2.8514824 -0.31361425 0
-0.8434006 2.8281059 -0.3149069 0
-0.74540448 2.8706601 -0.31679916 0
-0.63311803 2.8532023 -0.31789616 0
-0.54259115 2.826797 -0.31843412 0
-0.48242915 2.8415987 -0.31909567 0
-1.8553659 2.9015219 -0.30131149 0
-1.7408444 2.9660833 -0.30159569 0
-1.6429363 2.9257002 -0.30388445 0
-1.5545578 2.9640191 -0.30408922 0
-1.4513121 2.9176664 -0.30484247 0
-1.3507735 2.9782953 -0.30676353 0
-1.2518827 2.9256649 -0.30807537 0
-1.1718782 2.970942 -0.30926037 0
-1.0601548 2.9309933 -0.31189203 0
-0.95615643 2.9720356 -0.31274927 0
-0.85008502 2.9271648 -0.31486705 0
-0.74639153 2.9615889 -0.31596631 0
-0.64927173 2.960227 -0.31738281 0
-0.55970705 2.915967 -0.31791717 0
-0.49764177 2.9312041 -0.31865498 0
-1.6561766 3.0300782 -0.30292037 0
-1.5562367 3.0733266 -0.30322754 0
-1.4499819 3.0228958 -0.30445164 0
-1.3664677 3.071115 -0.30633035 0
-1.2475032 3.0348856 -0.30780777 0
-1.1448975 3.0505998 -0.31005239 0
-1.0472492 3.0299449 -0.31154567 0
-0.9641856 3.0719023 -0.31239158 0
-0.86964035 3.0480492 -0.31406379 0
-0.74654174 3.0541906 -0.31552672 0
-0.63868958 3.0879464 -0.31692058 0
-0.5595715 3.0323977 -0.31745052 0
-1.5176712 3.1066835 -0.30249795 0
-1.4547358 3.1474895 -0.30493766 0
-1.353662 3.1629376 -0.30605206 0
-1.238235 3.1391792 -0.30778441 0
-1.1354654 3.1623213 -0.31016442 0
-1.0328426 3.1331568 -0.31142062 0
-0.94686162 3.1750336 -0.31189713 0
-0.83610809 3.1277447 -0.3145979 0
-0.74585938 3.1488442 -0.31509641 0
-0.65707111 3.1768222 -0.31635332 0
-0.55816352 3.1490993 -0.3170135 0
-1.3294547 3.2341125 -0.30592927 0
-1.2535912 3.2460973 -0.30764794 0
-1.1360317 3.2868338 -0.30973798 0
-1.0612195 3.2192311 -0.31084201 0
-0.97272694 3.2617655 -0.31114471 0
-0.85949945 3.2152536 -0.31387225 0
-0.76676035 3.2370882 -0.31448281 0
-0.65187997 3.2694852 -0.31576392 0
-0.55088603 3.244823 -0.31711257 0
-1.2232571 3.3075972 -0.30853271 0
-1.155021 3.3420148 -0.30936539 0
-1.0529445 3.3546295 -0.30998635 0
-0.93815023 3.3486748 -0.31205741 0
-0.85026026 3.3394787 -0.31301281 0
-0.74086607 3.3404889 -0.31472802 0
-0.64528668 3.3618171 -0.31533235 0
-0.57370502 3.379231 -0.31645155 0
-0.96733004 3.4219222 -0.31111893 0
-0.84451336 3.4552288 -0.31256792 0
-0.76051509 3.4290776 -0.31415784 0
-0.66240257 3.4509871 -0.31481537 0
-0.58891767 3.4688363 -0.31601086 0
-0.72731757 3.516685 -0.3141889 0
-0.62773597 3.5439439 -0.31488889 0
-2.8760016 -1.839159 -0.29869068 0
-2.797204 -1.8028095 -0.29979455 0
-2.9188118 -1.7650404 -0.29846519 0
-2.8279004 -1.7378125 -0.29929924 0
-2.9740448 -1.6561184 -0.29782444 0
-2.8939767 -1.6387849 -0.29868108 0
-3.0124934 -1.5755367 -0.29760095 0
-2.9303358 -1.5504699 -0.29841301 0
-2.8157954 -1.5945127 -0.29983503 0
-3.056061 -1.4525752 -0.29605594 0
-2.958436 -1.4408182 -0.29765454 0
-2.8613663 -1.4618181 -0.2980001 0
-2.7813158 -1.4209218 -0.29902831 0
-3.1124222 -1.3186715 -0.29573283 0
-3.054044 -1.3587862 -0.29657429 0
-2.9197397 -1.3621621 -0.29783386 0
-2.8384099 -1.3242173 -0.29903546 0
-2.7421203 -1.3033181 -0.29975739 0
-3.1208911 -1.243893 -0.29393816 0
-3.0502157 -1.2666528 -0.29547551 0
-2.9540255 -1.2514917 -0.29706708 0
-2.8606658 -1.2361689 -0.29871953 0
-2.7624993 -1.2173393 -0.29944408 0
-3.1550207 -1.1540554 -0.29392213 0
-3.0788219 -1.1512516 -0.29493591 0
-2.9899828 -1.1424335 -0.29624915 0
-2.8666055 -1.1503993 -0.29756969 0
-2.7602153 -1.1465696 -0.29979706 0
-3.1471214 -1.0500493 -0.29356655 0
-3.01615 -1.0545036 -0.29532814 0
-2.9258602 -1.0465358 -0.29671866 0
-2.8264599 -1.056891 -0.29808128 0
-2.738317 -1.0462744 -0.29945755 0
-3.2167075 -0.9467898 -0.29338229 0
-3.1405694 -0.94879711 -0.29404134 0
-3.0475147 -0.94454813 -0.29507962 0
-2.9511795 -0.93796074 -0.29617178 0
-2.8605063 -0.95443952 -0.29737812 0
-2.7670612 -0.94528413 -0.29849836 0
-2.6657991 -0.95350909 -0.29948056 0
-3.235117 -0.82774454 -0.29216081 0
-3.1694746 -0.85935712 -0.29410422 0
-3.082859 -0.83587033 -0.29520917 0
-2.983536 -0.85505241 -0.29626715 0
-2.8685164 -0.84428918 -0.29761091 0
-2.7538376 -0.83228493 -0.29892272 0
-2.6664917 -0.84063274 -0.29934129 0
-3.2363231 -0.73800015 -0.29189786 0
-3.1433334 -0.75669563 -0.29287654 0
-3.0402927 -0.75471038 -0.29481772 0
-2.9432423 -0.7454614 -0.29579833 0
-2.8231533 -0.74389648 -0.29789269 0
-2.7363963 -0.74192309 -0.29962891 0
-3.229641 -0.64622575 -0.29200745 0
-3.112855 -0.65549642 -0.29333925 0
-3.0251298 -0.63702416 -0.29448932 0
-2.9393229 -0.66303682 -0.29635531 0
-2.8519535 -0.64333069 -0.29762876 0
-2.7551842 -0.64217013 -0.29851165 0
-2.6493361 -0.6576525 -0.29883066 0
