# .PCD v0.7 - Point Cloud Data file format
VERSION 0.7
FIELDS x y z intensity
SIZE 4 4 4 4
TYPE F F F F
COUNT 1 1 1 1
WIDTH 1397
HEIGHT 1
VIEWPOINT 0 0 0 1 0 0 0
POINTS 1397
DATA ascii
-36.17268 -17.867008 4.9752398 11
-36.242439 -16.626455 4.9160066 11
-36.261349 -16.009932 4.8863177 11
-36.317944 -15.416621 4.8630385 11
-36.339764 -14.814701 4.8363996 11
-36.376747 -14.225086 4.8130555 11
-36.202606 -17.240839 6.3717771 12
-36.259571 -16.009306 6.2971654 12
-36.291111 -15.405371 6.2630157 12
-36.32737 -14.809776 6.2313647 12
-36.354176 -14.216368 6.1997304 12
-36.387165 -13.631127 6.1707606 12
-36.050808 -19.77903 6.5366058 12
-36.080265 -19.127409 6.490962 12
-36.122009 -18.491074 6.4495115 12
-36.152866 -17.857441 6.4080405 12
-36.32687 -14.205799 7.5991874 13
-36.36034 -13.621173 7.56392 13
-36.060062 -19.116968 7.9565854 13
-36.099079 -18.479578 7.9053106 13
-36.140678 -17.851641 7.8569503 13
-36.177032 -17.228859 7.809732 13
-36.196926 -16.605936 7.7612076 13
-36.227825 -15.99545 7.7172413 13
-36.270107 -15.3966 7.6778069 13
-36.319725 -14.806786 7.6419559 13
-36.217766 -15.991172 9.159833 14
-36.248241 -15.387462 9.1101713 14
-36.273323 -14.787994 9.0616198 14
-36.322552 -14.204224 9.0214729 14
-36.384651 -13.038642 8.9390497 14
-36.009033 -19.75671 9.5064716 14
-36.037762 -19.105425 9.4401598 14
-36.073299 -18.466631 9.3785286 14
-36.114246 -17.83881 9.3210993 14
-36.151821 -17.217054 9.2655058 14
-36.179516 -16.598133 9.2100353 14
-35.826889 -25.386024 0.79670501 8
-35.867046 -24.649885 0.78913033 8
-35.898926 -23.92145 0.78167135 8
-35.941265 -23.212648 0.77472121 8
-35.987152 -22.517874 0.76811796 8
-35.612137 -29.280495 0.83908647 8
-35.648369 -28.463688 0.82976574 8
-35.700466 -27.676643 0.82117277 8
-35.743824 -26.898865 0.81271935 8
-35.786987 -26.136312 0.80459064 8
-35.678707 -27.660488 2.3984678 9
-35.708549 -26.872972 2.3738313 9
-35.757046 -26.115051 2.3514147 9
-35.811958 -25.376011 2.3303435 9
-35.843361 -24.634125 2.3086393 9
-35.871338 -23.903547 2.2875984 9
-35.911415 -23.19381 2.2681687 9
-35.965088 -22.504478 2.2503955 9
-35.629807 -28.449625 2.422843 9
-35.643486 -27.6339 3.978231 10
-35.698605 -26.866154 3.9404855 10
-35.744598 -26.106579 3.9033334 10
-35.777699 -25.352303 3.8663366 10
-35.829197 -24.624918 3.8328242 10
-35.86636 -23.900717 3.7992158 10
-35.898739 -23.186073 3.7664971 10
-35.929291 -22.482491 3.7349439 10
-35.975784 -21.800205 3.7063413 10
-35.611206 -28.435543 4.0202141 10
-35.958954 -21.790392 5.1886635 11
-35.626438 -27.621387 5.5675092 11
-35.679115 -26.852148 5.514503 11
-35.721935 -26.090641 5.4622254 11
-35.765518 -25.34424 5.4122448 11
-35.802792 -24.607296 5.363409 11
-35.83749 -23.881968 5.316227 11
-35.86557 -23.165098 5.2700291 11
-35.917583 -22.475582 5.2292261 11
-35.845287 -23.152458 6.7862701 12
-35.890305 -22.458929 6.7325726 12
-35.932716 -21.774881 6.6807055 12
-35.961876 -21.093637 6.6286378 12
-35.611092 -27.610214 7.1694221 12
-35.650578 -26.831341 7.0986753 12
-35.690929 -26.068619 7.0310397 12
-35.733082 -25.321829 6.9665709 12
-35.777199 -24.59024 6.9051833 12
-35.827896 -23.876068 6.8476486 12
-35.796501 -23.855642 8.3902788 13
-35.831646 -23.144106 8.3193169 13
-35.869175 -22.446123 8.2518845 13
-35.924046 -21.770018 8.1912804 13
-35.942215 -21.082466 8.1250763 13
-35.99699 -20.426641 8.0698318 13
-35.622284 -26.810719 8.6981344 13
-35.667877 -26.052406 8.6166363 13
-35.719116 -25.312517 8.5399179 13
-35.7509 -24.572695 8.4618578 13
-35.777306 -23.843357 9.9548368 14
-35.806881 -23.128578 9.8692036 14
-35.844376 -22.431044 9.7893 14
-35.883797 -21.746021 9.7133255 14
-35.919594 -21.069563 9.639657 14
-35.72773 -24.557322 10.038552 14
-35.210938 -36.45993 0.92597443 8
-35.264832 -35.483353 0.91356468 8
-35.316856 -34.531197 0.90161979 8
-35.376511 -33.611168 0.89035863 8
-35.426548 -32.705296 0.87932032 8
-35.471687 -31.817278 0.86860812 8
-35.50494 -30.940193 0.85803664 8
-35.553478 -30.096748 0.8482464 8
-35.241688 -35.461391 2.6602924 9
-35.287437 -34.503677 2.6257539 9
-35.349541 -33.586697 2.5938814 9
-35.405457 -32.686901 2.5629237 9
-35.455772 -31.80402 2.5328741 9
-35.496048 -30.93339 2.5033734 9
-35.547329 -30.092422 2.4758563 9
-35.589321 -29.262554 2.448848 9
-35.270168 -34.488033 4.3549924 10
-35.321877 -33.561573 4.3011184 10
-35.37064 -32.655838 4.2491899 10
-35.421967 -31.7747 4.1997657 10
-35.479427 -30.919849 4.1531477 10
-35.512234 -30.063595 4.1056523 10
-35.548752 -29.230017 4.0605407 10
-35.212574 -35.43343 4.4105501 10
-35.351234 -32.639011 5.9452133 11
-35.387669 -31.744951 5.8737516 11
-35.438568 -30.885187 5.8076515 11
-35.491913 -30.047279 5.7447386 11
-35.539127 -29.222927 5.6835074 11
-35.580349 -28.411671 5.6238899 11
-35.24287 -34.462597 6.0915675 11
-35.296314 -33.53846 6.0166602 11
-35.3666 -31.727072 7.5618973 12
-35.418961 -30.869057 7.4772282 12
-35.46207 -30.0229 7.3942199 12
-35.511467 -29.201015 7.3159885 12
-35.554966 -28.392172 7.2398429 12
-35.217155 -34.438702 7.8409381 12
-35.278625 -33.522823 7.7463899 12
-35.320148 -32.611412 7.6516113 12
-35.583096 -27.589233 8.7847843 13
-35.38826 -30.843266 9.160821 13
-35.437099 -30.002659 9.0606833 13
-35.482845 -29.178314 8.9639978 13
-35.53056 -28.373468 8.8718605 13
-35.244869 -33.491943 9.4894819 13
-35.305275 -32.598801 9.3784809 13
-35.359123 -31.721413 9.2705469 13
-35.046192 -39.560574 0.96651435 8
-35.098053 -38.492882 0.95232338 8
-35.150223 -37.45713 0.93874872 8
-35.077488 -38.471947 2.7713788 9
-35.126129 -37.432961 2.732209 9
-35.177563 -36.426788 2.6949635 9
-35.017925 -39.530399 2.8114779 9
-34.983707 -39.493511 4.6596336 10
-35.040237 -38.432716 4.5929742 10
-35.103508 -37.410381 4.5301566 10
-35.158733 -36.40871 4.4691033 10
-35.077309 -37.384003 6.33635 11
-35.128986 -36.379349 6.250453 11
-35.192375 -35.414452 6.1703749 11
-34.964504 -39.473591 6.518508 11
-35.007935 -38.398926 6.422966 11
-35.172325 -35.395615 7.9435496 12
-34.935673 -39.442806 8.3892536 12
-34.993126 -38.384342 8.2696896 12
-35.050713 -37.357201 8.155509 12
-35.105476 -36.356441 8.0457525 12
-35.141064 -35.365532 9.7315245 13
-35.193092 -34.416451 9.6078606 13
-28.880375 -6.7436686 0.52579153 8
-28.90344 -6.3135386 0.52400023 8
-28.920099 -5.8841276 0.52220947 8
-28.94556 -5.4583974 0.52069527 8
-28.867149 -6.7405825 1.5615931 9
-28.865578 -6.3052669 1.5559533 9
-28.914194 -5.8829217 1.5533634 9
-28.916073 -5.4528275 1.5486029 9
-28.836779 -6.7334943 2.5987179 10
-28.866718 -6.3055148 2.5925014 10
-28.900097 -5.8800483 2.5871613 10
-28.92902 -5.4552617 2.581985 10
-28.839531 -6.7341399 3.644222 11
-28.852907 -6.3024964 3.6336222 11
-28.870621 -5.8740449 3.6243749 11
-28.938583 -5.4570565 3.6222167 11
-28.839893 -6.2996521 4.6828671 12
-28.871557 -5.8742309 4.6733546 12
-28.954672 -5.4600835 4.673162 12
-28.814751 -6.2941575 5.7404494 13
-28.844122 -5.8686433 5.7284527 13
-28.994289 -5.467546 5.7416234 13
-28.808313 -6.2927504 6.8151274 14
-28.834244 -5.8666286 6.8001647 14
-29.027287 -5.4737606 6.8259859 14
-28.802847 -6.2915554 7.9070964 15
-28.813576 -5.8624172 7.8856525 15
-29.046806 -5.4774327 7.9266777 15
-28.796429 -7.1609135 4.7082219 12
-28.797998 -6.7244487 5.7562289 13
-28.772757 -6.7185574 6.8293037 14
-28.781034 -6.7204933 7.9272518 15
-26.824619 31.19095 0.69816959 8
-26.868753 32.163998 0.71146584 8
-26.921865 33.183365 0.72563994 8
-26.978832 34.245853 0.74060732 8
-27.037853 35.352062 0.75636566 8
-27.093615 36.497894 0.77281815 8
-26.8011 31.16152 2.1343765 9
-26.863798 32.155846 2.1760783 9
-26.905821 33.16124 2.2180135 9
-26.959337 34.218597 2.2629104 9
-27.011547 35.315018 2.3098574 9
-27.064289 36.455551 2.359153 9
-26.834558 32.118622 3.6420548 10
-26.880501 33.127659 3.7126155 10
-26.931095 34.180244 3.7871704 10
-26.993063 35.28817 3.8669319 10
-27.050203 36.433739 3.9498723 10
-26.810566 32.087677 5.1146479 11
-26.863379 33.104187 5.2149711 11
-26.909405 34.150192 5.318675 11
-26.961586 35.244343 5.4286003 11
-27.030079 36.403767 5.5472293 11
-26.843557 33.077377 6.7274957 12
-26.879841 34.110142 6.8587103 12
-26.943436 35.217915 7.0033402 12
-26.994648 36.353184 7.1517067 12
-26.780355 31.135303 3.5735312 10
-26.76293 31.112938 5.0197358 11
-26.741426 31.085821 6.4753666 12
-26.787214 32.057476 6.5972815 12
-26.711412 31.048796 7.9421735 13
-26.775398 32.041058 8.0971537 13
-15.609018 22.345497 0.46459907 8
-15.619634 22.358824 1.4184538 9
-15.264152 15.372952 0.36788327 8
-15.264994 22.534986 0.46421361 8
-15.25442 15.362259 1.124596 9
-15.263412 22.530718 1.415597 9
-15.261297 15.368278 1.8850927 10
-14.969258 15.515061 0.36619034 8
-15.015112 22.865829 0.46682593 8
-14.957765 15.502229 1.119101 9
-14.996503 22.835493 1.4213643 9
-14.963595 15.507329 1.8757074 10
-14.749022 15.732461 0.36637706 8
-14.596231 16.024193 0.36834943 8
-14.738471 15.720244 1.1195464 9
-14.580112 16.005491 1.1249409 9
-14.650458 15.852326 1.8790163 10
-14.230934 30.413633 0.57721013 8
-14.236772 30.422241 1.7516336 9
-14.227921 30.399483 2.9280365 10
-13.841871 8.3930874 0.27544084 8
-13.714619 30.440552 0.57449883 8
-13.847422 8.3961401 0.84178227 9
-13.832935 8.3870478 1.4085853 10
-13.826719 8.382967 1.9788269 11
-13.715147 30.43771 1.7415855 9
-13.838438 8.3897505 2.5567472 12
-13.838964 8.3897505 3.1394894 13
-13.72138 30.447495 2.9139686 10
-13.845235 8.3932247 3.7317536 14
-13.824822 8.3805246 4.3257833 15
-13.452126 8.423193 0.27001068 8
-13.211139 30.483534 0.57226002 8
-13.439856 8.4151926 0.82422227 9
-13.443596 8.4172106 1.3810642 10
-13.441965 8.4158659 1.9408215 11
-13.202562 30.459578 1.7324054 9
-13.41249 8.3970957 2.5000467 12
-13.422777 8.403203 3.0721102 13
-13.436846 8.4116726 3.6538391 14
-13.42005 8.4008226 4.2364211 15
-13.04422 8.4308405 0.26418433 8
-13.05579 8.4379826 0.80797946 9
-13.053202 8.4359779 1.3532345 10
-13.04645 8.4312849 1.9009769 11
-13.04871 8.4324083 2.4545331 12
-13.036076 8.4239063 3.0109653 13
-13.038791 8.4253168 3.5781195 14
-12.665926 8.5789757 0.26015228 8
-12.670069 8.9850197 0.26405561 8
-12.707564 9.5711994 0.27036133 8
-12.712178 9.8636913 0.27340919 8
-12.723751 10.16846 0.27674052 8
-12.664024 8.5773916 0.79496396 9
-12.757461 30.633966 0.57218605 8
-12.671385 8.9855728 0.8072629 9
-12.687809 9.5559044 0.8253566 9
-12.708865 9.8606691 0.83580881 9
-12.726461 10.170143 0.84644729 9
-12.651041 8.5681963 1.3303758 10
-12.664458 8.9802818 1.3516611 10
-12.69288 9.5592928 1.38332 10
-12.697052 9.8510571 1.3990014 10
-12.718904 10.163629 1.4173009 10
-12.6533 8.5692377 1.8701797 11
-12.645613 8.9665413 1.8969792 11
-12.673789 9.403594 1.9311572 11
-12.683625 9.8401899 1.9643077 11
-12.735198 30.576183 1.7290634 9
-12.652349 8.5682487 2.4141855 12
-12.648131 8.9679403 2.4494705 12
-12.672411 9.5430231 2.5060928 12
-12.688563 9.8435583 2.5369177 12
-12.703381 10.150263 2.5687006 12
-12.650822 8.566905 2.9639966 13
-12.631482 8.9557514 3.0037327 13
-12.646177 9.3823013 3.0546391 13
-12.688565 10.137938 3.1504352 13
-12.636647 8.5568886 3.5176282 14
-12.61616 8.9445 3.5644736 14
-12.646082 9.3817396 3.629252 14
-12.662353 9.8223038 3.6934667 14
-12.687767 10.136805 3.7428741 14
-10.460189 -4.7962923 -0.19538696 7
-10.569485 -3.9578133 -0.1924701 7
-10.633677 -3.1345499 -0.18992411 7
-10.676671 -2.3316388 -0.18810332 7
-10.670385 -1.5402 -0.18645068 7
-10.633791 -0.76358497 -0.18525001 7
-10.566176 2.7669827e-05 -0.18444701 7
-10.465569 0.75164407 -0.18397301 7
-10.158712 -6.5568948 -0.20369753 7
-10.340888 -5.6700478 -0.19942449 7
-10.370924 1.4975315 -0.18449411 7
-9.6761675 -8.4252443 -0.21484095 7
-9.9442253 -7.478126 -0.20892598 7
-9.3486271 -9.3977757 -0.221479 7
-8.9836721 -10.42751 -0.22960347 7
-9.0228434 5.8333192 -0.19224077 7
-8.5281019 -11.465452 -0.2381662 7
-8.7020283 6.5564466 -0.19508295 7
-8.01931 -12.569484 -0.24847384 7
-8.3352213 7.2735829 -0.19807622 7
-8.237277 1.6765311 0.14514209 8
-8.2251368 1.6740152 0.58534086 9.5
-8.2276659 1.6744844 1.0296086 11
-8.2214108 1.6731811 1.3275828 12
-8.2210884 1.673069 1.7825887 13.5
-8.2005644 1.6688452 2.2413273 15
-7.7811375 1.7003527 -0.14070316 7
-7.9293766 7.9911633 -0.20142499 7
-7.7784572 1.6997352 0.13740078 8
-7.7816014 1.7003742 0.55569583 9.5
-7.7711763 1.6980489 0.97539258 11
-7.7629509 1.6962035 1.4003609 12.5
-7.7625136 1.6960588 1.8333328 14
-7.755868 1.6945735 2.1262121 15
-7.427793 -13.718534 -0.26015201 7
-7.4793167 8.7065067 -0.20506887 7
-7.3808055 1.7241598 0.263513 8.5
-7.3653913 1.7205102 0.66037309 10
-7.362905 1.7198792 1.0618663 11.5
-7.3621159 1.7196435 1.4684764 13
-7.3486657 1.7164682 1.7412292 14
-7.348207 1.7163259 2.0210085 15
-7.003489 9.447094 -0.20964427 7
-6.9940534 1.7400388 0.25024399 8.5
-6.9941344 1.7400062 0.62922579 10
-6.9917769 1.7393671 1.0117404 11.5
-6.9915843 1.7392659 1.3994007 13
-6.9913077 1.7391422 1.7959597 14.5
-6.7454977 -14.920439 -0.27346197 7
-6.4693484 10.179199 -0.21436866 7
-6.668591 1.7610848 0.23954861 8.5
-6.6506076 1.7562826 0.60049903 10
-6.6566944 1.7578341 0.96687633 11.5
-6.6639795 1.7596822 1.4644275 13.5
-6.6359701 1.7522312 1.8382404 15
-6.309782 1.861706 -0.1165296 7
-6.3300095 2.3731201 -0.12007992 7
-6.359303 2.9201114 -0.12459068 7
-6.3738437 3.5007865 -0.12971318 7
-6.3031325 1.9090627 0.22858755 8.5
-6.31531 2.2143693 0.23204212 8.5
-6.3374362 2.6261551 0.23754139 8.5
-6.3602004 2.9905789 0.24320461 8.5
-6.3734899 3.4122441 0.25002295 8.5
-6.3923001 3.6923451 0.29826605 8.666667
-6.3208704 1.8402359 0.57470107 10
-6.3124599 2.1881897 0.58310646 10
-6.3330197 2.6378195 0.59853631 10
-6.3461485 2.9976401 0.61215508 10
-6.3718181 3.4112291 0.63024747 10
-6.3860722 3.6885564 0.64298791 10
-6.2844353 1.903324 0.92211133 11.5
-6.3045897 2.2105122 0.93792677 11.5
-6.3290186 2.6360011 0.96245843 11.5
-6.3548269 3.0294213 0.94658625 11.333333
-6.3639865 3.406971 1.0130448 11.5
-6.3773923 3.6833873 1.0334961 11.5
-6.2813511 1.9022624 1.3945431 13.5
-6.3031545 2.2097831 1.4192597 13.5
-6.3188577 2.6316147 1.4543471 13.5
-6.3420811 2.9953742 1.3620281 13
-6.3609967 3.3756344 1.3983074 13
-6.374877 3.6817689 1.4293448 13
-6.2807074 1.9020262 1.7576607 15
-6.2975693 2.2416008 1.790463 15
-6.3175297 2.6309872 1.8329326 15
-6.3373761 2.9930105 1.7468872 14.5
-6.352191 3.4002008 1.7956599 14.5
-6.3649817 3.6758347 1.8318288 14.5
-5.9576263 -16.173445 -0.28851458 7
-5.8825541 10.913671 -0.21952595 7
-5.2440982 11.66176 -0.22537056 7
-5.0561066 -17.499943 -0.30588281 7
-4.8712292 -1.8228924 -0.27060515 6
-4.9284339 -1.4520211 -0.26768908 6
-4.9997802 -1.0914392 -0.26701593 6
-5.0165782 -0.72389358 -0.26485419 6
-5.0399714 -0.36183795 -0.26443255 6
-5.0237956 0.18010907 -0.26381671 6
-4.9547596 0.71554023 -0.26308697 6
-4.8751321 1.0655077 -0.26256844 6
-4.4949923 -2.8981256 -0.27727374 6
-4.6489706 -2.5467491 -0.27510259 6
-4.7730112 -2.1868696 -0.27279761 6
-4.799448 1.416322 -0.26358372 6
-4.6880536 1.7579811 -0.26397356 6
-4.5779285 2.1028247 -0.26580539 6
-4.4173737 2.4272914 -0.2660827 6
-4.5429635 12.413692 -0.23173979 7
-4.5428576 15.838263 0.28792739 8
-4.5205479 12.91842 0.71692246 9
-4.5870461 10.815641 1.027064 10
-4.4122467 5.6108966 1.386822 13
-4.5122371 7.5740294 1.3955154 12
-4.556849 9.233305 1.2634225 11
-4.1444969 -3.6033785 -0.2842676 6
-4.3447547 -3.2631693 -0.28144962 6
-4.2484226 2.7491038 -0.26722264 6
-4.07832 3.0760703 -0.2697829 6
-4.1735206 15.828502 0.28665403 8
-4.2205839 12.948704 0.71386421 9
-4.3241272 10.840223 1.0206273 10
-4.3114243 2.7888043 1.3757931 15
-4.1548152 2.993968 1.3727932 15
-4.2135224 4.2289238 1.3781321 14
-4.0140495 4.4134126 1.3772292 14
-4.1536422 5.7780728 1.3830625 13
-4.2582073 7.6814823 1.3906705 12
-4.1433673 9.3041954 1.250312 11
-3.7032177 -4.289773 -0.29311204 6
-3.9376812 -3.9515955 -0.28860956 6
-3.8728335 3.3838956 -0.27156407 6
-3.638427 3.6724017 -0.27285117 6
-3.7782614 13.185376 -0.23897941 7
-3.8154976 15.848388 0.28605825 8
-3.6490009 -8.0567188 0.46902218 9
-3.7140458 -6.7312045 0.67720526 10
-3.8164208 12.961023 0.70882922 9
-3.765487 -5.6647301 0.83898133 11
-3.8142695 10.904146 1.0110321 10
-3.8032887 3.419152 1.3711143 15
-3.7745697 4.5945187 1.3733276 14
-3.8532639 5.9727316 1.3815612 13
-3.6690993 6.0628905 1.3776513 13
-3.7525661 7.8907504 1.3841498 12
-3.7734442 9.3648052 1.2399263 11
-3.4297893 -4.600193 -0.29678163 6
-3.2140901 -0.94644517 -0.29206905 5
-3.2730877 -0.59291124 -0.29053733 5
-3.2937067 -0.23642161 -0.28864211 5
-3.2960067 0.11792225 -0.28886527 5
-3.2280366 0.58522332 -0.28781682 5
-3.4016576 3.9669936 -0.27561945 6
-3.3977034 -9.8539696 0.18831961 8
-3.4530313 15.833006 0.2850084 8
-3.4120584 -8.0633059 0.46418697 9
-3.3880382 -6.7547455 0.66554409 10
-3.4195457 12.978112 0.70474386 9
-3.3830245 -5.7330227 0.82099402 11
-3.3942966 10.951077 1.004015 10
-3.4288654 -3.0518649 1.231238 15
-3.3966172 3.7902136 1.365144 15
-3.5360789 4.7751822 1.372161 14
-3.3546467 4.8879614 1.3694074 14
-3.3983734 6.2042675 1.3756521 13
-3.3716207 8.0369644 1.3810843 12
-3.3698924 9.4214077 1.229327 11
-2.8395579 -5.2267342 -0.30788901 6
-3.1470978 -4.9189067 -0.30210313 6
-2.9346259 -1.7452627 -0.29705599 5
-3.0813665 -1.410699 -0.29494092 5
-3.1544039 -1.1796632 -0.29332459 5
-3.1176431 1.0435474 -0.28882346 5
-2.928009 1.4758554 -0.28831691 5
-3.1403658 4.2452893 -0.27823436 6
-2.8600712 4.5119605 -0.2811144 6
-2.9342535 13.949329 -0.24664469 7
-2.9556494 -9.8064518 0.18466759 8
-2.9765429 15.816965 0.28392175 8
-3.0091307 -8.057806 0.45573086 9
-3.012785 -6.7738419 0.65276492 10
-2.885251 -5.8005409 0.79871911 11
-3.1251936 12.99101 0.70210308 9
-3.0828567 -5.7776899 0.80747044 11
-2.9022615 -3.3113773 1.1807926 15
-2.9354117 10.987106 0.99669093 10
-3.090826 -3.2363784 1.2000021 15
-3.1805494 -3.1906846 1.2080116 15
-2.9557335 4.1366501 1.3638539 15
-3.0337636 5.070682 1.3655246 14
-3.0681572 6.3391328 1.3698649 13
-2.8300679 6.4263272 1.3660916 13
-2.9507492 8.1618786 1.3758768 12
-2.9718797 9.4728603 1.2204169 11
-2.6338911 -12.352593 -0.21369004 7
-2.5087278 -5.5261984 -0.31438816 6
-2.4982734 -2.502815 -0.3070831 5
-2.7035861 -2.1833336 -0.30206349 5
-2.4148083 -0.52671462 -0.30280155 4
-2.4505608 -0.26434717 -0.30249497 4
-2.4270256 0.21857293 -0.30000561 4
-2.7825999 1.8022019 -0.29141772 5
-2.5807958 2.0991106 -0.29258817 5
-2.5589128 4.7626081 -0.28405708 6
-2.6055543 -9.7744207 0.18203503 8
-2.624347 15.812961 0.28342086 8
-2.6199694 -8.0540485 0.44842592 9
-2.5665934 -6.7917638 0.63898671 10
-2.5952997 -5.8309336 0.78679538 11
-2.5915377 13.010604 0.69808322 9
-2.5159459 -3.9298434 1.0785941 14
-2.6216877 -3.4268277 1.1571282 15
-2.5616279 11.003203 0.99070185 10
-2.5979738 4.3334961 1.3556865 15
-2.4272559 4.4377685 1.3571223 15
-2.5820575 5.2902536 1.3608053 14
-2.5472441 6.5340614 1.3648983 13
-2.5556135 8.2550678 1.3706439 12
-2.5382979 9.5072451 1.2103095 11
-2.1395323 -5.7779756 -0.31953132 6
-2.1593387 -2.8894343 -0.31328273 5
-2.323096 -2.6855907 -0.30835479 5
-2.1248338 -1.3674726 -0.30922636 4
-2.3090904 -0.95876014 -0.3060025 4
-2.3847177 -0.7018559 -0.30433732 4
-2.359386 0.6055271 -0.29998022 4
-2.2208822 1.021978 -0.30173686 4
-2.049746 1.3287866 -0.30110493 4
-2.3506062 2.3762326 -0.29365116 5
-2.1032648 2.6449728 -0.29680982 5
-2.2416813 5.0047636 -0.28758484 6
-2.0104015 14.735101 -0.25534949 7
-2.1891396 -9.7347431 0.1791053 8
-2.2746582 15.805538 0.28302732 8
-2.1734126 -8.0267859 0.43986943 9
-2.1889977 -6.8049474 0.62877363 10
-2.2190709 -5.8674726 0.77307087 11
-2.1567171 13.010344 0.69471788 9
-2.2083762 -4.5140109 0.97856587 13
-2.1180751 -4.0307922 1.0523849 14
-2.1749454 -3.7987928 1.088434 14.5
-2.2160864 -3.5697174 1.1268005 15
-2.1947298 11.029268 0.98684263 10
-2.174509 4.5415516 1.3515407 15
-2.2215672 5.4332547 1.3573501 14
-2.1920865 6.6370373 1.3608562 13
-2.1603537 8.3382387 1.3667489 12
-2.149019 9.5477858 1.2043711 11
-1.7569937 -6.039711 -0.32665876 6
-1.7552273 -3.2198813 -0.31878462 5
-1.9638638 -3.0609355 -0.31596583 5
-1.8205638 -1.8212203 -0.31497273 4
-1.6055334 -1.2012422 -0.31607193 3
-1.7202784 -0.9800778 -0.31278679 3
-1.8997614 -0.48582399 -0.31003818 3
-1.9237955 -0.27735218 -0.30742496 3
-1.9157599 0.27676642 -0.30698851 3
-1.8472279 0.58205396 -0.30809754 3
-1.6769096 0.96428752 -0.30804026 3
-1.9704416 1.4894211 -0.30446556 4
-1.7387152 1.7613083 -0.30544704 4
-1.7334226 2.9744997 -0.30181232 5
-1.8989811 5.2153029 -0.29043728 6
-1.8153305 -9.6776657 0.1762948 8
-1.8118914 15.794411 0.28270155 8
-1.8348378 -8.0127249 0.43445709 9
-1.8304323 -7.9951229 0.43345049 9
-1.7941464 -6.8087234 0.61903739 10
-1.765033 -6.7989874 0.61742729 10
-1.8271651 -5.8882222 0.75952888 11
-1.8689761 13.004555 0.69266939 9
-1.767853 -5.1662865 0.866723 12
-1.7897171 -4.5904627 0.95932001 13
-1.8286185 -4.0983901 1.0373501 14
-1.8167264 -3.6737952 1.0991095 15
-1.6557612 9.5831957 1.1976326 11
-1.7467257 11.040725 0.98170406 10
-1.8335645 4.6794953 1.3498312 15
-1.7827067 5.5604925 1.3509228 14
-1.7651879 6.7244325 1.3542461 13
-1.8823282 8.3714399 1.3618637 12
-1.7029678 8.4170761 1.3633467 12
-1.8665166 9.5694838 1.2002521 11
-1.3471377 -6.2730284 -0.33376467 6
-1.423888 -3.446341 -0.32474285 5
-1.4219136 -2.2119837 -0.32187727 4
-1.2372563 -1.6477786 -0.32491988 3
-1.4248405 -1.4233699 -0.31798217 3
-1.3053697 -1.0124176 -0.32016155 2
-1.3139619 -0.65726995 -0.31819248 1.3333334
-1.4610991 -0.3183631 -0.31514221 1.5
-1.445817 0.31632987 -0.31305456 1.5
-1.2884815 0.65111983 -0.3152017 1.3333334
-1.428445 1.045175 -0.31061649 2.5
-1.3720872 1.3918 -0.31113482 3
-1.4123566 2.0705664 -0.30854222 4
-1.4187299 3.1801043 -0.30448619 5
-1.5428618 5.4206018 -0.29420054 6
-1.3840328 -9.646554 0.1739105 8
-1.3520223 15.77298 0.28245455 8
-1.4116079 -7.9811473 0.42787784 9
-1.3738354 -6.8043323 0.60980415 10
-1.4012791 -5.9061089 0.7473582 11
-1.3951637 13.00725 0.69067311 9
-1.3951426 -5.2053728 0.8551634 12
-1.5928172 -5.1947484 0.86225963 12
-1.3873305 -4.6351733 0.94184709 13
-1.3957156 -4.1650567 1.0152544 14
-1.4128008 -3.761549 1.0774206 15
-1.3387538 9.5859013 1.1925826 11
-1.385007 11.057425 0.97944194 10
-1.4738718 4.7810574 1.3435796 15
-1.2993751 4.8250909 1.3422457 15
-1.3739496 5.6556697 1.3471153 14
-1.3952296 6.7858334 1.3500043 13
-1.2219868 6.8070955 1.347888 13
-1.3614296 8.4301281 1.3563514 12
-0.94008029 -3.6971362 -0.33297727 5
-1.0253278 -2.4697688 -0.32754955 4
-1.0239971 -1.7899563 -0.32604808 3
-0.9624303 -1.3796829 -0.32674992 2
-1.0025136 -1.0102645 -0.32488674 1
-1.0520912 -0.68679953 -0.32283565 0.25
-1.1627306 -0.25318021 -0.31810853 0
-1.1523849 0.25222585 -0.31682616 0
-1.0301059 0.68253833 -0.32046044 0.25
-1.0066645 0.99669892 -0.31700763 1.1666666
-1.0430766 1.3883239 -0.31531033 2.3333333
-0.93027949 1.7482926 -0.31443268 3
-1.1106058 2.2751176 -0.31104323 4
-0.86848962 2.4097335 -0.31389049 4
-1.0812385 3.3588681 -0.30799159 5
-1.1704202 5.6173697 -0.29872385 6
-0.9940663 15.539344 -0.26511964 7
-0.99222738 -9.5888939 0.17145415 8
-1.0100775 15.768687 0.28263992 8
-0.97115296 -7.9617639 0.42281598 9
-1.0035467 -6.7882051 0.60236174 10
-0.98477042 -5.9124146 0.73758578 11
-0.92419928 13.004857 0.68928254 9
-1.0067071 -5.2212143 0.84356725 12
-1.0228622 -4.6662526 0.92955333 13
-1.0496585 -4.2038002 1.0010498 14
-1.0552429 -3.811343 1.0602639 15
-0.88539773 9.5895109 1.1873851 11
-1.0258763 9.6019859 1.1903529 11
-0.94284129 11.053588 0.97587949 10
-0.98234773 4.8875694 1.3398803 15
-0.95996177 5.7139854 1.3417304 14
-0.97527719 6.836246 1.3464538 13
-0.96208632 8.4453506 1.3509147 12
-0.67381382 -2.6283951 -0.3330791 4
-0.5279609 -2.0416679 -0.33423811 3
-0.64530247 -1.7983057 -0.33326939 2.5
-0.63964576 -1.3830485 -0.33101159 1.3333334
-0.67757368 -1.0824101 -0.32885188 0.25
-0.6460067 1.0564777 -0.321428 0.25
-0.59380704 1.3935502 -0.32081467 1.5
-0.5768832 1.9351599 -0.31955424 3
-0.61022395 2.5208638 -0.31730148 4
-0.59900826 3.5464849 -0.31271645 5
-0.77656281 5.7800803 -0.30271572 6
-0.66923952 15.760383 0.2829152 8
-0.76645547 -7.9332557 0.41982108 9
-0.70673645 -6.7816148 0.59807354 10
-0.63800609 -5.8951802 0.72915417 11
-0.54914695 12.996266 0.68850923 9
-0.62428516 -5.2245607 0.83419025 12
-0.62880272 -4.6767488 0.91795808 13
-0.61538881 -4.2228875 0.98580647 14
-0.61848158 -3.8467512 1.0443447 15
-0.57524216 9.6134815 1.1881393 11
-0.5838244 11.05172 0.97432953 10
-0.55424786 4.9269814 1.3332012 15
-0.56469941 5.7380638 1.3357351 14
-0.57815778 6.8496346 1.341035 13
-0.56407934 8.4418945 1.3453672 12
-0.37634358 -1.6869516 -0.33637097 2
-0.32056361 -1.3162665 -0.33653316 0.5
-0.27939895 1.1925609 -0.32775319 0
-0.142318 1.3633246 -0.33007681 0.75
-0.12393665 1.682789 -0.33056286 2
-0.1250167 2.0574076 -0.3287378 3
-0.18856663 2.6276286 -0.325434 4
-0.1517324 3.6932364 -0.32765612 5
-0.36531577 5.9131541 -0.30651942 6
-0.096652173 6.0565042 -0.33228162 6
-0.14884575 16.329592 -0.31311497 7
-0.19149919 15.727578 0.27110261 8
-0.15909231 12.984657 0.677571 9
-0.38009235 -3.842066 1.0343074 15
-0.11932253 9.6159534 1.1782624 11
-0.10982034 11.047647 0.96382427 10
-0.12365767 4.9343739 1.3210579 15
-0.11527756 5.7437916 1.3246229 14
-0.13599463 6.8386803 1.3275608 13
-0.1053314 8.4235086 1.3319645 12
0.26264945 -4.0138845 -0.35361555 5
0.17760801 -2.8185599 -0.34891301 4
0.21698996 -2.1648607 -0.34769109 3
0.20353229 -1.7530742 -0.34696445 2
0.18276282 -1.3556062 -0.34410828 0.5
0.20737496 1.304322 -0.34579942 0.40000001
0.23532985 1.6985487 -0.34567812 2
0.30256066 2.0851805 -0.34672835 3
0.21179812 2.6835611 -0.3431994 4
0.18460202 3.7436333 -0.34141344 5
0.34595713 6.1626229 -0.34099066 6
0.19571766 15.710564 0.24501829 8
0.15310965 12.975745 0.65451199 9
0.38361192 -5.1592569 0.81876397 12
0.34260425 -4.633543 0.90246612 13
0.33822769 -4.1909189 0.97002912 14
0.33356327 -3.8148053 1.0254662 15
0.27276435 9.5957794 1.1567441 11
0.28145978 11.037026 0.94212574 10
0.20113561 4.9148264 1.3022693 15
0.20240203 5.7261615 1.3059471 14
0.34854034 6.7973714 1.3042656 13
0.15365842 6.8183808 1.3076152 13
0.29186034 8.3775358 1.3071401 12
0.7296887 -11.766906 -0.20478342 7
0.47038487 -6.9339004 -0.36494747 6
0.58428204 -4.0274162 -0.35864651 5
0.4020333 -2.8203809 -0.35274768 4
0.60455698 -2.7936327 -0.35469872 4
0.57361782 -2.1169028 -0.352579 3
0.58322489 -1.6835337 -0.35260582 2
0.52003437 -1.3283026 -0.35265177 0.66666669
0.59738362 -1.1220891 -0.35021457 0
0.52453846 1.1269823 -0.35206881 0
0.61003476 1.3858761 -0.35160038 1.25
0.48275667 1.6576638 -0.35056394 2
0.60697055 2.0358927 -0.35205671 3
0.60450011 2.6591158 -0.35033631 4
0.59692442 3.7524514 -0.34871781 5
0.71068543 -9.3519745 0.16379179 8
0.64650619 15.701033 0.24270181 8
0.64420211 -7.7817922 0.40887249 9
0.64282572 -6.6408978 0.58307189 10
0.61501664 -5.8001413 0.71540731 11
0.52540314 12.965728 0.65262187 9
0.58549196 -5.1341987 0.81766218 12
0.57257277 -4.597261 0.89981222 13
0.59098768 -4.1529131 0.96785724 14
0.5792076 -3.7900271 1.0267782 15
0.68589735 9.578598 1.155341 11
0.59798467 11.023206 0.94052088 10
0.60821551 4.8549113 1.2952542 15
0.59456038 5.6597786 1.2964721 14
0.59014779 6.7586017 1.2992599 13
0.67884761 8.3168926 1.2996835 12
0.89643425 -11.732974 -0.20474337 7
1.0358922 -7.0184455 -0.37380755 6
0.87880319 -4.0111818 -0.36277887 5
1.1789136 -3.9891098 -0.36844134 5
0.91244757 -2.7471819 -0.3607077 4
0.92401266 -2.0385261 -0.36103234 3
1.0743557 -1.9787822 -0.36410218 3
0.94689751 -1.4161201 -0.35895789 1.6666666
0.97076029 -0.96057957 -0.36041301 0.33333334
1.1379993 -0.5956974 -0.36284113 0
1.1111475 0.56745547 -0.35897279 0
1.004378 1.0031422 -0.35989434 0.80000001
0.9908762 1.443676 -0.36057445 2
0.94359672 1.9335117 -0.35923606 3
0.99854118 2.5833671 -0.3581278 4
1.0192088 3.7393391 -0.35764638 5
0.80427182 6.2409472 -0.34993517 6
1.0792588 17.155796 -0.33583644 7
1.0111296 -9.3199921 0.1631064 8
0.98487526 15.692143 0.24109532 8
0.97599465 -7.7311893 0.40740556 9
1.0224223 -6.5952339 0.58251035 10
0.99295133 -5.7407522 0.71390522 11
0.99031633 12.939298 0.6504057 9
1.0057611 -5.0670586 0.81677783 12
0.96611929 -4.5361104 0.90021563 13
0.99025941 -4.0811362 0.96835881 14
0.99583548 -3.7035418 1.0267539 15
1.064977 9.5577478 1.1553394 11
0.9938854 11.002743 0.93943119 10
0.96207529 4.7716351 1.2874119 15
0.94642025 5.5765224 1.2872381 14
1.004004 6.6745391 1.2914464 13
1.0319847 8.2458248 1.2927828 12
1.5678161 -7.0701389 -0.38285455 6
1.4768736 -3.9349277 -0.37329707 5
1.3142895 -2.6242571 -0.36756143 4
1.3811681 -1.7820036 -0.36740366 3
1.2343678 -1.3328806 -0.36444739 2
1.400787 -1.0327349 -0.36643478 1.75
1.3802152 -0.60678774 -0.36610186 1
1.3790696 -0.19437796 -0.36651933 0.5
1.3700799 0.21479844 -0.36717445 0.5
1.3449773 0.61989069 -0.36546817 1
1.4351131 1.0375699 -0.36718443 2
1.3633016 1.4264255 -0.36507004 2.5
1.3257022 1.7258155 -0.36515278 3
1.3807826 2.4436212 -0.36485454 4
1.4372541 3.6534462 -0.36447564 5
1.273147 6.2721066 -0.35811779 6
1.4100398 -9.2639561 0.16216776 8
1.3235146 15.679243 0.23958403 8
1.4186658 -7.6714864 0.40692577 9
1.3998351 -6.5325694 0.58231419 10
1.4045433 -5.6674023 0.71465844 11
1.4575089 12.926485 0.64973384 9
1.386798 -4.9886112 0.81787193 12
1.374032 -4.4501853 0.90345514 13
1.2582886 -4.0313468 0.97321188 14
1.3792264 -3.8602023 0.9921363 14.333333
1.4901544 -3.5711389 1.0351291 15
1.4451822 9.5302687 1.1565282 11
1.4307829 10.979162 0.93957502 10
1.3731115 4.6417356 1.2798929 15
1.3971127 5.4545231 1.2808946 14
1.4085444 6.559072 1.2823181 13
1.2930006 8.178833 1.2872026 12
1.7291394 -11.607077 -0.20600507 7
1.7718892 -3.8554184 -0.37794542 5
1.6061698 -2.4956462 -0.37290356 4
1.8727958 -2.3166873 -0.37610835 4
1.6002086 -1.6000543 -0.36984277 3
1.8024144 -1.3951606 -0.37488136 3
1.6156394 -0.87721568 -0.37287635 2
1.720901 -0.59561932 -0.37210026 2
1.8048838 -0.20659469 -0.37351608 2
1.7981883 0.232315 -0.37460408 2
1.6917231 0.61656857 -0.37289879 2
1.942742 1.0931112 -0.37566957 3
1.7215624 1.38498 -0.37263528 3
1.7455552 2.2491131 -0.37156749 4
1.8616781 3.5460374 -0.37324879 5
1.751405 6.2696848 -0.3663342 6
1.7082914 -9.2155209 0.16151406 8
1.908826 -9.1904345 0.16128789 8
1.7761792 15.661779 0.23777469 8
1.7790798 -7.6170535 0.40715498 9
1.7793454 -6.4684758 0.58390224 10
1.7796533 -5.6046662 0.71885872 11
1.9169344 -5.5510383 0.71753639 11
1.8297995 12.891452 0.6486212 9
1.8063751 -4.8931274 0.82312685 12
1.8140553 -4.335835 0.91080099 13
1.7986015 -3.86746 0.98238915 14
1.7927576 -3.4611161 1.0425812 15
1.8597789 9.4862843 1.158224 11
1.8668208 10.935394 0.9394902 10
1.9971706 4.3627858 1.2677112 15
1.7171721 4.5011592 1.273399 15
1.8875527 5.2643285 1.2707658 14
1.9851171 6.359519 1.2715702 13
1.7585177 6.4377489 1.2743243 13
1.9478806 7.981288 1.2746627 12
1.6952201 8.0699911 1.2803835 12
2.1119521 -7.0792174 -0.39195618 6
2.2091103 -3.6964691 -0.38555083 5
2.126724 -2.1164694 -0.38015631 4
2.2936139 -1.9747009 -0.38451159 4
2.0622201 -1.0200827 -0.38060895 3
2.1960852 -0.62557548 -0.38046327 3
2.278317 -0.21815968 -0.38284597 3
2.254252 0.24750724 -0.38107964 3
2.1779058 0.56980705 -0.37913346 3
2.0693684 0.8811456 -0.37916204 3
2.2412782 1.8568724 -0.38120022 4
2.0110619 2.0766354 -0.3778125 4
2.1292737 3.4270873 -0.37700805 5
2.2531829 6.2770767 -0.37720501 6
2.2063601 -9.1334047 0.16074178 8
2.2290773 15.632214 0.23602773 8
2.1947327 -7.5404377 0.40781131 9
2.0155799 -6.4185905 0.58491921 10
2.2038515 -6.372067 0.58582848 10
2.1900544 -5.496192 0.7224139 11
2.2048295 12.865664 0.64856851 9
2.1004994 -4.8198371 0.8288632 12
2.2793148 -4.7566314 0.83115017 12
2.2242389 -4.1984363 0.9198336 13
2.15275 -3.7366207 0.99267787 14
2.1724739 -3.3002734 1.0563757 15
2.2767217 9.4371643 1.1615943 11
2.2277949 10.910045 0.94158483 10
2.2056706 4.239583 1.2625712 15
2.1984129 5.1049595 1.2625251 14
2.2907121 6.2196579 1.2643306 13
2.277602 7.8486819 1.2669616 12
2.6634359 -7.0407667 -0.4009133 6
2.5655169 -11.497464 -0.20876557 7
2.6303093 -3.4867647 -0.3926118 5
2.5123403 -1.7278066 -0.38921914 4
2.7422085 -1.3510422 -0.39234233 4
2.7940822 1.0633081 -0.39136139 4
2.6365805 1.3493785 -0.38821661 4
2.4704664 1.6273168 -0.38741738 4
2.6635103 3.155129 -0.38735235 5
2.4087341 3.313695 -0.38359395 5
2.7477629 6.2058997 -0.38565707 6
2.4378467 17.977871 -0.36066279 7
2.6131642 -9.0856419 0.16074064 8
2.5732837 15.629055 0.23516904 8
2.612772 -7.4575181 0.40926719 9
2.6346371 -6.2747583 0.59023017 10
2.6026783 -5.3748531 0.72816724 11
2.584146 12.84896 0.64957833 9
2.6578493 -4.6298928 0.84054273 12
2.5905743 -4.0540128 0.930655 13
2.451159 -3.6072972 1.0028858 14
2.6073103 -3.5276799 1.0085838 14
2.5384519 -3.1203732 1.0748614 15
2.591717 9.3982191 1.1653478 11
2.6674259 10.855811 0.94348073 10
2.7051196 3.9034512 1.2545795 15
2.4695849 4.0766449 1.2590909 15
2.5125444 4.9429812 1.2589947 14
2.7968023 5.9528441 1.2532557 13
2.5945885 6.0810208 1.2603344 13
2.6856153 7.6814027 1.2601109 12
3.1530743 -3.1231346 -0.40149838 5
2.894284 -3.3119471 -0.39664584 5
2.915031 -0.94305247 -0.39521617 4
3.0118971 -0.51022089 -0.39590481 4
3.0482724 -0.17949162 -0.39669788 4
3.0369937 0.21945399 -0.39681026 4
2.9715402 0.54475647 -0.39480853 4
2.8867435 0.8636173 -0.39412183 4
3.0465899 2.8981149 -0.39546838 5
3.0191936 -9.0176353 0.16064963 8
2.9164922 15.607366 0.23417994 8
2.9783599 -7.3792033 0.41122195 9
2.9875894 -6.1821299 0.59457457 10
2.9795308 -5.2574558 0.73588705 11
3.0546737 12.79353 0.64990473 9
2.8665304 12.818156 0.6497786 9
3.0006781 -4.5109167 0.85208958 12
2.9835184 -3.885052 0.94663328 13
2.971452 -3.3605704 1.0307015 14
2.9752097 -2.8596127 1.1014491 15
3.1408682 -2.7683799 1.1167766 15
2.9807992 9.3846264 1.1758783 11
3.0341203 10.823357 0.9473834 10
3.1256359 3.5268416 1.2448385 15
2.9343827 3.7238274 1.2523162 15
2.9778025 4.6342278 1.250447 14
3.0235684 5.8248296 1.2501065 13
3.0285711 7.5154629 1.2536273 12
2.8741536 7.6009941 1.2577175 12
3.2234104 -6.9658666 -0.41041508 6
3.3856199 -2.9020128 -0.4047299 5
3.5980637 2.3535581 -0.40475532 5
3.3937325 2.589853 -0.40173471 5
3.4084828 -11.371452 -0.21250612 7
3.2542562 6.1149926 -0.39521629 6
3.4289634 -8.9434605 0.16072848 8
3.3774946 15.581316 0.23311579 8
3.4093132 -7.290483 0.41474184 9
3.4123189 -6.0661755 0.60157341 10
3.3860946 -5.1257582 0.74695176 11
3.3431716 12.775493 0.65137255 9
3.2412717 -4.4119511 0.86021835 12
3.3878777 -4.3433309 0.86524802 12
3.3504879 -3.7139871 0.96554595 13
3.2392247 -3.2025645 1.0456017 14
3.3934011 -3.0983222 1.0545895 14
3.3268526 -2.6263099 1.1303763 15
3.4836209 10.769423 0.95232707 10
3.5186296 3.1033144 1.2395543 15
3.3186247 3.3348653 1.2428577 15
3.4347668 4.2532845 1.2406439 14
3.473887 5.5210176 1.2417399 13
3.2038088 5.7111778 1.246944 13
3.3358719 7.3474665 1.2476767 12
3.7830641 -6.8405228 -0.41971296 6
3.7150242 -2.5439742 -0.41090187 5
3.9891322 -2.1399627 -0.41482377 5
3.9874074 1.848371 -0.41355985 5
3.7974002 2.1075058 -0.40884265 5
3.7693071 5.9946222 -0.40543002 6
3.9492037 18.828485 -0.38859269 7
3.8454564 -8.8680687 0.16107775 8
3.8402936 15.54431 0.23213647 8
3.6659164 -7.2223973 0.41665244 9
3.9008737 -7.1676426 0.41913882 9
3.7805343 -5.9628897 0.60922861 10
3.7947943 -4.9698391 0.75922221 11
3.7267683 12.734674 0.65299183 9
3.7790828 -4.1857481 0.88477343 12
3.6401451 -2.936537 1.0725623 14
3.8475482 10.698729 0.95537001 10
3.9012637 -2.4655957 1.2292978 15
3.9618506 -2.3468833 1.2262012 15
3.8480124 2.6318634 1.2323623 15
3.676461 2.8826091 1.234508 15
3.8441644 3.8414109 1.2331467 14
3.904784 5.1571836 1.230535 13
3.7356832 5.3217673 1.2373099 13
3.7666025 7.0871329 1.2397728 12
4.3422303 -6.6717162 -0.42924544 6
4.1505532 -1.8545662 -0.4178544 5
4.324677 -1.3946379 -0.4198055 5
4.3647962 0.95991987 -0.41936406 5
4.1918998 1.4130708 -0.41609418 5
4.2730603 5.8170156 -0.41450283 6
4.2798629 -11.270294 -0.21808317 7
4.093359 -8.8266163 0.16145782 8
4.3024807 -8.7770882 0.16162299 8
4.1956935 15.537093 0.23187725 8
4.1724949 -7.109077 0.42266157 9
4.2482619 -5.8010149 0.61908937 10
4.0795779 -4.8559813 0.76910949 11
4.1167994 12.70049 0.65559638 9
4.0751729 -4.0224719 0.89744163 12
4.3063254 -3.8983672 0.90973234 12
4.3059826 10.633015 0.96244794 10
4.0540109 -2.1704924 1.2244865 15
4.2157269 -1.8194802 1.2218449 15
4.3336563 -1.4983312 1.2191628 15
4.3507323 1.5360279 1.2209218 15
4.2427254 1.8528452 1.2248179 15
4.0938606 2.1905739 1.2280433 15
4.3866487 3.1362815 1.2233182 14
4.1695356 3.4449472 1.2270397 14
4.3073144 4.7692323 1.2220131 13
4.1070242 4.9999366 1.2308941 13
4.2690921 6.712851 1.2275567 12
4.0195546 6.9096003 1.2340342 12
4.4644756 -0.92115778 -0.4226138 5
4.5159259 -0.59569931 -0.42337784 5
4.5428481 -0.26740763 -0.42397994 5
4.5183406 0.32376727 -0.42363375 5
4.4500332 0.64523053 -0.42129022 5
4.7669826 5.5933747 -0.42310357 6
4.5958447 -8.7322159 0.16236216 8
4.5513978 15.516197 0.23157008 8
4.5941682 -6.9969087 0.42798573 9
4.4624095 -5.7123089 0.62340552 10
4.508822 12.656796 0.65836358 9
4.4955997 -3.7846434 0.9197309 12
4.6409078 10.574847 0.96784937 10
4.7070317 -2.4314151 1.2120113 14
4.7318878 -2.358547 1.2093618 14
4.4035144 -1.2774975 1.2186679 15
4.4818854 -0.95601493 1.2175556 15
4.5456142 -0.58071917 1.2166115 15
4.5769053 -0.24546291 1.2165098 15
4.5814428 0.22952864 1.2163413 15
4.5568628 0.5939877 1.2177906 15
4.4920855 1.0217243 1.2200949 15
4.433126 1.3169073 1.2240082 15
4.6979342 2.5831258 1.2169814 14
4.5039463 2.933975 1.2195557 14
4.7063584 4.3501563 1.2184882 13
4.4988174 4.5896034 1.2220837 13
4.7433848 6.344038 1.2212516 12
4.5016961 6.545877 1.2253727 12
4.8983006 -6.4596772 -0.43906504 6
5.1825147 -11.162669 -0.22507292 7
5.1689935 9.6456108 -0.23633443 7
5.0683937 11.331089 -0.26415724 7
5.0032349 -8.6579609 0.16340512 8
5.1070418 10.592061 0.15950076 8
5.0017409 -6.8924975 0.43430591 9
5.1228075 10.620435 0.5727731 9
4.8041477 12.618345 0.66055977 9
4.8957944 10.532004 0.97260696 10
4.8328285 -2.1532934 1.2098279 14
4.9808097 -1.7610878 1.2072361 14
5.0981112 -1.3788873 1.2057986 14
5.1663761 -1.081882 1.2042801 14
5.1859469 1.1381056 1.2068417 14
5.1157708 1.4173287 1.2063683 14
5.0071559 1.8263096 1.2106153 14
4.8873987 2.1591635 1.2133249 14
5.0911679 3.8313925 1.2115457 13
4.8617191 4.1488371 1.2150954 13
5.1477079 5.9404988 1.2111485 12
4.9242177 6.1594663 1.2154894 12
5.4270859 -6.1800828 -0.44745845 6
5.2684417 5.346302 -0.43295786 6
5.4170647 -8.5739412 0.16455808 8
5.317347 -6.8009486 0.43929359 9
5.5138574 -6.7471576 0.4428528 9
5.5648241 2.9680269 1.1993444 13
5.2148247 -0.87770349 1.2059637 14
5.252481 -0.57485014 1.2046422 14
5.2892442 -0.17559379 1.2055651 14
5.2818561 0.24447696 1.2036669 14
5.2628245 0.62652522 1.2057762 14
5.2239814 0.91113448 1.2057469 14
5.5068059 3.1181357 1.2034062 13
5.327107 3.437063 1.205556 13
5.3034091 5.7752423 1.2078756 12
5.9383149 -5.8549442 -0.4557561 6
5.7595286 5.0563726 -0.4426955 6
5.6317096 19.679485 -0.41951695 7
5.8103085 -8.5046329 0.16602528 8
5.7781472 -6.6695724 0.44772565 9
6.2115755 4.7049422 -0.45052388 6
6.1341829 -11.059236 -0.23388606 7
6.0089025 9.4994297 -0.24492191 7
6.431047 -5.488143 -0.46416026 6
6.6539321 4.3217373 -0.45891541 6
6.8921137 -5.0734606 -0.47199351 6
7.0550885 3.8892779 -0.46594262 6
7.0639081 9.5632992 -0.26081851 7
7.2994232 -4.6034212 -0.47811329 6
7.45681 3.4344583 -0.47454685 6
7.5070581 20.52136 -0.45376045 7
7.6989713 -4.113688 -0.485755 6
7.7853212 2.9255011 -0.48027796 6
8.0045691 -3.5629284 -0.48971817 6
8.2782068 -2.9919603 -0.49407172 6
8.3453588 1.823754 -0.49169469 6
8.0926476 2.3910732 -0.48660567 6
8.2496061 9.6293316 -0.27964041 7
8.4901609 -2.3939824 -0.49715602 6
8.6488771 -1.7787544 -0.49957669 6
8.7409592 -1.1500189 -0.50063586 6
8.7756948 -0.51639742 -0.50089353 6
8.6692543 0.61606604 -0.49790001 6
8.5437946 1.230486 -0.49576202 6
9.6095839 9.7030449 -0.30233946 7
9.7695351 9.7202435 0.17716207 8
9.7626238 9.7116823 0.65944785 9
9.917695 9.7238321 1.1532494 10
9.9175701 9.7219315 1.6441489 11
9.7731562 9.7166958 2.1230135 12
10.231186 9.7457037 1.1730399 10
10.237836 9.7502651 1.6735505 11
10.224463 9.7358503 2.1745293 12
10.551875 9.7681198 0.18440211 8
10.54981 9.7645359 0.68793339 9
10.553165 9.7659388 1.193498 10
10.554267 9.7652588 1.7018857 11
10.545644 9.7556152 2.2124853 12
10.878228 9.7825861 0.18746686 8
10.890338 9.7917795 0.70069653 9
10.887781 9.7878475 1.2150774 10
10.884646 9.7833872 1.7320461 11
10.871891 9.7703161 2.2509491 12
11.233377 9.8140869 -0.3310397 7
11.403551 9.8155842 0.19260858 8
11.402466 9.8131523 0.71957058 9
11.413561 9.8211308 1.2494706 10
11.224245 9.7997255 1.7632425 11
11.409664 9.8145342 2.3174319 12
11.958721 9.8525209 0.1981803 8
11.967452 9.8581533 0.74143022 9
11.960497 9.8493824 1.8331921 11
12.331774 9.8647537 0.20188735 8
12.349733 9.8775654 0.75610232 9
12.35367 9.8792057 1.3122321 10
12.343583 9.8696728 1.8697642 11
12.341737 9.8666859 2.4325762 12
12.748293 9.899744 0.20627852 8
12.759012 9.9065771 0.77224225 9
12.732741 9.8848104 1.3371084 10
12.747396 9.8946724 1.908998 11
12.737385 9.8854551 2.4820712 12
13.166822 9.925086 -0.36632651 7
13.167142 9.9239082 0.21065968 8
13.158453 9.9159679 0.78760099 9
13.17093 9.9239092 1.367861 10
13.167013 9.9195375 1.9501051 11
13.161676 9.914093 2.5365047 12
13.610689 9.9536667 0.21539827 8
13.605762 9.9486942 0.80564559 9
13.601801 9.9444189 1.3974922 10
13.607834 9.9474173 1.9938462 11
13.60369 9.9429922 2.5936773 12
14.055963 9.971447 0.2201176 8
14.069027 9.979331 0.82442683 9
14.064434 9.9747295 1.4300348 10
14.055989 9.9674025 2.0381594 11
14.055148 9.965436 2.6519835 12
14.540216 10.002952 0.22541648 8
14.541269 10.002357 0.84353256 9
14.540428 10.000461 1.4635719 10
14.541892 10.000135 2.087425 11
14.539289 9.9970131 2.7157683 12
15.044063 -4.2344995 -0.32795051 7
14.961252 -3.0720313 -0.3237659 7
15.061638 -4.5913224 0.22165015 8
15.04665 -4.2342548 0.21901491 8
15.030407 -3.8824041 0.2165298 8
14.99151 -3.5292587 0.21384372 8
14.977532 -3.0745428 0.21104607 8
15.04392 10.033018 0.23097426 8
15.072438 -4.5935926 0.7737655 9
15.059943 -4.2370181 0.76724297 9
15.035256 -3.8826902 0.76060194 9
14.994487 -3.3024237 0.75046515 9
14.987253 -3.0757082 0.74720544 9
15.045257 10.032621 0.86427957 9
15.074073 -4.5929761 1.3277425 10
15.052197 -4.2338686 1.3164645 10
15.044531 -3.8841197 1.3072636 10
15.024001 -3.5351231 1.2975922 10
14.988546 -3.0751436 1.2851627 10
15.047962 10.033133 1.4999111 10
15.088999 -4.5965285 1.8867558 11
15.066154 -4.1205583 1.8670644 11
15.037437 -3.7661605 1.8520383 11
15.026419 -3.5347979 1.8436319 11
14.993282 -3.075279 1.8267885 11
15.034513 -3.5357981 2.395309 12
15.018373 -3.079572 2.3764935 12
15.050557 10.033563 2.1394024 11
15.100336 -4.5989213 2.4509478 12
15.080102 -4.1233964 2.4261954 12
15.05063 -3.7685277 2.4068503 12
15.027536 10.016968 2.7796357 12
15.10607 -4.4810629 3.0140617 13
15.080141 -4.1224432 2.9896598 13
15.067938 -3.7719128 2.9694514 13
15.044835 -3.5373104 2.9539964 13
15.031993 -3.0815072 2.9317303 13
15.576157 10.067837 -0.41195524 7
15.575397 10.0661 0.23691797 8
15.569641 10.061143 0.8859877 9
15.577698 10.065077 1.5380757 10
15.577721 10.063831 2.1934502 11
15.567728 10.056128 2.8523824 12
15.706783 -24.016907 -0.53232437 7
15.660346 -2.9805861 0.21959139 8
15.644109 -2.976666 0.77723414 9
15.665022 -2.9798005 1.3387988 10
15.672338 -2.9803455 1.9034979 11
15.689278 -2.9827099 2.4749501 12
15.714557 -2.986645 3.0554366 13
16.130047 10.097935 0.24317154 8
16.127068 10.09486 0.90936238 9
16.122246 10.090634 1.5773197 10
16.120441 10.088283 2.2491395 11
16.118231 10.085666 2.9262645 12
16.634762 -2.9186883 0.23223519 8
16.710413 10.128983 0.24977122 8
16.639906 -2.9187324 0.82405812 9
16.714003 10.129971 0.93417805 9
16.656633 -2.9208004 1.4192501 10
16.70841 10.125404 1.6202422 10
16.664106 -2.921243 2.0180032 11
16.711946 10.126348 2.3110583 11
16.703676 -2.9272928 2.6273313 12
16.70447 10.120629 3.0058722 12
16.701111 -2.9259584 3.2379332 13
16.990349 42.426834 0.64985067 8
17.012735 42.463245 2.24965 9
17.461672 41.854687 0.64240593 8
17.472061 41.861282 2.2283711 9
17.908487 41.251114 0.63463199 8
17.928074 41.278839 2.2084634 9
27.603037 -31.291677 -0.79096568 7
29.763659 -29.222803 -0.80029809 7
32.084679 -42.095913 -0.9902885 7
32.116867 -5.1569023 0.4499096 8
32.155861 -5.1615615 1.589921 9
32.161915 -5.1609292 2.7337773 10
32.183117 -5.162714 3.8866003 11
32.216 -5.166357 5.0523858 12
32.251072 -5.1703291 6.2335849 13
33.72126 -4.918901 0.47028545 8
33.757706 -4.922595 1.664332 9
33.798244 -4.9268799 2.8653696 10
33.802471 -4.9258614 4.0719457 11
33.859097 -4.9324565 5.2970862 12
33.892113 -4.9355936 6.5349922 13
34.363827 20.126522 0.51438427 8
34.371517 20.128742 1.9077541 9
34.395382 20.140408 3.3079004 10
34.701763 19.660902 0.51509637 8
34.726357 19.672657 1.911517 9
34.747936 19.682697 3.3142402 10
34.75457 19.684275 4.7247534 11
34.411469 20.147514 4.7169809 11
34.776779 19.694639 6.1501794 12
34.422989 20.151928 6.1381621 12
35.048645 19.200068 -0.88050765 7
35.075123 19.212523 0.51647329 8
35.091988 19.219709 1.9162439 9
35.093304 19.218393 3.3205185 10
35.109329 19.225103 4.7349806 11
35.13195 19.235399 6.1635456 12
35.426987 18.749146 0.51765943 8
35.450985 18.759922 1.9209709 9
35.460064 18.762794 3.3294275 10
35.487907 18.775566 4.7492433 11
35.507404 18.783916 6.1815329 12
35.779537 18.283083 0.51898676 8
35.802479 18.29299 1.925657 9
35.822754 18.301525 3.3385453 10
35.836884 18.306921 4.7603731 11
35.870884 18.322432 6.198482 12
36.14262 17.818941 0.52059734 8
36.158913 17.825281 1.9309762 9
36.187038 17.837433 3.3484032 10
36.214531 17.849262 4.7761359 11
36.223789 17.852102 6.2146826 12
36.249603 17.86307 7.6729431 13
36.527554 17.359768 1.9373075 9
36.550583 17.369123 3.3587844 10
36.563354 17.373594 4.7889228 11
36.580078 17.379929 6.2325449 12
36.603912 17.389614 7.6945062 13
36.853962 16.873676 -0.89253789 7
36.866413 16.877905 0.52416879 8
36.898571 16.891144 1.9441202 9
36.919811 16.899384 3.3702724 10
36.956371 16.913128 6.2548656 12
36.969269 16.917515 7.7197003 13
37.241508 16.407066 0.52633244 8
37.27552 16.419319 3.3811178 10
37.298424 16.42802 4.8218784 11
37.336391 16.441942 7.7465506 13
37.977047 15.444911 0.53083962 8
37.610428 15.928827 0.52853799 8
37.621136 15.932107 1.9577892 9
37.656551 15.945829 3.3948483 10
37.682007 15.955336 4.8416476 11
37.68214 15.954117 6.2981243 12
37.697529 15.95934 7.7734618 13
38.352306 14.959508 0.53339124 8
38.384804 14.971127 1.9750291 9
38.003418 15.454473 1.9662561 9
38.392342 14.973016 3.4216971 10
38.035107 15.465039 4.8583212 11
38.057816 15.473092 6.3234792 12
38.09214 15.485851 7.8085399 13
38.708584 14.462659 -0.90829158 7
38.73386 14.471149 0.53615957 8
38.747562 14.475326 1.9832009 9
38.772675 14.483749 3.437115 10
38.790245 14.489357 4.9003944 11
38.409916 14.978812 4.8786001 11
38.441551 14.99007 6.3512106 12
38.472107 15.000894 7.8418708 13
39.11668 13.977561 0.53907424 8
39.135281 13.983368 1.993013 9
39.157528 13.990462 3.4535198 10
39.194717 14.002885 4.9260421 11
38.821278 14.499976 6.3793206 12
38.836491 14.504682 7.8733258 13
39.499672 13.478144 0.54212141 8
39.543182 13.491491 3.4705834 10
39.200645 14.004147 6.4084268 12
39.225979 14.01232 7.9111638 13
39.890408 12.975181 0.54540306 8
39.916214 12.982924 2.0139856 9
39.943523 12.991146 3.4895213 10
39.954632 12.994112 4.9736295 11
39.994541 13.006424 6.4755259 12
39.998947 13.007192 7.9895 13
40.288582 12.46802 0.54892159 8
40.297722 12.470304 2.0245669 9
40.338631 12.4824 3.5085952 10
40.367481 12.490767 5.0027609 11
40.377892 12.493431 6.5084677 12
40.669041 11.949219 -0.92899668 7
40.718487 11.962836 2.0374861 9
40.732273 11.966433 3.5281439 10
40.750095 11.971214 5.0289807 11
40.773846 11.977727 6.5445232 12
40.779423 11.978906 8.074585 13
40.404968 12.50124 8.0345173 13
41.087601 11.43361 0.55639398 8
41.11076 11.439696 2.0493443 9
41.136974 11.44663 3.549257 10
41.161579 11.453115 5.0596089 11
41.195324 11.462135 6.5857487 12
41.196609 11.462133 8.124444 13
41.490238 10.906401 0.56037569 8
41.505333 10.910111 2.0616941 9
41.575138 10.927923 5.0913358 11
41.58675 10.930712 6.6232615 12
41.932178 10.381364 0.56502891 8
41.930977 10.38091 2.0759671 9
41.952007 10.385952 3.5938091 10
