# .PCD v0.7 - Point Cloud Data file format
VERSION 0.7
FIELDS x y z intensity
SIZE 4 4 4 4
TYPE F F F F
COUNT 1 1 1 1
WIDTH 117
HEIGHT 1
VIEWPOINT 0 0 0 1 0 0 0
POINTS 117
DATA ascii
-37.262825 1.6003604 0.64921951 8
-37.394894 4.8417106 0.65296 8
-37.316582 3.7496219 1.9614303 9
-37.265331 2.6702347 3.2656894 10
-37.250183 2.669116 4.5824938 11
-37.308777 4.8302746 5.9531322 12
-37.257088 3.7434382 7.2742963 13
-37.272449 4.8254232 8.6713848 14
-37.161446 -1.5959907 0.65099138 8
-37.184978 0.00010085879 1.9487287 9
-37.075939 -2.6566486 3.2549689 10
-37.083168 -2.1244295 4.5630322 11
-37.137001 0.00010589843 5.8818636 12
-37.032745 -2.6534908 7.2198472 13
-37.132175 0.53133935 7.217844 13
-37.078182 -0.53054225 8.5615902 14
-37.0467 -1.5909575 9.9375629 15
-37.149387 1.5953679 9.9614201 15
-36.73299 -13.72648 0.700369 8
-36.61108 -16.751768 2.1292026 9
-36.763454 -12.551843 2.0502837 9
-36.721897 -13.127065 3.4268122 10
-36.703197 -13.120439 4.8007689 11
-36.652653 -14.297428 6.2474327 12
-36.609936 -14.887578 7.699007 13
-36.511589 -19.975603 0.74947244 8
-36.599804 -16.746754 3.5403812 10
-36.460743 -20.631092 3.6884322 10
-36.481613 -19.287321 5.0885544 11
-36.472198 -19.282572 6.555882 12
-36.428612 -19.931465 8.0938702 13
-36.589012 -14.879173 9.1358995 14
-36.443592 -18.605989 9.4676876 14
-29.024361 -6.7631326 0.52786911 8
-29.010069 -6.7597971 1.5686808 9
-29.001417 -6.7577763 2.6128104 10
-28.977236 -6.7521391 3.6607747 11
-28.965246 -6.749341 4.718029 12
-28.961744 -6.7485185 5.7878962 13
-28.982826 -5.8846231 6.8343005 14
-28.927816 -6.7406039 7.966392 15
-12.592756 9.4608269 0.26819351 8
-12.587586 9.456543 0.81808168 9
-12.570393 9.4432421 1.3681911 10
-12.558469 9.4338923 1.9209361 11
-12.557318 9.4326143 2.4794855 12
-12.548213 9.4253721 3.0421815 13
-6.4233613 1.8963736 1.0590712 12
-6.4045343 1.8907958 1.2962883 13
-6.4111657 1.8926567 1.7892871 15
-6.3985476 1.8892481 0.11491796 8
-6.3328567 2.1702251 0.34906912 9
-6.3966455 1.8886052 0.58191323 10
-6.3974013 1.8887854 0.81737709 11
-6.3969097 1.8885117 1.5380542 14
-4.7996459 15.655722 0.28600451 8
-4.5335975 12.810056 0.71065372 9
-4.3068042 2.7017293 1.3591309 15
-4.3460374 4.0179505 1.3620713 14
-4.0016279 10.819448 1.0067965 10
-3.3304625 -3.0791209 1.213501 15
-0.63095307 15.552316 0.27915907 8
0.39071676 -6.7960715 0.59170079 10
0.3399075 -5.9305916 0.72366816 11
0.30003718 -5.2514944 0.82560354 12
0.26912013 -4.7247024 0.9106133 13
0.22000253 -3.8882773 1.0307606 15
0.55416441 -9.5802135 0.16771106 8
0.458435 -7.9495931 0.41540125 9
2.7981672 9.1496029 1.1568739 11
2.8508437 -3.5412221 1.0314193 14
3.237834 -3.8995864 0.96785903 13
3.276202 -2.8171151 1.1373508 15
3.9027555 -2.647388 1.2421147 15
4.2516079 -7.3194666 0.43221241 9
4.3268313 -5.998642 0.63283432 10
4.3320785 9.1727657 1.2201558 11
4.7254295 -2.6393385 1.2273091 14
5.0084281 -3.6933308 0.96492195 12
5.3111353 -4.5216413 0.83667749 11
5.57865 5.3786879 1.2035848 12
5.4205494 8.4348917 1.2014959 11
5.7068267 9.1820927 0.14590363 8
5.6505642 2.8176305 1.206387 13
5.8935795 9.1826687 0.53194493 9
5.8939257 9.180769 0.91818678 10
6.0181336 -8.8314743 0.17292774 8
9.8630009 9.3061275 1.1329587 10
9.864192 9.3057356 1.6143841 11
10.476188 9.3364925 0.18332592 8
11.118356 9.3515568 0.70012027 9
11.803686 9.3634443 1.7909493 11
11.807963 9.3655596 2.3303108 12
12.18144 9.3846083 1.2823792 10
14.931236 -5.3566103 0.22845976 8
14.935539 -5.3570528 0.78261918 9
14.935905 -5.3560987 1.3386427 10
14.94944 -5.3597889 1.8996422 11
14.902148 -3.945889 1.8407512 11
14.901828 -3.9448774 2.3888242 12
14.944715 -5.3570204 2.4633298 12
14.961113 -5.3616977 3.0370867 13
36.918556 16.309881 3.3612208 10
37.295872 15.842307 4.805716 11
38.296631 14.364796 0.54033095 8
38.325523 14.374956 1.9728549 9
39.098534 13.401559 6.3745179 12
39.442623 12.893296 4.9229941 11
39.484112 12.905994 7.9017801 13
40.505024 11.345023 0.55899251 8
40.533543 11.352876 2.0317791 9
40.925331 10.834392 3.5298803 10
41.71756 9.7781191 5.0864239 11
42.545738 8.6988277 6.7018862 12
42.556362 8.7012777 8.2662487 13
42.869389 8.1276588 0.58464772 8
42.894962 8.1328964 2.1118209 9
