# .PCD v0.7 - Point Cloud Data file format
VERSION 0.7
FIELDS x y z intensity
SIZE 4 4 4 4
TYPE F F F F
COUNT 1 1 1 1
WIDTH 1350
HEIGHT 1
VIEWPOINT 0 0 0 1 0 0 0
POINTS 1350
DATA ascii
3.2505076 0.46846253 -0.4060787 0
3.3028197 0.40380228 -0.40855429 0
2.8659017 0.56074083 -0.40059763 0
2.9520082 0.55572718 -0.40206301 0
3.0456121 0.55077076 -0.40400624 0
3.1358981 0.5439105 -0.40582353 0
3.253027 0.56425589 -0.40836072 0
2.8467627 0.6421048 -0.40088645 0
2.9376431 0.64051813 -0.40226561 0
3.0251713 0.65960366 -0.40412906 0
3.1253536 0.63476294 -0.40611458 0
3.2385852 0.65776378 -0.40844506 0
2.758584 0.70575881 -0.40082473 0
2.8307281 0.74576938 -0.40173292 0
2.920675 0.74721211 -0.40366146 0
3.0165749 0.74886012 -0.40583441 0
3.1384299 0.74568653 -0.4077684 0
3.2545977 0.75869548 -0.41033864 0
2.7424603 0.85735685 -0.40193239 0
2.8513079 0.83927709 -0.40350413 0
2.9853191 0.83245528 -0.40551025 0
3.0717645 0.85656047 -0.40752906 0
3.177155 0.83705002 -0.40893978 0
3.2292709 0.85086799 -0.4100472 0
2.6766462 0.95734692 -0.40117836 0
2.754205 0.93369681 -0.40255192 0
2.8701332 0.95762378 -0.40509632 0
2.9677746 0.94322354 -0.40672863 0
3.058722 0.94805819 -0.40898198 0
3.1475656 0.9510169 -0.41066054 0
3.2185998 0.94734824 -0.41196731 0
2.5548983 1.060951 -0.40095851 0
2.6439049 1.0538806 -0.40177825 0
2.7370663 1.0458121 -0.40306079 0
2.8280728 1.0574486 -0.40497565 0
2.930068 1.0479909 -0.40700364 0
3.02373 1.0571313 -0.40853891 0
3.1356647 1.0627733 -0.41030201 0
3.2023232 1.0177419 -0.4125751 0
2.5126617 1.1504569 -0.40069959 0
2.6345117 1.1533166 -0.40286756 0
2.7473302 1.1642779 -0.40542078 0
2.846458 1.1582661 -0.40675226 0
2.9563892 1.1459413 -0.40877163 0
3.080328 1.1517696 -0.4110083 0
3.1619439 1.1309351 -0.41233402 0
2.4691513 1.2392253 -0.40067843 0
2.567416 1.2428573 -0.40260586 0
2.6672523 1.2444121 -0.40460745 0
2.7572856 1.2624614 -0.40630442 0
2.8525016 1.2570316 -0.40831935 0
2.9540555 1.2515169 -0.41029775 0
3.0541673 1.2427806 -0.41150478 0
3.1246929 1.245419 -0.41304341 0
2.434387 1.355653 -0.40154475 0
2.5431273 1.3533916 -0.40345788 0
2.64291 1.358335 -0.40490755 0
2.7421076 1.3600308 -0.40698859 0
2.8206372 1.3406347 -0.40850034 0
2.9442432 1.3567249 -0.4106704 0
3.0345154 1.3459959 -0.41264853 0
3.1024129 1.340688 -0.41497505 0
2.2662964 1.4377908 -0.40035939 0
2.3564873 1.4481159 -0.40143847 0
2.4565909 1.4616289 -0.40357602 0
2.5636468 1.4517504 -0.40493116 0
2.6584668 1.4555731 -0.40709743 0
2.7584879 1.4593954 -0.4086501 0
2.8700457 1.4404267 -0.41020021 0
2.9607587 1.4595149 -0.41226551 0
3.0432079 1.4464436 -0.41372859 0
2.3567083 1.5590682 -0.40219495 0
2.4461913 1.5519075 -0.40371105 0
2.5455437 1.5478209 -0.40653053 0
2.6412921 1.554635 -0.40806746 0
2.7197394 1.5401387 -0.40866047 0
2.8161278 1.5418952 -0.41124845 0
2.9397981 1.546245 -0.41277811 0
3.0083661 1.5098585 -0.4132919 0
2.2408311 1.6576587 -0.40144384 0
2.3282399 1.646209 -0.40219671 0
2.4358587 1.6448774 -0.40379941 0
2.5358059 1.6600561 -0.40619901 0
2.6521423 1.6560225 -0.40923226 0
2.7650821 1.6451784 -0.41123351 0
2.8632545 1.6485529 -0.41300598 0
2.9479764 1.6414765 -0.41432336 0
2.157886 1.7190495 -0.4002226 0
2.243624 1.7611862 -0.40256262 0
2.3679197 1.7516761 -0.40480968 0
2.4746392 1.7497201 -0.40587631 0
2.5660944 1.7598298 -0.40671378 0
2.6557713 1.7569042 -0.40947279 0
2.7494278 1.7442862 -0.41159442 0
2.8507462 1.7518522 -0.41433054 0
2.9141939 1.733879 -0.41636148 0
2.1449223 1.837909 -0.4013409 0
2.267648 1.8601115 -0.40350342 0
2.3469009 1.8423285 -0.40536815 0
2.4474146 1.8470649 -0.40730509 0
2.5239019 1.8392215 -0.40846705 0
2.6210384 1.8532312 -0.40955594 0
2.7450244 1.8536882 -0.41140187 0
2.8334219 1.8261235 -0.4139052 0
2.0469739 1.967913 -0.40064821 0
2.1540558 1.9365383 -0.40182653 0
2.2498105 1.9562141 -0.40458614 0
2.3420515 1.9494364 -0.40616474 0
2.4387033 1.9427574 -0.40807974 0
2.5546911 1.9469897 -0.41036633 0
2.668911 1.9448948 -0.41226593 0
2.7440217 1.9402083 -0.4126476 0
1.9617143 2.0551519 -0.40016833 0
2.0662715 2.0736613 -0.40172672 0
2.1420412 2.0399268 -0.40358105 0
2.2476921 2.0598781 -0.40531766 0
2.3515167 2.044209 -0.40736869 0
2.4645128 2.0513783 -0.40965542 0
2.5791121 2.0546112 -0.41200835 0
2.6537378 2.0427151 -0.41320705 0
2.709049 2.0040052 -0.41374844 0
1.9510555 2.1439421 -0.40112635 0
2.0544081 2.1522608 -0.40274829 0
2.1294858 2.1371024 -0.4035247 0
2.2409348 2.1543837 -0.4064292 0
2.367933 2.1495943 -0.40863192 0
2.4639988 2.173245 -0.41068417 0
2.5440948 2.1486034 -0.4123058 0
2.61619 2.1149323 -0.41306293 0
1.8616384 2.2529907 -0.40114102 0
1.9568621 2.2565358 -0.40248153 0
2.0359766 2.2267873 -0.40330255 0
2.1446712 2.2468154 -0.40504941 0
2.2559147 2.2639844 -0.40712059 0
2.3353024 2.245146 -0.41018367 0
2.4438651 2.2506003 -0.41127765 0
2.5185246 2.2213366 -0.41233075 0
1.8478428 2.3711741 -0.40149537 0
1.9457319 2.3547256 -0.40402067 0
2.04638 2.3368948 -0.40496564 0
2.1567755 2.3589063 -0.4067924 0
2.2397957 2.3464785 -0.4079082 0
2.3379765 2.346348 -0.40945491 0
2.4256752 2.3320298 -0.41315186 0
1.7409688 2.4436731 -0.40096354 0
1.8459984 2.4769197 -0.40282565 0
1.9491544 2.452451 -0.40471002 0
2.0493336 2.444262 -0.40661287 0
2.1327302 2.4593217 -0.40761319 0
2.2337811 2.4431355 -0.40901721 0
2.3038819 2.4136171 -0.4096919 0
1.6766112 2.5810761 -0.40191689 0
1.7530676 2.5366547 -0.40175429 0
1.8639855 2.5771308 -0.40487066 0
1.9368309 2.5224876 -0.40407959 0
2.0526917 2.5578384 -0.40764534 0
2.1605284 2.5398238 -0.40944687 0
1.6610098 2.6389835 -0.40122586 0
1.7435026 2.6424837 -0.40306813 0
1.8531709 2.6542027 -0.40529311 0
1.9681426 2.6408036 -0.40700024 0
2.0602612 2.6051178 -0.40781942 0
1.5472503 2.7553239 -0.40092805 0
1.6487999 2.7634003 -0.40177426 0
1.7417772 2.7674158 -0.40415329 0
1.8339757 2.7368109 -0.40566307 0
1.9249426 2.7019587 -0.40734047 0
1.4672799 2.8974495 -0.40011835 0
1.5560629 2.8661993 -0.40215877 0
1.6361828 2.8338079 -0.40303627 0
1.4327664 2.9328816 -0.40079573 0
0.36547133 -3.5093937 -0.30869213 0
0.46705332 -3.5071764 -0.30954656 0
0.54450023 -3.5105767 -0.31081557 0
0.64855266 -3.5143771 -0.31266743 0
0.75215536 -3.5098464 -0.31405115 0
0.8342737 -3.5221398 -0.31667322 0
1.1001132 -3.5048847 -0.3213875 0
-0.036818206 -3.4302313 -0.30012318 0
0.037082884 -3.4501579 -0.30198783 0
0.13639426 -3.4625859 -0.30430695 0
0.23651063 -3.4731402 -0.30606878 0
0.32763907 -3.4671135 -0.30731678 0
0.42845008 -3.4700718 -0.30821991 0
0.5362823 -3.4579873 -0.3112337 0
0.63703907 -3.4521341 -0.31312686 0
0.73912024 -3.4487126 -0.3145394 0
0.81505549 -3.4410043 -0.31717619 0
1.0746251 -3.4236817 -0.32204312 0
-0.15492009 -3.3290749 -0.30069649 0
-0.059571013 -3.3349218 -0.30081806 0
0.036099236 -3.3590097 -0.30310082 0
0.13238697 -3.3608289 -0.30530453 0
0.2293452 -3.3675597 -0.30705261 0
0.35078952 -3.3677597 -0.30854008 0
0.47392106 -3.373919 -0.31104073 0
0.57162762 -3.3666544 -0.31312138 0
0.66950321 -3.3577366 -0.31463647 0
0.76985192 -3.3570657 -0.31644917 0
1.0474168 -3.3369975 -0.32274297 0
-0.15073416 -3.2391534 -0.30170053 0
-0.057960264 -3.2449338 -0.30184844 0
0.035132758 -3.2689986 -0.3041999 0
0.15232819 -3.271286 -0.30670926 0
0.27041793 -3.2785726 -0.30815229 0
0.36527699 -3.2793922 -0.30990243 0
0.461339 -3.2843425 -0.31185627 0
0.55645913 -3.2773104 -0.31379163 0
0.65176737 -3.2687821 -0.31525093 0
0.74957913 -3.2686663 -0.31714156 0
1.0202084 -3.2503138 -0.32344285 0
-0.14654826 -3.1492319 -0.30270451 0
-0.056349516 -3.1549456 -0.3028788 0
0.034166284 -3.178988 -0.30529898 0
0.148129 -3.1810942 -0.30754939 0
0.25318125 -3.1598294 -0.30932665 0
0.35526979 -3.189538 -0.31070822 0
0.4424659 -3.1499777 -0.3130796 0
0.5440014 -3.1591396 -0.31489646 0
0.63403165 -3.1798277 -0.31586537 0
0.72930634 -3.1802671 -0.31783396 0
0.99300003 -3.1636295 -0.32414269 0
-0.33633539 -3.0197768 -0.30017036 0
-0.24990028 -3.0305903 -0.30057782 0
-0.14236233 -3.0593104 -0.30370849 0
-0.054738767 -3.0649576 -0.30390918 0
0.054894801 -3.0670364 -0.3070901 0
0.16375664 -3.0480547 -0.30926311 0
0.25796148 -3.0373452 -0.31051922 0
0.34025896 -3.0547566 -0.31191701 0
0.44515881 -3.0125067 -0.31458041 0
0.55136156 -3.0495596 -0.31578219 0
0.6536544 -3.0498922 -0.31779835 0
0.7313062 -3.0874312 -0.31936809 0
0.96579164 -3.0769455 -0.32484257 0
-0.34680682 -2.9237332 -0.30067825 0
-0.24251497 -2.9410598 -0.30168334 0
-0.13817641 -2.969389 -0.30471247 0
-0.053128026 -2.9749694 -0.30493957 0
0.052678883 -2.9428554 -0.30832627 0
0.15648785 -2.9127729 -0.31050271 0
0.24072483 -2.9186025 -0.31169358 0
0.34674823 -2.9222105 -0.31369504 0
0.45301655 -2.9211111 -0.31558776 0
0.53833598 -2.9172783 -0.31708968 0
0.64658773 -2.9148493 -0.31941113 0
0.71036887 -2.999038 -0.31991607 0
0.92497909 -2.9469194 -0.32589236 0
-0.35603699 -2.8286679 -0.30143246 0
-0.25529462 -2.8467915 -0.30257583 0
-0.15426023 -2.8733127 -0.30488268 0
-0.044395685 -2.859724 -0.30674228 0
0.050437886 -2.8178995 -0.30982074 0
0.15164199 -2.8225851 -0.31132907 0
0.25375399 -2.8288813 -0.31301346 0
0.35681584 -2.83392 -0.31481546 0
0.43913892 -2.8316319 -0.31631342 0
0.54272729 -2.8272774 -0.31817433 0
0.64821506 -2.8266699 -0.32060352 0
0.88416648 -2.8168936 -0.32694215 0
-0.46017781 -2.7103322 -0.30051607 0
-0.34482542 -2.7396088 -0.30257234 0
-0.24726564 -2.7572756 -0.30363458 0
-0.13872221 -2.7642617 -0.30655271 0
-0.049424089 -2.7500458 -0.30759117 0
0.048824955 -2.7278259 -0.31084266 0
0.14679614 -2.7323971 -0.31215546 0
0.24567972 -2.7388752 -0.31383276 0
0.34552687 -2.7442541 -0.31568599 0
0.44557381 -2.7429645 -0.31755278 0
0.54535282 -2.7350552 -0.31893766 0
0.6279422 -2.7382708 -0.32129592 0
0.85695809 -2.7302094 -0.32764202 0
-0.52842796 -2.6504116 -0.30107927 0
-0.44520196 -2.6221097 -0.30188003 0
-0.3521367 -2.6444597 -0.30323738 0
-0.25834724 -2.6660831 -0.30468288 0
-0.14253215 -2.6485062 -0.30754089 0
-0.053591341 -2.6402428 -0.30823824 0
0.047212034 -2.6377518 -0.31186458 0
0.16119182 -2.6455736 -0.31351051 0
0.25657073 -2.6471519 -0.31469423 0
0.35369197 -2.6553609 -0.31698653 0
0.45027995 -2.6519015 -0.31848335 0
0.54798436 -2.6488264 -0.3203243 0
0.62661964 -2.6454649 -0.32210794 0
0.8297497 -2.6435254 -0.32834187 0
-0.53094691 -2.5360491 -0.30166125 0
-0.4487744 -2.5333543 -0.3034749 0
-0.35790339 -2.5486524 -0.30385122 0
-0.24968064 -2.5766516 -0.30576304 0
-0.1574631 -2.5247207 -0.30816197 0
-0.058598667 -2.5195625 -0.31024498 0
0.045425236 -2.537214 -0.3129867 0
0.15482937 -2.5409634 -0.31447119 0
0.25425473 -2.5422668 -0.31579971 0
0.34495455 -2.555239 -0.3180671 0
0.45087692 -2.5450156 -0.319392 0
0.54536963 -2.5446043 -0.32190761 0
0.63299012 -2.5422528 -0.3230446 0
0.73622322 -2.5345862 -0.32407886 0
0.82870185 -2.5443697 -0.3285847 0
0.93160057 -2.5189996 -0.32977626 0
1.0299833 -2.50559 -0.33271253 0
-0.60715568 -2.4839301 -0.30138204 0
-0.51723856 -2.4136095 -0.30308214 0
-0.44965771 -2.4367518 -0.30478719 0
-0.34923214 -2.455075 -0.30494273 0
-0.23980519 -2.4746737 -0.30707476 0
-0.14907417 -2.4476211 -0.309277 0
-0.069975466 -2.4365935 -0.31126335 0
0.043570653 -2.432008 -0.31407642 0
0.14793818 -2.4275134 -0.31525525 0
0.25405255 -2.4384425 -0.31712279 0
0.36031184 -2.4380274 -0.31950822 0
0.44837797 -2.4298801 -0.32080448 0
0.55033588 -2.4388502 -0.32290569 0
0.638632 -2.4351943 -0.32397762 0
0.73522902 -2.4650822 -0.32617775 0
0.85062194 -2.4610586 -0.32906869 0
0.96585548 -2.4484894 -0.33062232 0
1.0674107 -2.4556413 -0.3328062 0
1.1576657 -2.4581876 -0.3341997 0
1.2542499 -2.4332612 -0.33658347 0
1.3298047 -2.4082756 -0.33817333 0
-0.72895205 -2.3340881 -0.30032453 0
-0.64436388 -2.3621881 -0.30084041 0
-0.55378395 -2.3691895 -0.30235639 0
-0.45010713 -2.3450091 -0.30599934 0
-0.34919941 -2.364188 -0.3063046 0
-0.25939083 -2.3291032 -0.30906618 0
-0.16767021 -2.3365021 -0.31006879 0
-0.058408961 -2.332108 -0.31238639 0
0.042063814 -2.3477306 -0.31496584 0
0.14279346 -2.3430297 -0.31584144 0
0.24530725 -2.3544557 -0.31798875 0
0.34794083 -2.3542986 -0.32027355 0
0.45002171 -2.3444977 -0.32179216 0
0.55352467 -2.3366973 -0.32428959 0
0.66192394 -2.3409994 -0.32528016 0
0.75704491 -2.352782 -0.32913297 0
0.85684174 -2.3687725 -0.32988206 0
0.96396285 -2.344923 -0.33243632 0
1.0687426 -2.3558712 -0.33305889 0
1.1577027 -2.3697605 -0.33522186 0
1.2506908 -2.3435624 -0.33784616 0
1.350251 -2.345387 -0.33900279 0
1.4411675 -2.3639867 -0.34111395 0
1.5435911 -2.3211417 -0.34258792 0
-0.75641662 -2.2406161 -0.30070537 0
-0.64649892 -2.2553868 -0.30234784 0
-0.55580485 -2.2454789 -0.30356729 0
-0.45044717 -2.2593298 -0.30681428 0
-0.35247216 -2.2728364 -0.30697596 0
-0.24802808 -2.227144 -0.31083259 0
-0.15207209 -2.2340028 -0.31159124 0
-0.056303728 -2.2480252 -0.31334481 0
0.040556975 -2.2634535 -0.31585526 0
0.13764873 -2.2585456 -0.31642765 0
0.23656194 -2.270469 -0.31885472 0
0.33556977 -2.2705698 -0.32103887 0
0.43403271 -2.261204 -0.32244393 0
0.54996252 -2.2498066 -0.32487357 0
0.6510998 -2.2414002 -0.32696357 0
0.75921708 -2.2376618 -0.32994062 0
0.86230057 -2.2811313 -0.33074054 0
0.94816113 -2.2604053 -0.33340985 0
1.0516422 -2.2416561 -0.33423072 0
1.1383088 -2.2683506 -0.33620968 0
1.2426378 -2.2504215 -0.33862945 0
1.3514894 -2.2407024 -0.34058952 0
1.4564853 -2.2422655 -0.34243584 0
1.5436393 -2.256799 -0.34353304 0
1.6499141 -2.2607157 -0.34629971 0
1.7339463 -2.2250838 -0.34779844 0
1.8263483 -2.2102475 -0.35204536 0
-0.85151637 -2.1143606 -0.3012138 0
-0.74344939 -2.1515906 -0.30195239 0
-0.64806664 -2.1454287 -0.3038415 0
-0.55260086 -2.1280768 -0.30517545 0
-0.44847462 -2.1689415 -0.30722752 0
-0.34839234 -2.1467638 -0.30862448 0
-0.25331843 -2.1366134 -0.31161016 0
-0.14637242 -2.1502831 -0.31266057 0
-0.054198492 -2.1639421 -0.31430328 0
0.046237733 -2.1605294 -0.31730834 0
0.14818111 -2.1746547 -0.3172518 0
0.24965239 -2.1558948 -0.32097727 0
0.34871504 -2.1469209 -0.32316425 0
0.4500401 -2.1754322 -0.32378122 0
0.54524517 -2.1632006 -0.32538947 0
0.64344203 -2.1572666 -0.32844481 0
0.75412416 -2.1323652 -0.33054858 0
0.85953534 -2.1612 -0.33231765 0
0.95644778 -2.1496301 -0.33428773 0
1.0623509 -2.1355274 -0.33633593 0
1.153061 -2.1363416 -0.33883104 0
1.2353524 -2.163348 -0.3394562 0
1.3450084 -2.136848 -0.34196633 0
1.4423785 -2.1524403 -0.34261 0
1.5535265 -2.1479039 -0.34584954 0
1.6642195 -2.1356173 -0.34744456 0
1.7710315 -2.1747754 -0.34996831 0
1.8528215 -2.1467364 -0.35096228 0
1.9390774 -2.120822 -0.3528493 0
-0.83048832 -2.0205314 -0.30192655 0
-0.74353063 -2.055891 -0.30249265 0
-0.64641339 -2.034595 -0.30529678 0
-0.54623574 -2.0433483 -0.3061893 0
-0.43400168 -2.0535131 -0.30912131 0
-0.3431364 -2.0209277 -0.31031656 0
-0.24347731 -2.0536771 -0.31298521 0
-0.14067274 -2.0665629 -0.31372991 0
-0.052093264 -2.0798595 -0.31526172 0
0.039772 -2.03616 -0.31791613 0
0.15337786 -2.0368731 -0.31885573 0
0.2573992 -2.0305347 -0.32266328 0
0.35683277 -2.014328 -0.32402703 0
0.43931881 -2.0497234 -0.32504767 0
0.55347914 -2.0371432 -0.32837018 0
0.65091747 -2.0737884 -0.33025038 0
0.7404809 -2.047096 -0.3309885 0
0.84951454 -2.0450935 -0.33356324 0
0.94856137 -2.0514078 -0.33503354 0
1.0564542 -2.0496454 -0.33760729 0
1.1595621 -2.0306466 -0.33947992 0
1.256875 -2.0618122 -0.34135744 0
1.3546045 -2.0526376 -0.34224558 0
1.4605641 -2.0500257 -0.34473935 0
1.5537045 -2.0538363 -0.34631264 0
1.6437311 -2.0481174 -0.34878382 0
1.7512102 -2.0585566 -0.35082349 0
1.8561461 -2.0594792 -0.35274875 0
1.9480085 -2.0406182 -0.35380781 0
2.0456905 -2.0529244 -0.35589474 0
-0.94285256 -1.9657985 -0.30069387 0
-0.84613913 -1.9387202 -0.30226788 0
-0.74375474 -1.9675987 -0.3039059 0
-0.6502769 -1.9262476 -0.30724981 0
-0.55235964 -1.9538734 -0.30713454 0
-0.43894312 -1.9345087 -0.30941239 0
-0.34222803 -1.9317077 -0.3116554 0
-0.25085455 -1.9486631 -0.31354591 0
-0.14837834 -1.9708194 -0.31528583 0
-0.049722239 -1.9844161 -0.31638014 0
0.063876115 -1.977486 -0.31783941 0
0.1481269 -1.9664434 -0.31949842 0
0.24712941 -1.9631696 -0.32288462 0
0.34774622 -1.9627768 -0.32435441 0
0.45663467 -1.9693128 -0.32591629 0
0.54794687 -1.9691125 -0.32769847 0
0.65140617 -1.9571804 -0.33088309 0
0.73825443 -1.952966 -0.33202901 0
0.84708858 -1.9368275 -0.33486715 0
0.94929242 -1.9318047 -0.33637527 0
1.0485322 -1.9647497 -0.33893108 0
1.1371207 -1.9266552 -0.34058082 0
1.2544217 -1.9617968 -0.3416619 0
1.3515441 -1.956107 -0.3430126 0
1.4429477 -1.965161 -0.34557366 0
1.5460738 -1.9549876 -0.34748966 0
1.6526791 -1.9427143 -0.350243 0
1.7671095 -1.9607172 -0.35109821 0
1.8539699 -1.9610939 -0.35315111 0
1.957275 -1.9363192 -0.35533762 0
2.0489662 -1.9698534 -0.35696742 0
2.1510229 -1.952611 -0.35889795 0
2.2241468 -1.9058006 -0.35963258 0
-1.0246323 -1.8247452 -0.30162883 0
-0.94403201 -1.8644398 -0.30159757 0
-0.85413378 -1.8408449 -0.30374187 0
-0.74322295 -1.8455181 -0.30632699 0
-0.64757389 -1.8313076 -0.3074035 0
-0.54569983 -1.8593502 -0.30902749 0
-0.45485666 -1.8733869 -0.30900991 0
-0.35595679 -1.8400612 -0.31308374 0
-0.24600589 -1.8477345 -0.31432801 0
-0.14632386 -1.8543185 -0.31722397 0
-0.05968878 -1.8550944 -0.31793281 0
0.046419457 -1.8511508 -0.31985053 0
0.15897022 -1.8583634 -0.3215833 0
0.24991165 -1.8434734 -0.32315242 0
0.34759048 -1.8522274 -0.32558709 0
0.44387162 -1.8532395 -0.32778564 0
0.55366498 -1.8566493 -0.32989618 0
0.65084875 -1.8402351 -0.33201289 0
0.75071824 -1.8415117 -0.33384103 0
0.84582055 -1.8647592 -0.33518109 0
0.95996684 -1.8367052 -0.33846179 0
1.0534067 -1.8694044 -0.3399854 0
1.154407 -1.8339791 -0.34218547 0
1.2500787 -1.8654938 -0.34213412 0
1.3530093 -1.8426907 -0.34523082 0
1.4514647 -1.8625921 -0.34689093 0
1.5540265 -1.8534853 -0.34970933 0
1.650794 -1.831665 -0.35037521 0
1.7362388 -1.8718551 -0.35160437 0
1.849996 -1.8566041 -0.35447621 0
1.9371684 -1.835902 -0.35630155 0
2.0440784 -1.8554821 -0.35793102 0
2.1428566 -1.854076 -0.35922691 0
2.2498732 -1.8455625 -0.36190948 0
2.328881 -1.8281829 -0.36398625 0
-1.0362151 -1.7461115 -0.30164894 0
-0.93805003 -1.7479693 -0.30432364 0
-0.83599246 -1.7343262 -0.30596316 0
-0.75384516 -1.7618346 -0.30561897 0
-0.65649551 -1.7368399 -0.30751768 0
-0.55047345 -1.7540332 -0.3098571 0
-0.45442447 -1.7500936 -0.31090036 0
-0.36096448 -1.7453146 -0.31404394 0
-0.25174102 -1.7542279 -0.3155506 0
-0.16121115 -1.7501301 -0.31766209 0
-0.048993729 -1.7530162 -0.31871289 0
0.043503582 -1.7345331 -0.32125366 0
0.13645735 -1.7473509 -0.3217473 0
0.24701479 -1.739692 -0.32328773 0
0.3456372 -1.7331916 -0.32760864 0
0.45251524 -1.7425455 -0.32885695 0
0.53745806 -1.7648802 -0.33062243 0
0.65045798 -1.7587715 -0.33297536 0
0.75411773 -1.7277911 -0.3351641 0
0.83555043 -1.767926 -0.33617842 0
0.94472647 -1.7400905 -0.3386969 0
1.0410362 -1.7640356 -0.34067661 0
1.1612601 -1.7507033 -0.3410548 0
1.2567427 -1.7580489 -0.34402221 0
1.3488495 -1.7309158 -0.3465552 0
1.4563855 -1.7624565 -0.34869146 0
1.5523311 -1.7473665 -0.35003477 0
1.6474897 -1.7257787 -0.35133019 0
1.7548823 -1.7609447 -0.35376531 0
1.8564607 -1.7512178 -0.35564753 0
1.9461565 -1.7499653 -0.35711029 0
2.0424309 -1.7499853 -0.35907277 0
2.16381 -1.7492441 -0.36149716 0
2.2715678 -1.7570395 -0.36277586 0
2.3600295 -1.7589767 -0.36520591 0
2.4334552 -1.7205105 -0.36631787 0
-1.2490451 -1.6759099 -0.30066583 0
-1.1615107 -1.6301494 -0.30201378 0
-1.027609 -1.6363499 -0.30213174 0
-0.95577812 -1.6572323 -0.30486405 0
-0.85832798 -1.6527338 -0.30543861 0
-0.7349599 -1.6581863 -0.30731881 0
-0.64378172 -1.6319643 -0.30878937 0
-0.55155367 -1.6730736 -0.31065166 0
-0.45572603 -1.6414412 -0.31235826 0
-0.34536576 -1.6698656 -0.31528336 0
-0.25278944 -1.6298705 -0.31690943 0
-0.14697564 -1.6296331 -0.31877902 0
-0.052953344 -1.6410047 -0.31986144 0
0.04570939 -1.6429231 -0.32216454 0
0.15097931 -1.6451852 -0.32333896 0
0.25424945 -1.6386557 -0.32481164 0
0.35110387 -1.6378876 -0.32871339 0
0.445308 -1.6339067 -0.33004281 0
0.55001444 -1.6395265 -0.33192766 0
0.63402987 -1.6530946 -0.33374074 0
0.74752039 -1.6480017 -0.33607596 0
0.85018808 -1.6494559 -0.33760747 0
0.9565025 -1.647613 -0.33972204 0
1.0510581 -1.6594919 -0.34182158 0
1.1499281 -1.6387002 -0.34265038 0
1.251123 -1.6537449 -0.34542325 0
1.3505863 -1.6502639 -0.34793496 0
1.4520671 -1.6514071 -0.34907299 0
1.569877 -1.6683712 -0.34968877 0
1.6482186 -1.6305708 -0.35377693 0
1.7475649 -1.6561618 -0.35478643 0
1.8644671 -1.6683019 -0.35648745 0
1.9434162 -1.6494049 -0.35881761 0
2.0447898 -1.6530274 -0.36035457 0
2.1446972 -1.6345176 -0.36188531 0
2.2428105 -1.6590437 -0.3633357 0
2.3402081 -1.6464087 -0.36556444 0
2.4607255 -1.6617721 -0.36894533 0
2.5267279 -1.6284894 -0.36971933 0
-1.2360282 -1.5630742 -0.30065185 0
-1.1521617 -1.5230507 -0.30410463 0
-1.0512002 -1.5789992 -0.30202094 0
-0.95719081 -1.5454736 -0.30459711 0
-0.85214025 -1.5377781 -0.30688447 0
-0.74846333 -1.5482086 -0.3090198 0
-0.64900196 -1.5472614 -0.31011441 0
-0.53333753 -1.5430982 -0.31166473 0
-0.45028645 -1.5388168 -0.31328192 0
-0.35353342 -1.5735635 -0.3157199 0
-0.24617365 -1.5557193 -0.31838712 0
-0.14847323 -1.5325643 -0.3204627 0
-0.056634855 -1.5474762 -0.31975538 0
0.050078295 -1.549683 -0.32314995 0
0.15027332 -1.5499499 -0.32493538 0
0.25064948 -1.5428889 -0.32621714 0
0.35228628 -1.5359464 -0.32968605 0
0.45638472 -1.5483892 -0.33092415 0
0.54828179 -1.5571758 -0.33368146 0
0.65081364 -1.57052 -0.33440101 0
0.74408925 -1.5511953 -0.33688518 0
0.85793787 -1.5306503 -0.33941007 0
0.9411 -1.5687835 -0.34021527 0
1.0508797 -1.5440258 -0.3422555 0
1.1540935 -1.5483801 -0.34459001 0
1.2542467 -1.562883 -0.34702367 0
1.3500814 -1.5508492 -0.34829208 0
1.4460813 -1.5368294 -0.34944883 0
1.5516461 -1.5673512 -0.35211664 0
1.6395571 -1.5317063 -0.35383594 0
1.7497944 -1.5431867 -0.35619867 0
1.8455584 -1.5541478 -0.35816333 0
1.9509629 -1.5467991 -0.35940096 0
2.0610993 -1.5551747 -0.36089495 0
2.1445804 -1.5162776 -0.36339208 0
2.2317812 -1.5540107 -0.36503318 0
2.3618279 -1.5461928 -0.36807743 0
2.4588406 -1.5599481 -0.36939502 0
2.5719357 -1.5636816 -0.37162367 0
2.6202292 -1.5336754 -0.3727923 0
-1.2309679 -1.4414458 -0.30090824 0
-1.157676 -1.4576932 -0.3025949 0
-1.0419856 -1.4583765 -0.30326343 0
-0.95555621 -1.448436 -0.30483866 0
-0.85852349 -1.449774 -0.30812633 0
-0.73534703 -1.4347411 -0.31056005 0
-0.64349103 -1.4561061 -0.31112865 0
-0.55297559 -1.4626151 -0.31135997 0
-0.44389677 -1.4502805 -0.31472862 0
-0.34388351 -1.4521228 -0.31800508 0
-0.25269642 -1.4464902 -0.31886855 0
-0.14167026 -1.4622444 -0.3216922 0
-0.047108635 -1.4648021 -0.3212893 0
0.05767183 -1.443563 -0.32566276 0
0.15006162 -1.4407722 -0.32661882 0
0.23154381 -1.438352 -0.32868025 0
0.34648862 -1.4626126 -0.33006138 0
0.45373625 -1.4451429 -0.3325997 0
0.56001377 -1.4428704 -0.33410013 0
0.64672917 -1.453342 -0.33617878 0
0.75998241 -1.4488722 -0.33802557 0
0.84727561 -1.459573 -0.33903754 0
0.94275236 -1.4591228 -0.34120107 0
1.0511829 -1.431581 -0.34392384 0
1.1542956 -1.4595733 -0.34630564 0
1.2407048 -1.4502532 -0.34681401 0
1.3488494 -1.4457903 -0.34781379 0
1.4526262 -1.4370972 -0.35188541 0
1.5473679 -1.4455094 -0.35354054 0
1.6629416 -1.4666876 -0.35541591 0
1.7324769 -1.4420211 -0.35773733 0
1.8454009 -1.4486173 -0.35843268 0
1.9610443 -1.4506125 -0.36018455 0
2.0467615 -1.4583207 -0.36215496 0
2.1505439 -1.4375521 -0.36591816 0
2.2484028 -1.4568638 -0.36721444 0
2.3328199 -1.433548 -0.36836657 0
2.4297712 -1.4456173 -0.37007585 0
2.5310078 -1.4572135 -0.37171626 0
2.6470058 -1.4639839 -0.37344626 0
2.7145188 -1.4113735 -0.37565976 0
-1.3190881 -1.362271 -0.30137852 0
-1.2224436 -1.3369659 -0.30141374 0
-1.1375167 -1.3487533 -0.3037852 0
-1.0463467 -1.3627479 -0.30601937 0
-0.94993269 -1.3538858 -0.30545431 0
-0.844567 -1.3407955 -0.30842832 0
-0.75239074 -1.3715827 -0.30943623 0
-0.6411013 -1.3613243 -0.31262919 0
-0.56103623 -1.3455085 -0.31421465 0
-0.44800425 -1.3430892 -0.31805098 0
-0.35047281 -1.3427173 -0.31885731 0
-0.2484972 -1.3469254 -0.32053956 0
-0.15168394 -1.3728675 -0.32328358 0
-0.053051859 -1.3779733 -0.3225207 0
0.030971779 -1.3731742 -0.32456416 0
0.14864251 -1.3703266 -0.32645351 0
0.26512367 -1.3720244 -0.32861248 0
0.35160589 -1.3698171 -0.33108002 0
0.45069051 -1.354986 -0.33356819 0
0.55592215 -1.3422611 -0.33553541 0
0.64973998 -1.3284001 -0.33762166 0
0.75218701 -1.3543047 -0.3382121 0
0.84688342 -1.3456318 -0.34147972 0
0.95759982 -1.3441211 -0.34375021 0
1.055676 -1.3546523 -0.34526372 0
1.1510396 -1.3530339 -0.34646818 0
1.2479346 -1.345485 -0.34756497 0
1.3548812 -1.3329363 -0.35126179 0
1.4432943 -1.3482027 -0.353127 0
1.556357 -1.3529764 -0.35511532 0
1.6573844 -1.3595647 -0.35651952 0
1.76727 -1.3647726 -0.35759148 0
1.8466961 -1.33068 -0.3594124 0
1.9572358 -1.342051 -0.36277056 0
2.0683491 -1.3540568 -0.36522296 0
2.171804 -1.3561502 -0.36623961 0
2.2603543 -1.3448291 -0.36797398 0
2.3759344 -1.3679692 -0.36962613 0
2.4354551 -1.341169 -0.37091622 0
2.5358713 -1.3495151 -0.37273034 0
2.6412594 -1.3574241 -0.37487522 0
2.7455802 -1.3387105 -0.37629795 0
-1.4327595 -1.2366771 -0.30126449 0
-1.3300805 -1.2249042 -0.30176842 0
-1.2489908 -1.2534864 -0.30289415 0
-1.1464635 -1.2538584 -0.3048974 0
-1.0331395 -1.250355 -0.30715171 0
-0.94680196 -1.2578948 -0.30752456 0
-0.85329419 -1.2481816 -0.30862427 0
-0.74724072 -1.2576567 -0.311102 0
-0.64001077 -1.2418381 -0.31504983 0
-0.54165405 -1.2412896 -0.31547552 0
-0.46332082 -1.2580382 -0.31732327 0
-0.34989536 -1.258539 -0.31790066 0
-0.25590563 -1.2517155 -0.32145348 0
-0.14490035 -1.2465516 -0.32440013 0
-0.056135453 -1.2557994 -0.32541433 0
0.049562976 -1.2562426 -0.32772312 0
0.15333825 -1.2519387 -0.32968679 0
0.24776173 -1.2435223 -0.3307437 0
0.34925619 -1.2432951 -0.33387253 0
0.45463851 -1.246938 -0.33463129 0
0.54363185 -1.2460703 -0.33695799 0
0.65966696 -1.2520422 -0.33812204 0
0.74428958 -1.2582951 -0.33981022 0
0.84839541 -1.2276635 -0.34407026 0
0.95567507 -1.2445782 -0.3452886 0
1.0471488 -1.2673533 -0.34579107 0
1.1492081 -1.249226 -0.34728506 0
1.2592391 -1.2576857 -0.34914136 0
1.3447505 -1.2257475 -0.35400203 0
1.4338858 -1.2465173 -0.35409671 0
1.5508004 -1.2536401 -0.35514185 0
1.6569278 -1.2440093 -0.35701665 0
1.7637371 -1.2469971 -0.35933942 0
1.8767287 -1.2673714 -0.36250591 0
1.9349431 -1.2275838 -0.36388755 0
2.0334425 -1.2495805 -0.36497498 0
2.1385098 -1.2516356 -0.36655039 0
2.2471752 -1.251294 -0.36844981 0
2.3476036 -1.2635565 -0.37029907 0
2.4542463 -1.2317289 -0.37280321 0
2.5705564 -1.2444388 -0.37444332 0
2.6657007 -1.2436785 -0.3760455 0
2.7694294 -1.244032 -0.37868047 0
2.8298044 -1.246954 -0.37970316 0
-1.4039426 -1.1184381 -0.30035052 0
-1.3419706 -1.1499249 -0.30305815 0
-1.2432904 -1.1449748 -0.30374441 0
-1.1375258 -1.1336091 -0.30663025 0
-1.059299 -1.1648211 -0.30782852 0
-0.9525314 -1.152681 -0.30997065 0
-0.85587662 -1.1484509 -0.31067371 0
-0.74560708 -1.1354192 -0.31175357 0
-0.66480213 -1.1545159 -0.31338242 0
-0.56420529 -1.1413784 -0.31700093 0
-0.44753045 -1.1543272 -0.3191061 0
-0.35494334 -1.1528276 -0.31934193 0
-0.24389482 -1.1796337 -0.32286307 0
-0.15017849 -1.1926824 -0.32218906 0
-0.021430694 -1.1975031 -0.32092905 0
0.3419064 -1.1873208 -0.33121252 0
0.45159245 -1.1691093 -0.33591953 0
0.55376631 -1.1470941 -0.33840278 0
0.63470507 -1.1494434 -0.34031039 0
0.74785841 -1.1512715 -0.34319618 0
0.85516822 -1.1446029 -0.3446579 0
0.94697857 -1.1517234 -0.34553888 0
1.0372919 -1.1410652 -0.34765798 0
1.146258 -1.1407415 -0.34963161 0
1.2423761 -1.1538317 -0.35167712 0
1.3634827 -1.158242 -0.35339791 0
1.4426265 -1.1362475 -0.35367817 0
1.5525975 -1.148446 -0.35627976 0
1.6411296 -1.1428837 -0.35859272 0
1.7357919 -1.1541378 -0.36050528 0
1.8461537 -1.1526949 -0.36285663 0
1.9708067 -1.1535558 -0.36446998 0
2.0506885 -1.1517276 -0.36603522 0
2.1472712 -1.142736 -0.36794376 0
2.2497282 -1.1562175 -0.37026778 0
2.3263323 -1.1468201 -0.37145379 0
2.4177728 -1.1491542 -0.37237799 0
2.5275955 -1.1353899 -0.3750155 0
2.6315305 -1.1370852 -0.37716982 0
2.727134 -1.1554084 -0.37902012 0
2.8494444 -1.1594472 -0.38109809 0
2.903501 -1.1093863 -0.38164133 0
-1.4452379 -1.0691895 -0.30070356 0
-1.3529338 -1.0464531 -0.30233636 0
-1.2458074 -1.0418957 -0.30479702 0
-1.1619406 -1.0547979 -0.30675724 0
-1.0503831 -1.04117 -0.3090581 0
-0.94542575 -1.0506424 -0.31109226 0
-0.84471262 -1.0525153 -0.31328639 0
-0.76036668 -1.0653253 -0.31341621 0
-0.64679646 -1.0477465 -0.31557986 0
-0.55094236 -1.0503681 -0.31794176 0
-0.47086033 -1.0928155 -0.31889355 0
0.67276144 -1.0860215 -0.34235296 0
0.75541115 -1.0466881 -0.34348473 0
0.84315741 -1.0473208 -0.34623432 0
0.95079947 -1.0398188 -0.34686142 0
1.0638126 -1.061155 -0.34944105 0
1.1374863 -1.0398822 -0.34995666 0
1.2488328 -1.0549055 -0.35241428 0
1.3462595 -1.0412703 -0.35356918 0
1.4630307 -1.0582535 -0.35655248 0
1.5330986 -1.0425267 -0.35719636 0
1.6526181 -1.0552025 -0.36021224 0
1.7493384 -1.0495477 -0.36217707 0
1.8401401 -1.0594639 -0.36335713 0
1.9374804 -1.0428287 -0.36489376 0
2.0601392 -1.0523918 -0.36790371 0
2.1740654 -1.0525116 -0.36960617 0
2.2657604 -1.0570985 -0.37034306 0
2.3663731 -1.0629619 -0.37257218 0
2.4546802 -1.0505137 -0.37483218 0
2.5745709 -1.0476406 -0.37670386 0
2.6674123 -1.0410953 -0.37781417 0
2.7628105 -1.0555291 -0.38015184 0
2.8573155 -1.0683141 -0.38204217 0
2.9356384 -1.0422134 -0.38477373 0
-1.6424824 -0.93009585 -0.30038381 0
-1.5318875 -0.94143695 -0.30067408 0
-1.44028 -0.94291127 -0.30150446 0
-1.3523864 -0.95630044 -0.30310372 0
-1.2429088 -0.95732313 -0.30577946 0
-1.1517798 -0.95657676 -0.30785379 0
-1.0404441 -0.94126457 -0.31073278 0
-0.94816118 -0.94670016 -0.31156248 0
-0.85437125 -0.94807482 -0.31325641 0
-0.74682671 -0.95835847 -0.3148227 0
-0.66270816 -0.97395021 -0.31571704 0
0.86210364 -0.95654088 -0.34511036 0
0.94985193 -0.94329828 -0.34640688 0
1.0521643 -0.9512893 -0.34940076 0
1.1606506 -0.96438712 -0.35127899 0
1.2429588 -0.94035733 -0.35382786 0
1.3424799 -0.94068748 -0.35531265 0
1.447162 -0.94743246 -0.35695207 0
1.5675186 -0.95558602 -0.36000565 0
1.6505717 -0.934717 -0.36123949 0
1.7774261 -0.95667011 -0.36261809 0
1.8618187 -0.94781291 -0.3647556 0
1.9735814 -0.95539969 -0.36678645 0
2.0700858 -0.94772387 -0.36809066 0
2.1352725 -0.95915574 -0.3689526 0
2.2391276 -0.94865286 -0.37229753 0
2.3230131 -0.96472073 -0.37288213 0
2.4441597 -0.9608354 -0.37396857 0
2.5484402 -0.95991731 -0.37650457 0
2.6371837 -0.94319785 -0.38000023 0
2.7287838 -0.95399171 -0.3810586 0
2.8286512 -0.94381207 -0.38295868 0
2.9317739 -0.96275026 -0.38380647 0
3.0100696 -0.9329915 -0.38694617 0
-1.5506028 -0.841851 -0.30207768 0
-1.4411955 -0.85140461 -0.3023831 0
-1.3286873 -0.84434134 -0.30516979 0
-1.2636014 -0.86646342 -0.30495167 0
-1.1520542 -0.85407466 -0.31047589 0
-1.0484563 -0.84832609 -0.31174067 0
-0.9463768 -0.84122229 -0.3131789 0
-0.84519011 -0.84812868 -0.3140052 0
-0.77272618 -0.88251847 -0.31434575 0
0.96259403 -0.87372649 -0.34840313 0
1.0425775 -0.85006654 -0.35036203 0
1.14372 -0.84600407 -0.35241759 0
1.2628598 -0.8573668 -0.35495207 0
1.352055 -0.83992881 -0.35642144 0
1.4499233 -0.84598732 -0.35819429 0
1.5536304 -0.8505556 -0.35957634 0
1.6485345 -0.84781635 -0.36095855 0
1.7454476 -0.86043304 -0.36340004 0
1.8458697 -0.84506345 -0.36485869 0
1.9492037 -0.8623172 -0.36661816 0
2.0360668 -0.84548968 -0.36872125 0
2.1553023 -0.85908562 -0.369863 0
2.2419229 -0.8421542 -0.37176609 0
2.3456242 -0.85824877 -0.37449321 0
2.4492562 -0.84858066 -0.37720481 0
2.5766478 -0.85973769 -0.37918034 0
2.6747849 -0.85003543 -0.38081193 0
2.7662337 -0.85734379 -0.38286433 0
2.869956 -0.84472662 -0.38421655 0
2.9622631 -0.84888697 -0.38628232 0
3.0416079 -0.84803176 -0.38771579 0
-1.7227403 -0.77391213 -0.30020747 0
-1.6370524 -0.74953651 -0.30136403 0
-1.5496049 -0.75016642 -0.30202305 0
-1.468478 -0.75020605 -0.30406809 0
-1.3705876 -0.75035489 -0.30513534 0
-1.2508079 -0.74809265 -0.30726701 0
-1.1273906 -0.74784255 -0.30955544 0
-1.0598226 -0.75169814 -0.31271461 0
-0.95112109 -0.74998653 -0.31463423 0
-0.8723622 -0.78053898 -0.31367683 0
1.0700098 -0.75661111 -0.35124877 0
1.1556705 -0.74309909 -0.35330859 0
1.2532462 -0.75953621 -0.35502768 0
1.3464509 -0.74972343 -0.35677347 0
1.4462944 -0.7564351 -0.35764048 0
1.5529907 -0.75577182 -0.36081931 0
1.6721765 -0.75854802 -0.36255211 0
1.7388422 -0.74427146 -0.36430466 0
1.8483982 -0.74299198 -0.36621255 0
1.9489546 -0.74495459 -0.36767855 0
2.0486999 -0.74285638 -0.37014109 0
2.1576481 -0.74586815 -0.37292045 0
2.2406435 -0.74763864 -0.3741425 0
2.3370926 -0.7427178 -0.37567946 0
2.4508467 -0.75020647 -0.37755036 0
2.5301361 -0.74470532 -0.37932837 0
2.6213722 -0.75120187 -0.38101926 0
2.7384717 -0.77078778 -0.38259116 0
2.839288 -0.75547141 -0.3856957 0
2.942646 -0.73802286 -0.38760856 0
3.0577793 -0.75143129 -0.38919973 0
3.104594 -0.70025945 -0.39077207 0
-1.7800159 -0.65108418 -0.30020183 0
-1.5478194 -0.68207127 -0.30424276 0
-1.4296564 -0.66835678 -0.30511037 0
-1.3492414 -0.66155046 -0.30719572 0
-1.2388318 -0.64138097 -0.30913734 0
-1.1521055 -0.65651888 -0.31037816 0
-1.0414535 -0.64003986 -0.31349695 0
-0.96261591 -0.67021942 -0.31438544 0
1.1524981 -0.65243155 -0.35496545 0
1.2415912 -0.65854996 -0.3558777 0
1.3577186 -0.66137487 -0.35789406 0
1.4427745 -0.63874757 -0.36102146 0
1.5604285 -0.64285982 -0.36292106 0
1.6571544 -0.64417726 -0.36408696 0
1.7582186 -0.65740299 -0.36567304 0
1.8458549 -0.62570876 -0.36890754 0
1.95228 -0.65128165 -0.37016395 0
2.042711 -0.64924508 -0.37166226 0
2.1305656 -0.64369202 -0.37290668 0
2.2544599 -0.65292418 -0.37516645 0
2.3774607 -0.64460403 -0.37750816 0
2.478591 -0.63404435 -0.37990984 0
2.5645921 -0.65604806 -0.3813065 0
2.6663959 -0.64158791 -0.38350722 0
2.7526658 -0.66234899 -0.38483939 0
2.8543956 -0.64378542 -0.38709298 0
2.9478121 -0.64274693 -0.38909078 0
3.0345955 -0.66166925 -0.39047664 0
3.1340849 -0.63653469 -0.3928737 0
-1.9312323 -0.5088461 -0.30093172 0
-1.2262625 -0.58257014 -0.31032214 0
-1.1404314 -0.56225544 -0.31251428 0
-1.0487132 -0.55701494 -0.314154 0
1.1918721 -0.57703459 -0.35484433 0
1.2513152 -0.5515871 -0.35775307 0
1.3514059 -0.5417546 -0.35993281 0
1.4574076 -0.54948264 -0.36130127 0
1.5448166 -0.55252677 -0.3625147 0
1.638517 -0.562464 -0.36424026 0
1.7464309 -0.5550651 -0.36716092 0
1.8231181 -0.54729962 -0.36860198 0
1.953027 -0.55374533 -0.37085503 0
2.0624971 -0.55146009 -0.37359864 0
2.1557727 -0.54346555 -0.37564507 0
2.2595484 -0.54382724 -0.37722859 0
2.3213153 -0.55854338 -0.37817869 0
2.4215076 -0.54615206 -0.38045835 0
2.5408554 -0.56051272 -0.38246074 0
2.6530287 -0.53883755 -0.38468444 0
2.7880561 -0.54550719 -0.38684797 0
2.8791478 -0.54196155 -0.38823897 0
2.9665017 -0.5584054 -0.38968563 0
3.0577977 -0.55296558 -0.3915619 0
3.1550648 -0.53949285 -0.39353886 0
-1.84124 -0.45716563 -0.30184028 0
-1.7456269 -0.44665775 -0.30197352 0
-1.6679684 -0.43957022 -0.30320027 0
-1.541748 -0.41972676 -0.30646273 0
-1.4426862 -0.40228969 -0.30988595 0
1.2592136 -0.45033512 -0.35843965 0
1.3411896 -0.45973605 -0.35952097 0
1.4666252 -0.45540366 -0.36114413 0
1.5535216 -0.43992648 -0.36388445 0
1.6686809 -0.45227104 -0.36684254 0
1.7495131 -0.46085358 -0.36911246 0
1.8449287 -0.45797226 -0.37083629 0
1.9373851 -0.45174319 -0.3719804 0
2.0501263 -0.4470019 -0.37387589 0
2.1629233 -0.45569882 -0.37619171 0
2.2636855 -0.44288009 -0.37816471 0
2.3506131 -0.46490464 -0.37958881 0
2.4451125 -0.4421722 -0.38099623 0
2.5326388 -0.45799983 -0.38250563 0
2.633451 -0.4373188 -0.38497671 0
2.721179 -0.45188984 -0.38644233 0
2.8399944 -0.45788017 -0.38871694 0
2.9402721 -0.44553375 -0.3909941 0
3.0368614 -0.44516599 -0.39282665 0
3.1631677 -0.45599249 -0.39478958 0
-1.8649837 -0.35106647 -0.30094734 0
-1.7594122 -0.34420368 -0.30376497 0
-1.6483561 -0.35543844 -0.30567813 0
-1.537478 -0.34942633 -0.3064234 0
-1.4559076 -0.3571218 -0.30768511 0
-1.3515204 -0.33801407 -0.31066507 0
-1.296191 -0.34152374 -0.30946192 0
1.2886876 -0.36929104 -0.359225 0
1.3563417 -0.34410945 -0.36237118 0
1.4479409 -0.34840178 -0.36370677 0
1.5351975 -0.34956408 -0.36487609 0
1.6439608 -0.35431138 -0.36678445 0
1.7475215 -0.35073695 -0.36794588 0
1.8692813 -0.35181853 -0.37098587 0
1.9653559 -0.35548413 -0.37341347 0
2.0474875 -0.34003881 -0.37432119 0
2.1294923 -0.3536582 -0.37590671 0
2.2331147 -0.35779071 -0.3782149 0
2.3673999 -0.35463026 -0.38178909 0
2.4841154 -0.33984485 -0.38447285 0
2.5722466 -0.3519012 -0.38589871 0
2.6644711 -0.34513536 -0.38761908 0
2.7527218 -0.35656542 -0.38907111 0
2.8403702 -0.34731105 -0.39038727 0
2.9295762 -0.33693972 -0.39220947 0
3.0181503 -0.34712577 -0.39385438 0
3.1510115 -0.36240488 -0.39632174 0
3.2184696 -0.34682831 -0.3974928 0
-1.9810483 -0.25660965 -0.301451 0
-1.8890022 -0.25838265 -0.30198169 0
-1.7385694 -0.28441927 -0.30337903 0
-1.6400763 -0.27244544 -0.30639002 0
-1.5611964 -0.27741411 -0.30995879 0
-1.4447365 -0.2719852 -0.31154439 0
-1.3411313 -0.25743169 -0.31321588 0
-1.2464682 -0.23471279 -0.31345913 0
-1.1560056 -0.22616079 -0.31563056 0
1.3439013 -0.25814304 -0.36229303 0
1.447408 -0.24039301 -0.36453539 0
1.5602506 -0.25197339 -0.36679327 0
1.6477826 -0.24946201 -0.36843801 0
1.7521466 -0.25694254 -0.37065458 0
1.8645246 -0.25126043 -0.37261218 0
1.9340125 -0.24289672 -0.37409374 0
2.0573997 -0.25157672 -0.37713647 0
2.1573033 -0.24817635 -0.37839413 0
2.2413435 -0.24160929 -0.37986985 0
2.3527608 -0.25357813 -0.38153464 0
2.4209356 -0.25503305 -0.38374844 0
2.5638413 -0.23919739 -0.38596898 0
2.6720991 -0.24929392 -0.38764524 0
2.760875 -0.25757614 -0.38928798 0
2.8548937 -0.24581638 -0.39133841 0
2.9437187 -0.25346184 -0.39295596 0
3.0325434 -0.2611073 -0.39457351 0
3.12588 -0.24656408 -0.3968153 0
3.2210431 -0.25407234 -0.39860407 0
-1.1400355 -0.19775221 -0.3100327 0
1.353424 -0.14583211 -0.36482221 0
1.4478651 -0.15601444 -0.36557418 0
1.5713691 -0.15152767 -0.3677977 0
1.6486453 -0.13025212 -0.37075877 0
1.7441027 -0.15001149 -0.37089974 0
1.8320192 -0.16032067 -0.3718133 0
1.9292104 -0.15225798 -0.373732 0
2.0601361 -0.13797478 -0.37714303 0
2.1718423 -0.1400104 -0.37919971 0
2.2548854 -0.1453656 -0.38075352 0
2.3379288 -0.15072079 -0.38230732 0
2.4289029 -0.16170399 -0.38381648 0
2.5138361 -0.14406365 -0.38633889 0
2.6474566 -0.15172221 -0.38882282 0
2.7810771 -0.15938079 -0.39130676 0
2.8728969 -0.1440029 -0.39293769 0
2.9619453 -0.14846851 -0.39452305 0
3.0509937 -0.1529341 -0.39610842 0
3.1426125 -0.13500619 -0.39750886 0
3.2404788 -0.13923153 -0.39918947 0
1.3661611 -0.048848387 -0.3663705 0
1.4461306 -0.048158526 -0.36697927 0
1.5585817 -0.050000295 -0.36859789 0
1.6408486 -0.046935871 -0.37087795 0
1.7521806 -0.050161317 -0.3720845 0
1.8415797 -0.050013918 -0.37346405 0
1.9246758 -0.056344844 -0.3753812 0
2.0462072 -0.049950998 -0.377534 0
2.1601357 -0.038868435 -0.37993628 0
2.2635174 -0.04860482 -0.38190541 0
2.3468552 -0.05039452 -0.38355729 0
2.4308543 -0.056559138 -0.38521934 0
2.5208473 -0.054137051 -0.3869524 0
2.6317964 -0.056515478 -0.38905111 0
2.7534747 -0.059127767 -0.39144546 0
2.8777275 -0.041176818 -0.39427143 0
2.9671459 -0.042456415 -0.39612097 0
3.0565643 -0.043736011 -0.39797056 0
3.1436632 -0.067500815 -0.39927867 0
1.3680509 0.048955716 -0.36687726 0
1.4386075 0.051476546 -0.36826864 0
1.541101 0.050114367 -0.37036073 0
1.6352955 0.046762928 -0.37228811 0
1.7634459 0.050448339 -0.37463066 0
1.8403361 0.052659586 -0.37603623 0
1.9347491 0.055468094 -0.37780294 0
2.0240123 0.04352149 -0.3789916 0
2.1491554 0.046209972 -0.38149357 0
2.2742984 0.048898447 -0.38399556 0
2.3577271 0.05069077 -0.38566354 0
2.4442756 0.052580379 -0.38748616 0
2.5346701 0.054517638 -0.38912714 0
2.6239889 0.056432795 -0.39083326 0
2.746968 0.051027793 -0.393123 0
2.8869541 0.041327961 -0.39589196 0
2.9764495 0.042608362 -0.39778557 0
3.066257 0.065838739 -0.39925635 0
1.3625085 0.14681773 -0.36727133 0
1.4506085 0.15322502 -0.36808029 0
1.5716833 0.15892333 -0.36983028 0
1.6383864 0.12947398 -0.37146357 0
1.7516277 0.15073326 -0.37391856 0
1.828773 0.15737778 -0.37578601 0
1.9301088 0.15224092 -0.37814987 0
2.0266023 0.14522392 -0.38037419 0
2.1371934 0.15317295 -0.38223326 0
2.2596602 0.13780472 -0.38498926 0
2.3617554 0.15228499 -0.38644031 0
2.4448047 0.15316756 -0.38819423 0
2.5332515 0.16324134 -0.38972425 0
2.6311965 0.15075138 -0.39245594 0
2.7203898 0.15586399 -0.39411724 0
2.8307874 0.15227619 -0.39580983 0
2.9550598 0.13981336 -0.39792246 0
3.0798607 0.11024818 -0.39873302 0
-2.2398219 0.29012915 -0.3003782 0
-2.1571057 0.27941474 -0.30150232 0
-2.0427756 0.27926737 -0.30486128 0
-1.9432096 0.26108363 -0.3057681 0
-1.8198915 0.28891477 -0.30963889 0
-1.7439679 0.27686158 -0.31087661 0
-1.6664116 0.27679169 -0.31201518 0
-1.5801533 0.28073999 -0.31353611 0
-1.4477322 0.26811582 -0.31561202 0
-1.3412366 0.25920337 -0.31679392 0
-1.2558062 0.25512433 -0.31840172 0
-1.1687874 0.24621455 -0.32014424 0
1.3543551 0.24490885 -0.36885917 0
1.4540919 0.25561634 -0.37025052 0
1.5748143 0.25110987 -0.37236464 0
1.6538996 0.25046429 -0.37473473 0
1.7516088 0.25253028 -0.37624085 0
1.8454534 0.23878857 -0.37764263 0
1.928686 0.25366217 -0.3796711 0
2.0215232 0.24718821 -0.38121101 0
2.1513195 0.25400588 -0.38352615 0
2.270016 0.24465334 -0.38601258 0
2.3531959 0.25361452 -0.38782108 0
2.4436402 0.26331326 -0.38979605 0
2.5404975 0.25538379 -0.39200494 0
2.6396871 0.23667842 -0.39224708 0
2.7403448 0.25538757 -0.39497638 0
2.8604515 0.25307119 -0.39764056 0
2.9627855 0.23370942 -0.39806154 0
-2.339817 0.33719781 -0.30076405 0
-2.2463274 0.35654727 -0.30128655 0
-2.1644223 0.34354416 -0.30289432 0
-2.0554051 0.34633526 -0.30567548 0
-1.9256562 0.33405846 -0.30748084 0
-1.8601576 0.35562107 -0.30843773 0
-1.7365049 0.33983248 -0.31118712 0
-1.6602018 0.3496767 -0.31346986 0
-1.5719916 0.35463426 -0.31564149 0
-1.4474622 0.34221962 -0.31683823 0
-1.3401395 0.33270046 -0.31880865 0
-1.2659619 0.31801638 -0.32034841 0
-1.1675398 0.3076264 -0.32351786 0
1.3545687 0.35813868 -0.36983076 0
1.4608108 0.35154805 -0.37245458 0
1.5709767 0.34712949 -0.37402424 0
1.6563362 0.34877923 -0.37470397 0
1.7324711 0.35192677 -0.37614259 0
1.8440421 0.35310727 -0.37865779 0
1.9301125 0.34919471 -0.38017765 0
2.0543532 0.34123471 -0.38284722 0
2.1778355 0.36174488 -0.38520327 0
2.264477 0.34291372 -0.38624552 0
2.3468487 0.35539016 -0.38769761 0
2.4253066 0.3530941 -0.38819376 0
2.5384858 0.34729111 -0.39054152 0
2.636605 0.3607125 -0.39297572 0
2.7592142 0.35081148 -0.39578965 0
2.8624501 0.33972225 -0.39798474 0
-2.4099596 0.45365629 -0.30111232 0
-2.3176258 0.45341939 -0.30166286 0
-2.233546 0.45361987 -0.30306059 0
-2.1518569 0.43702856 -0.30434343 0
-2.0656524 0.4505136 -0.30568025 0
-1.9429536 0.43830138 -0.30821458 0
-1.8727449 0.46187571 -0.30909339 0
-1.7499477 0.45353264 -0.31146261 0
-1.6415601 0.43250048 -0.31352794 0
-1.558339 0.41658846 -0.31490672 0
1.293119 0.4940823 -0.37092027 0
1.3470047 0.44924542 -0.37157863 0
1.4528215 0.45028168 -0.37254548 0
1.5504659 0.44762728 -0.37434816 0
1.6454378 0.44610763 -0.37693065 0
1.7342842 0.45964724 -0.37760192 0
1.8584805 0.45448142 -0.38012019 0
1.9325787 0.43960273 -0.38163161 0
2.062948 0.44683725 -0.38415191 0
2.1627238 0.45544395 -0.38596806 0
2.2498636 0.44025573 -0.38740519 0
2.3318965 0.4563067 -0.38909221 0
2.424983 0.43852183 -0.39082342 0
2.5367985 0.45875624 -0.39299461 0
2.6646409 0.44261006 -0.39511457 0
2.7590311 0.44465733 -0.39735079 0
2.8705444 0.43466568 -0.39837161 0
2.9544191 0.40420216 -0.39904156 0
-2.3664069 0.54725099 -0.30105981 0
-2.2355504 0.55490613 -0.30328012 0
-2.1310017 0.54516083 -0.30507892 0
-2.043987 0.53856677 -0.30619609 0
-1.9638008 0.54772425 -0.30848479 0
-1.8723255 0.53954083 -0.3093937 0
-1.2308654 0.58473092 -0.32377148 0
-1.1366889 0.57248837 -0.32637829 0
-1.0736343 0.56014264 -0.32459244 0
1.2639139 0.54621339 -0.36901167 0
1.3434962 0.54656202 -0.3710016 0
1.4531841 0.56336349 -0.37236869 0
1.5261995 0.54391849 -0.37399098 0
1.6444374 0.54872274 -0.3762174 0
1.7577877 0.54210442 -0.3789894 0
1.8665761 0.54944462 -0.37981358 0
1.9632709 0.54745579 -0.38194871 0
2.0469165 0.5549829 -0.38370943 0
2.1370299 0.54670054 -0.3858647 0
2.2235384 0.55188996 -0.38774243 0
2.331279 0.56101573 -0.39026919 0
2.4257731 0.54728138 -0.3915461 0
2.5609438 0.55213159 -0.39438525 0
2.6585009 0.53348947 -0.39645958 0
2.7741334 0.54284739 -0.39849007 0
2.8619716 0.51755768 -0.39971057 0
-2.4622164 0.66763556 -0.30083185 0
-2.3698525 0.65628886 -0.30236971 0
-2.2668185 0.6407392 -0.30413601 0
-2.1443813 0.65096468 -0.30613497 0
-2.0334823 0.64635777 -0.30887163 0
-1.9446145 0.6489619 -0.31028217 0
-1.8619593 0.65102792 -0.31245172 0
-1.4541143 0.67410964 -0.32026258 0
-1.3356694 0.66194743 -0.32210273 0
-1.2441171 0.64697421 -0.32464677 0
-1.1444899 0.6528638 -0.32509643 0
-1.0407022 0.65865469 -0.3274534 0
1.1841626 0.68179405 -0.36612868 0
1.2465838 0.65154213 -0.37184778 0
1.3528764 0.63985896 -0.37290019 0
1.4728358 0.65389794 -0.37466499 0
1.567323 0.65094882 -0.37597409 0
1.6487644 0.6434859 -0.37711564 0
1.732868 0.64790976 -0.37911949 0
1.8396994 0.64899474 -0.3817071 0
1.9432615 0.64832848 -0.38385811 0
2.0335793 0.64639944 -0.38596082 0
2.1547282 0.65104038 -0.38744438 0
2.2806401 0.65362716 -0.38964427 0
2.3762686 0.6547789 -0.39158565 0
2.4481673 0.63579297 -0.39442942 0
2.5733263 0.65834779 -0.39611021 0
2.6681633 0.64220095 -0.3977077 0
2.7536321 0.64186805 -0.39894626 0
-2.5335712 0.78529352 -0.3009907 0
-2.4418881 0.756881 -0.30158672 0
-2.3511117 0.74350995 -0.30330619 0
-2.265918 0.73818547 -0.30510613 0
-2.1646593 0.7395165 -0.3076244 0
-2.0484111 0.74926943 -0.30928254 0
-1.927206 0.72060168 -0.31132391 0
-1.8184555 0.78585827 -0.31376684 0
-1.7064909 0.78134656 -0.31603137 0
-1.6238585 0.77182174 -0.31712595 0
-1.5503454 0.75057292 -0.31869596 0
-1.4572756 0.74830163 -0.32063982 0
-1.3528321 0.75330633 -0.32277739 0
-1.2427201 0.73257947 -0.32358482 0
-1.1566488 0.75595528 -0.32536188 0
-1.0534179 0.74754834 -0.32808506 0
-0.96565765 0.75803757 -0.32904455 0
1.1547085 0.7557832 -0.36993614 0
1.2520119 0.75898355 -0.3727515 0
1.3395699 0.75025487 -0.374439 0
1.4369134 0.75082535 -0.37620074 0
1.5435706 0.76377922 -0.37847513 0
1.644524 0.75297636 -0.37946618 0
1.7539245 0.74318862 -0.38131836 0
1.8332119 0.74765182 -0.38328302 0
1.9562014 0.7475 -0.38522086 0
2.0602002 0.74553579 -0.38645917 0
2.1575041 0.74580228 -0.38956317 0
2.2617176 0.75458479 -0.39164713 0
2.3643689 0.75148129 -0.39375183 0
2.4604023 0.74340957 -0.39487657 0
2.5500097 0.75059652 -0.39656442 0
2.6384239 0.75617748 -0.39805055 0
2.7259822 0.76013958 -0.39945376 0
-2.6053066 0.89002442 -0.3010861 0
-2.5143235 0.85904813 -0.30181733 0
-2.430042 0.84962022 -0.303877 0
-2.3359957 0.83551973 -0.30495057 0
-2.2447233 0.82107353 -0.30620563 0
-2.1618643 0.8083427 -0.3073388 0
-2.0534358 0.86999995 -0.31009743 0
-1.9674077 0.86700362 -0.31197932 0
-1.8576497 0.83973271 -0.31339061 0
-1.7728378 0.85826945 -0.31484756 0
-1.6656488 0.83894938 -0.31752947 0
-1.551391 0.84941316 -0.3197085 0
-1.4382802 0.8521561 -0.32250956 0
-1.3585489 0.85391635 -0.32293376 0
-1.2504693 0.84457308 -0.32515672 0
-1.149225 0.84470361 -0.32822672 0
-1.0610813 0.85933346 -0.3285116 0
-0.95354122 0.84485698 -0.33147109 0
-0.87836725 0.88156891 -0.33347568 0
1.0626582 0.88450962 -0.37049285 0
1.1535648 0.84661889 -0.37250036 0
1.2612135 0.85158062 -0.37328774 0
1.3643073 0.86551058 -0.37627098 0
1.4453495 0.84254599 -0.37802845 0
1.554177 0.85380352 -0.37998968 0
1.6570058 0.84645444 -0.38164163 0
1.7625898 0.85956413 -0.38355738 0
1.8444449 0.83932573 -0.38435432 0
1.9542649 0.86111838 -0.38643172 0
2.0515141 0.85187024 -0.38831261 0
2.1432965 0.85428411 -0.39027643 0
2.2297106 0.85199958 -0.39111114 0
2.3264647 0.85095745 -0.3931722 0
2.431525 0.85007006 -0.39564565 0
2.5300653 0.84416229 -0.39774922 0
2.6211119 0.85374665 -0.39944428 0
-2.6688559 0.97618353 -0.30041766 0
-2.5845532 0.94534802 -0.30152506 0
-2.448915 0.93575174 -0.3035394 0
-2.3518829 0.93771362 -0.30489203 0
-2.2777469 0.95732528 -0.3064937 0
-2.1405587 0.94330013 -0.30972165 0
-2.039762 0.95533192 -0.31107801 0
-1.9346544 0.95379949 -0.31293344 0
