# .PCD v0.7 - Point Cloud Data file format
VERSION 0.7
FIELDS x y z intensity
SIZE 4 4 4 4
TYPE F F F F
COUNT 1 1 1 1
WIDTH 1347
HEIGHT 1
VIEWPOINT 0 0 0 1 0 0 0
POINTS 1347
DATA ascii
1.246581 -1.4236552 -0.33642253 0
1.3486854 -1.4540163 -0.33671609 0
1.4476211 -1.4528866 -0.33659515 0
1.543288 -1.4542207 -0.33706802 0
1.6443214 -1.4502487 -0.33907479 0
1.7426248 -1.4366089 -0.3394537 0
1.8396497 -1.4440975 -0.34001324 0
1.9398519 -1.4349813 -0.34174958 0
2.0420303 -1.4437215 -0.34198549 0
2.1452096 -1.4486505 -0.34188643 0
2.2646248 -1.4366266 -0.34355816 0
2.3691564 -1.4558542 -0.34423089 0
2.4221454 -1.4177177 -0.34460908 0
-2.9539008 -1.3016835 -0.30027196 0
-2.8428566 -1.3511782 -0.30091974 0
-2.7394707 -1.3504387 -0.30221763 0
-2.6398423 -1.3486289 -0.30370715 0
-2.5342181 -1.3406807 -0.3042281 0
-2.4339774 -1.3326043 -0.30489719 0
-2.3224518 -1.3594493 -0.30632725 0
-2.2383037 -1.3317313 -0.30770245 0
-2.1322677 -1.3314259 -0.30754402 0
-2.0683911 -1.3668664 -0.30842763 0
-1.9467177 -1.3489523 -0.30959827 0
-1.8574979 -1.3536043 -0.30960214 0
-1.7674843 -1.3672096 -0.3105365 0
-1.6728703 -1.3523697 -0.31198373 0
-1.5659504 -1.3417807 -0.31249058 0
-1.4433217 -1.3483815 -0.31402022 0
-1.3559215 -1.3531103 -0.31419063 0
-1.2526528 -1.3543024 -0.31430563 0
-1.1581196 -1.3614438 -0.31561971 0
-1.0508243 -1.3485695 -0.31653646 0
-0.93819982 -1.3247555 -0.3168081 0
-0.8629083 -1.361002 -0.31737059 0
-0.75995779 -1.3466424 -0.31806406 0
-0.65171397 -1.3482217 -0.31882575 0
-0.55467147 -1.3495015 -0.31996891 0
-0.45167604 -1.3323866 -0.32198831 0
-0.34402946 -1.349069 -0.32377908 0
-0.25492635 -1.3618168 -0.32430997 0
-0.1582741 -1.3688356 -0.32339337 0
-0.067128412 -1.3659486 -0.32378405 0
0.030904591 -1.3718348 -0.32420629 0
0.14935806 -1.3406113 -0.32661894 0
0.25854406 -1.3698238 -0.32752758 0
0.348656 -1.3581065 -0.32795736 0
0.44486594 -1.349192 -0.32942435 0
0.54885393 -1.3349149 -0.3301501 0
0.65170795 -1.3588903 -0.33086517 0
0.74794507 -1.3545238 -0.33159366 0
0.84617919 -1.3441346 -0.33267814 0
0.95302022 -1.3682747 -0.33336055 0
1.0510375 -1.3485087 -0.33373895 0
1.1513039 -1.3423245 -0.33700904 0
1.2424557 -1.3394567 -0.33609185 0
1.3478168 -1.333304 -0.33734363 0
1.4437708 -1.3486884 -0.3374669 0
1.5527163 -1.3497727 -0.33860067 0
1.6581397 -1.3547769 -0.33930016 0
1.7515656 -1.3348734 -0.34073275 0
1.8607965 -1.3493851 -0.34163901 0
1.9396321 -1.3370847 -0.34140766 0
2.0415118 -1.3503628 -0.34221855 0
2.1512659 -1.3505749 -0.34417009 0
2.2297876 -1.348359 -0.34405822 0
2.3310049 -1.3421469 -0.34498417 0
2.447001 -1.3533536 -0.34628314 0
2.509593 -1.3048254 -0.34730026 0
-3.2145946 -1.2019691 -0.30025715 0
-3.1840305 -1.2427666 -0.30010331 0
-3.0851507 -1.2297223 -0.30046868 0
-2.9830005 -1.2386885 -0.30066702 0
-2.8785992 -1.2439928 -0.30122086 0
-2.7583673 -1.246974 -0.30269009 0
-2.6776919 -1.2726957 -0.3026841 0
-2.5596323 -1.2465121 -0.30488679 0
-2.4763961 -1.2651441 -0.3054463 0
-2.3568456 -1.2468586 -0.30646086 0
-2.2627382 -1.2600698 -0.30610949 0
-2.1625817 -1.2539922 -0.30841061 0
-2.0437639 -1.2558799 -0.30917898 0
-1.9565452 -1.2412598 -0.31001636 0
-1.8487988 -1.2485788 -0.31087494 0
-1.7451068 -1.2527615 -0.31164104 0
-1.6445284 -1.2533675 -0.31301761 0
-1.5400683 -1.2430193 -0.31432229 0
-1.4599881 -1.2556046 -0.31325287 0
-1.3480747 -1.2486187 -0.31579643 0
-1.2418008 -1.252381 -0.31616467 0
-1.1363312 -1.2428954 -0.31610996 0
-1.0444807 -1.2458135 -0.31752065 0
-0.9628945 -1.2680002 -0.31748563 0
-0.8467347 -1.2496041 -0.31856683 0
-0.75034201 -1.2507213 -0.31953576 0
-0.65052682 -1.2366595 -0.31980279 0
-0.55314547 -1.2516854 -0.32036209 0
-0.45889705 -1.2582116 -0.32141167 0
-0.35316435 -1.2492549 -0.32303816 0
-0.24927726 -1.2502855 -0.32391942 0
-0.15636398 -1.2437369 -0.32421333 0
-0.053499293 -1.2393349 -0.32442403 0
0.049415439 -1.2530314 -0.32694936 0
0.15150711 -1.2439377 -0.32616156 0
0.24947903 -1.2456801 -0.32801539 0
0.34156805 -1.2469301 -0.33054706 0
0.45104155 -1.2527689 -0.32967505 0
0.55582583 -1.2489866 -0.33085722 0
0.64124596 -1.2628452 -0.33077681 0
0.74572563 -1.2419295 -0.33226773 0
0.83935076 -1.239547 -0.33472234 0
0.95077926 -1.2516346 -0.33384785 0
1.0566553 -1.2602103 -0.33566156 0
1.1625633 -1.2533267 -0.3358328 0
1.2429231 -1.2473941 -0.33711505 0
1.3481554 -1.2378033 -0.33732313 0
1.4448863 -1.2381631 -0.33901867 0
1.5421644 -1.246604 -0.33933523 0
1.6412407 -1.2508227 -0.34006986 0
1.757696 -1.2443439 -0.34152058 0
1.868919 -1.2426729 -0.34197608 0
1.972767 -1.2514654 -0.34296849 0
2.0567789 -1.254019 -0.34413612 0
2.1626952 -1.245234 -0.34457964 0
2.2637181 -1.2819045 -0.34504831 0
2.3435149 -1.2398956 -0.34631336 0
2.4535394 -1.2462225 -0.34708861 0
2.5367136 -1.2279563 -0.34717944 0
-3.2257912 -1.1538084 -0.3000423 0
-3.1505911 -1.1610633 -0.30089173 0
-3.0178356 -1.1530474 -0.30185476 0
-2.9270523 -1.1424704 -0.30241823 0
-2.8235724 -1.1488992 -0.30273032 0
-2.7246103 -1.1543216 -0.30336246 0
-2.6272631 -1.1578414 -0.30425552 0
-2.532177 -1.1594399 -0.30543157 0
-2.4373314 -1.1584303 -0.306918 0
-2.3363476 -1.1517062 -0.30771294 0
-2.2355993 -1.1421086 -0.30872864 0
-2.1692479 -1.1718107 -0.3075791 0
-2.049747 -1.1414909 -0.3082872 0
-1.946843 -1.1519415 -0.31124118 0
-1.8511246 -1.1437622 -0.31137747 0
-1.7620265 -1.1536351 -0.31225127 0
-1.6397941 -1.1419256 -0.31369725 0
-1.5618782 -1.1580207 -0.3144981 0
-1.464862 -1.1499439 -0.31490561 0
-1.3522059 -1.1418754 -0.31528497 0
-1.2647128 -1.1482919 -0.31619307 0
-1.1557677 -1.1464547 -0.31787032 0
-1.0459176 -1.1532825 -0.31742331 0
-0.94509739 -1.1510661 -0.31928352 0
-0.84596944 -1.1382096 -0.32116982 0
-0.74797511 -1.1569941 -0.3212831 0
-0.64805222 -1.1615031 -0.32049942 0
-0.54897243 -1.1442556 -0.32189909 0
-0.4464488 -1.1561812 -0.32304734 0
-0.34453964 -1.1553215 -0.323136 0
-0.24478698 -1.1835738 -0.32394567 0
-0.12408694 -1.1918857 -0.32109863 0
0.1510811 -1.198786 -0.3239615 0
0.25041628 -1.1886297 -0.32560629 0
0.3614836 -1.1812848 -0.33105454 0
0.45017931 -1.1549532 -0.32969078 0
0.54281396 -1.1528548 -0.33089334 0
0.65639079 -1.1494644 -0.33202633 0
0.74048263 -1.1457865 -0.33325312 0
0.85436922 -1.1507046 -0.33362529 0
0.94975537 -1.1327276 -0.33500999 0
1.0536584 -1.1527352 -0.33554089 0
1.1490556 -1.1531416 -0.33665919 0
1.2547548 -1.1656406 -0.33730847 0
1.3401325 -1.1441096 -0.33869451 0
1.4563441 -1.1501331 -0.33918604 0
1.545135 -1.1430364 -0.33961645 0
1.6371313 -1.1399528 -0.34143424 0
1.7367866 -1.1512333 -0.34141216 0
1.8388852 -1.1431638 -0.34330359 0
1.9423352 -1.1556479 -0.34431931 0
2.0489533 -1.1409357 -0.34459731 0
2.1407435 -1.1522359 -0.3450664 0
2.2371938 -1.1632141 -0.34590912 0
2.3503435 -1.1377476 -0.3466976 0
2.4488027 -1.1424117 -0.3475287 0
2.5572069 -1.1488049 -0.34866568 0
2.6053267 -1.1258754 -0.34848541 0
-3.257309 -1.06095 -0.30003777 0
-3.1555569 -1.0528014 -0.30089185 0
-3.0644445 -1.0468767 -0.30185106 0
-2.9701631 -1.0385063 -0.30267325 0
-2.8724217 -1.0506303 -0.30380821 0
-2.7762873 -1.0379959 -0.30441532 0
-2.6751499 -1.0441524 -0.30496132 0
-2.5731928 -1.0470225 -0.30533135 0
-2.4759197 -1.0489563 -0.30618957 0
-2.3803234 -1.0490283 -0.30733916 0
-2.2742324 -1.0491374 -0.30902153 0
-2.1636 -1.0473201 -0.31011146 0
-2.0607712 -1.0527817 -0.31038323 0
-1.9588081 -1.0542808 -0.31016481 0
-1.8690344 -1.0408571 -0.31083739 0
-1.7497135 -1.0465829 -0.31348696 0
-1.6508117 -1.0472877 -0.3132807 0
-1.5494249 -1.049735 -0.31375489 0
-1.4423292 -1.0511299 -0.31537452 0
-1.3520062 -1.0456892 -0.31650251 0
-1.2380927 -1.0455009 -0.31635717 0
-1.1450561 -1.054513 -0.31823763 0
-1.0466862 -1.056596 -0.31918019 0
-0.93996793 -1.0428882 -0.31986463 0
-0.85979879 -1.0558249 -0.32071647 0
-0.75842345 -1.0486716 -0.321657 0
-0.65232003 -1.0495647 -0.32225329 0
-0.55350906 -1.0738157 -0.32379973 0
-0.48802409 -1.096771 -0.32166666 0
0.5788641 -1.0846647 -0.32945576 0
0.66120762 -1.0508109 -0.33280298 0
0.74802417 -1.0637239 -0.33340406 0
0.84832168 -1.0416956 -0.33369565 0
0.96027929 -1.0578959 -0.33503309 0
1.0384229 -1.0372034 -0.33636752 0
1.1456107 -1.0549803 -0.33724475 0
1.2480923 -1.0540696 -0.33816424 0
1.3620539 -1.0535721 -0.33848885 0
1.4433643 -1.0311049 -0.33979198 0
1.5553727 -1.0567964 -0.34101167 0
1.649559 -1.0466959 -0.34169051 0
1.7583065 -1.0528687 -0.34366909 0
1.8730294 -1.0607637 -0.34342584 0
1.9369849 -1.0377425 -0.34450346 0
2.0504744 -1.0475183 -0.34473991 0
2.1606011 -1.058847 -0.34524831 0
2.2525811 -1.0512272 -0.34687674 0
2.3555827 -1.0380514 -0.34752521 0
2.459161 -1.0351433 -0.34856483 0
2.5493512 -1.037558 -0.3495189 0
2.637104 -1.0511353 -0.34956291 0
-3.3046989 -0.9215076 -0.3001534 0
-3.2932587 -0.9183175 -0.30027011 0
-3.1444979 -0.95030129 -0.30074733 0
-3.0846803 -0.95611268 -0.30130133 0
-2.9549723 -0.93918753 -0.30298588 0
-2.8379586 -0.95451951 -0.30402929 0
-2.7149706 -0.9492842 -0.30533987 0
-2.6185191 -0.95775783 -0.30648279 0
-2.5229561 -0.94327015 -0.3069289 0
-2.4232481 -0.94583434 -0.30750439 0
-2.3208268 -0.93951112 -0.30804509 0
-2.2354767 -0.93469048 -0.3086372 0
-2.1413786 -0.94371963 -0.31011707 0
-2.0391636 -0.95498955 -0.31146312 0
-1.9361984 -0.93723452 -0.31248373 0
-1.8355395 -0.9377144 -0.31244233 0
-1.7320747 -0.94590801 -0.31215605 0
-1.6497982 -0.94061679 -0.31381053 0
-1.5512069 -0.94423658 -0.31518859 0
-1.4534274 -0.94279289 -0.31491479 0
-1.3361353 -0.9524591 -0.31656697 0
-1.2629635 -0.96623594 -0.31751442 0
-1.1488982 -0.95016658 -0.31921491 0
-1.0398558 -0.94771379 -0.32011744 0
-0.96423131 -0.96096617 -0.32077041 0
-0.85505652 -0.95013356 -0.32201257 0
-0.75556612 -0.95229709 -0.32186216 0
-0.67540765 -0.99239576 -0.32168585 0
0.76305425 -0.9792555 -0.33271256 0
0.85904187 -0.9441154 -0.33604583 0
0.95698774 -0.94687039 -0.33624232 0
1.0567582 -0.95963895 -0.33662826 0
1.1303793 -0.94866341 -0.33750483 0
1.2506281 -0.95305705 -0.33784685 0
1.344903 -0.94241965 -0.33969167 0
1.447876 -0.94788998 -0.33999598 0
1.5449493 -0.94928604 -0.3417047 0
1.6713852 -0.94638938 -0.34290522 0
1.7642615 -0.94953078 -0.34347093 0
1.8607278 -0.95051372 -0.34431592 0
1.9542065 -0.95363533 -0.34482393 0
2.0559549 -0.95913333 -0.3459332 0
2.1499622 -0.96586007 -0.34662917 0
2.2582998 -0.93766731 -0.34734488 0
2.3548284 -0.93851393 -0.34821615 0
2.4565771 -0.93863755 -0.34912705 0
2.5421758 -0.95049739 -0.34969273 0
2.6453128 -0.96753478 -0.35076278 0
2.7148519 -0.92744809 -0.35226494 0
-3.3265259 -0.84265107 -0.30067292 0
-3.2352057 -0.85240948 -0.30133057 0
-3.1195018 -0.84590107 -0.30214691 0
-3.0324318 -0.86906707 -0.30259335 0
-2.9459424 -0.84428239 -0.30365193 0
-2.8430424 -0.85888237 -0.30426413 0
-2.7513783 -0.85275823 -0.30546737 0
-2.6464961 -0.86200589 -0.3059673 0
-2.5571809 -0.85315192 -0.30710012 0
-2.4676521 -0.84300065 -0.30822933 0
-2.3618672 -0.84480762 -0.30887723 0
-2.2580235 -0.84437007 -0.30989245 0
-2.1672239 -0.84581614 -0.31081536 0
-2.0699854 -0.84214681 -0.31109825 0
-1.9759674 -0.8371976 -0.31161496 0
-1.8605474 -0.84108824 -0.31396863 0
-1.7661794 -0.85501802 -0.31385654 0
-1.6697248 -0.83791316 -0.31475472 0
-1.5632006 -0.84420758 -0.31586838 0
-1.4418391 -0.83620012 -0.31719473 0
-1.3602201 -0.86293173 -0.31599569 0
-1.2573565 -0.8473466 -0.31790391 0
-1.1405284 -0.83877701 -0.32022879 0
-1.0542698 -0.86697644 -0.32104424 0
-0.94910157 -0.84930414 -0.32146788 0
-0.85591364 -0.85911214 -0.32279432 0
0.89284408 -0.87079251 -0.33418807 0
0.95103091 -0.84246349 -0.33550757 0
1.04794 -0.84706813 -0.33666813 0
1.1646633 -0.85678494 -0.33796614 0
1.2430584 -0.83712053 -0.33949107 0
1.3567291 -0.84715056 -0.34098983 0
1.454743 -0.84883279 -0.34176913 0
1.5343448 -0.85181403 -0.34220216 0
1.6395429 -0.8523466 -0.34376198 0
1.7311771 -0.8533318 -0.34424525 0
1.843834 -0.86024034 -0.34536046 0
1.9631323 -0.86297077 -0.34576401 0
2.0319457 -0.84387392 -0.34613675 0
2.1396635 -0.85319525 -0.34722522 0
2.231977 -0.85282207 -0.34823468 0
2.3406565 -0.84365135 -0.3495667 0
2.4432967 -0.83473402 -0.34996104 0
2.5507641 -0.85144401 -0.35142598 0
2.6561434 -0.84408784 -0.35253498 0
2.7489903 -0.85207856 -0.35338467 0
-3.3469758 -0.75492179 -0.30120623 0
-3.2486205 -0.7327413 -0.30208975 0
-3.1499224 -0.75803804 -0.30253696 0
-3.0521729 -0.75758809 -0.30321255 0
-2.9578934 -0.7566992 -0.30386627 0
-2.8667126 -0.75531459 -0.30464855 0
-2.771174 -0.75145495 -0.30519313 0
-2.664197 -0.75307822 -0.30687785 0
-2.5484488 -0.74033898 -0.30788881 0
-2.4352901 -0.72648495 -0.3100206 0
-2.3782334 -0.7532708 -0.30896434 0
-2.2479267 -0.75006574 -0.31068397 0
-2.1299105 -0.76181751 -0.31197369 0
-2.0294785 -0.74234957 -0.31339017 0
-1.9328758 -0.75433952 -0.31422737 0
-1.831177 -0.76032019 -0.31407654 0
-1.6361331 -0.77030009 -0.31611288 0
-1.5351179 -0.75672734 -0.31677133 0
-1.4460756 -0.7424221 -0.31837872 0
-1.3443081 -0.75122821 -0.3182829 0
-1.250713 -0.75631756 -0.31773707 0
-1.1520116 -0.74443573 -0.31900984 0
-1.0452511 -0.7503885 -0.32013613 0
-0.94231975 -0.75075597 -0.32077786 0
-0.89331073 -0.79934174 -0.32119796 0
0.98008692 -0.78067029 -0.33574921 0
1.0462656 -0.75102389 -0.3384209 0
1.1482656 -0.74494225 -0.3393285 0
1.2607892 -0.75364345 -0.34099951 0
1.343053 -0.74088001 -0.3421286 0
1.4391835 -0.74837679 -0.34185588 0
1.5538703 -0.7694751 -0.34381759 0
1.6326481 -0.74274379 -0.34484866 0
1.7649271 -0.74494076 -0.34483057 0
1.8631303 -0.75808275 -0.3452279 0
1.9525086 -0.74602872 -0.34669545 0
2.055608 -0.75183439 -0.34758624 0
2.1517975 -0.75241452 -0.34786376 0
2.2478259 -0.74993318 -0.34902582 0
2.3422482 -0.74429971 -0.34983161 0
2.4404442 -0.73737794 -0.35116538 0
2.5266814 -0.74370599 -0.3515783 0
2.6350002 -0.75514609 -0.35239503 0
2.7573428 -0.74771243 -0.35284045 0
-3.3761649 -0.66063327 -0.3014352 0
-3.2832484 -0.64246047 -0.30245852 0
-3.1665847 -0.64311957 -0.30374822 0
-3.0501184 -0.64250183 -0.30496669 0
-2.9573765 -0.65978777 -0.30480507 0
-2.8357632 -0.64687926 -0.30569977 0
-2.7397473 -0.66639513 -0.30646768 0
-2.623879 -0.63144767 -0.30755866 0
-2.5456202 -0.6578474 -0.30712739 0
-2.4257681 -0.63913631 -0.30872023 0
-2.3248761 -0.64837521 -0.31043649 0
-2.2393484 -0.65909022 -0.31190255 0
-2.1508586 -0.64973557 -0.31282198 0
-2.0639198 -0.63965261 -0.31366429 0
-1.9672182 -0.6562953 -0.31417319 0
-1.8781817 -0.65670115 -0.31517407 0
-1.4648743 -0.68336999 -0.3181178 0
-1.3563116 -0.66269946 -0.31932461 0
-1.2379364 -0.65165383 -0.31828383 0
-1.1529317 -0.66279417 -0.31906492 0
-1.0445844 -0.64170849 -0.31968695 0
-0.97613263 -0.67982626 -0.31874317 0
1.0760067 -0.66126019 -0.3384766 0
1.151049 -0.64650077 -0.34059623 0
1.2492526 -0.66259754 -0.34070683 0
1.3351347 -0.64635694 -0.34102637 0
1.4492007 -0.65621781 -0.34377435 0
1.5506412 -0.6438809 -0.34369043 0
1.6464351 -0.64266217 -0.34359452 0
1.73339 -0.64803755 -0.34475154 0
1.8332831 -0.65876162 -0.34553218 0
1.9548125 -0.64698046 -0.34692264 0
2.0685399 -0.65741152 -0.34724751 0
2.1345375 -0.64495999 -0.34880945 0
2.2789562 -0.65312451 -0.34928441 0
2.3720992 -0.64316142 -0.34984252 0
2.4615722 -0.6485498 -0.3503066 0
2.5528538 -0.65307134 -0.35105336 0
2.6447008 -0.65647793 -0.35149986 0
2.7477851 -0.66124082 -0.35268626 0
2.8222485 -0.63657475 -0.35523355 0
-3.4085183 -0.54111528 -0.30249736 0
-3.363019 -0.5671075 -0.30238736 0
-3.2566423 -0.54118639 -0.30362555 0
-3.1378853 -0.5595935 -0.30390799 0
-3.0183668 -0.54585278 -0.30496442 0
-2.9306479 -0.55174941 -0.30623552 0
-2.8411655 -0.55596238 -0.3073298 0
-2.7440431 -0.55728942 -0.30788967 0
-2.6557095 -0.53934807 -0.30880067 0
-2.5562069 -0.55725753 -0.30931607 0
-2.4600837 -0.54088748 -0.31000122 0
-2.3530746 -0.54848927 -0.31065008 0
-2.2571552 -0.56027859 -0.31095722 0
-2.1585422 -0.53580594 -0.31270504 0
-2.0509744 -0.54842073 -0.31454983 0
-1.9385746 -0.54436409 -0.31538245 0
-1.8525962 -0.51659214 -0.31799018 0
-1.2382433 -0.58853179 -0.32130831 0
-1.1433606 -0.57380176 -0.31892881 0
-1.0594816 -0.55085725 -0.32006118 0
1.1528546 -0.5525018 -0.33997351 0
1.245064 -0.55919039 -0.34163874 0
1.3678836 -0.54822665 -0.34293449 0
1.4570309 -0.55664545 -0.3433564 0
1.5498908 -0.55694997 -0.34347022 0
1.6641544 -0.54939157 -0.34492192 0
1.7512141 -0.54726791 -0.34652236 0
1.8585382 -0.54711121 -0.34637153 0
1.9416305 -0.54134691 -0.3466025 0
2.0444531 -0.55434537 -0.34728721 0
2.1287863 -0.54054701 -0.34857225 0
2.2192936 -0.55085713 -0.34902298 0
2.3319855 -0.56118923 -0.35006386 0
2.4470754 -0.55225027 -0.35123268 0
2.565083 -0.54007685 -0.35238558 0
2.670706 -0.56230658 -0.35328162 0
2.7658584 -0.54118305 -0.35426626 0
2.8359385 -0.5547393 -0.35483244 0
-3.4206297 -0.45963171 -0.30341342 0
-3.3403118 -0.46526733 -0.30282542 0
-3.2224 -0.44087163 -0.30447423 0
-3.1339405 -0.45170316 -0.30533722 0
-3.0437527 -0.46094885 -0.30573833 0
-2.9546697 -0.44745934 -0.30671835 0
-2.8583524 -0.4537479 -0.30740348 0
-2.7674458 -0.4596023 -0.30854261 0
-2.6529624 -0.43423858 -0.31010374 0
-2.5747228 -0.46562517 -0.30932778 0
-2.4719582 -0.45481643 -0.31058615 0
-2.370301 -0.44618306 -0.31178284 0
-2.2531812 -0.45764822 -0.31287903 0
-2.1381428 -0.43427759 -0.31398767 0
-2.0444126 -0.45366961 -0.31399816 0
-1.9394767 -0.44797951 -0.31639767 0
-1.8538226 -0.46016431 -0.3158673 0
-1.7403638 -0.4453223 -0.31749663 0
-1.6624943 -0.43810287 -0.31839785 0
-1.5755707 -0.42725146 -0.31960043 0
-1.4817414 -0.41318014 -0.32133558 0
1.1798389 -0.46054906 -0.33937675 0
1.2401677 -0.4475731 -0.34283909 0
1.3441991 -0.46071467 -0.34316942 0
1.4339072 -0.45066559 -0.34372643 0
1.5655912 -0.44475913 -0.34486803 0
1.6532854 -0.44823059 -0.34485334 0
1.7267146 -0.45644686 -0.34553155 0
1.8439944 -0.44940633 -0.34754771 0
1.9564244 -0.4355011 -0.34916711 0
2.066648 -0.45057443 -0.34922624 0
2.1576989 -0.45027766 -0.34959379 0
2.2524154 -0.44074026 -0.35037455 0
2.3379891 -0.45748076 -0.35102317 0
2.4354403 -0.44033745 -0.35262838 0
2.5407782 -0.45940891 -0.35339776 0
2.6559143 -0.4609319 -0.35481176 0
2.7423325 -0.44220653 -0.35528859 0
2.840657 -0.44414496 -0.35523763 0
-3.4376516 -0.3704437 -0.30396894 0
-3.3326755 -0.35913312 -0.30486536 0
-3.2428741 -0.3494561 -0.30563223 0
-3.1530726 -0.33977908 -0.30639908 0
-3.0576522 -0.35160434 -0.30713376 0
-2.9640963 -0.36236292 -0.30779564 0
-2.8743644 -0.35139149 -0.30846927 0
-2.7611756 -0.34781587 -0.30911386 0
-2.661339 -0.34512296 -0.30976155 0
-2.5306914 -0.36002636 -0.31091252 0
-2.4725516 -0.3563247 -0.31151661 0
-2.3677955 -0.34966099 -0.31256706 0
-2.2461267 -0.35661247 -0.31267887 0
-2.1306436 -0.33827606 -0.31375241 0
-2.0471005 -0.35510239 -0.31498119 0
-1.9465064 -0.35195121 -0.31550601 0
-1.8378721 -0.35958776 -0.31663632 0
-1.7613761 -0.34461668 -0.31729287 0
-1.6335623 -0.33683065 -0.31793505 0
-1.56371 -0.35778648 -0.31889072 0
-1.4441903 -0.35853004 -0.32007253 0
-1.3376144 -0.33227158 -0.32007653 0
1.2492553 -0.3608107 -0.34337682 0
1.3510257 -0.34568173 -0.34463307 0
1.4522363 -0.3463234 -0.34529263 0
1.5437771 -0.35216069 -0.34621057 0
1.6564015 -0.34160224 -0.3480978 0
1.7596769 -0.35481641 -0.34902972 0
1.8399994 -0.34642684 -0.34869567 0
1.9399829 -0.35825789 -0.34904835 0
2.0471838 -0.3399879 -0.35034454 0
2.1800199 -0.35490787 -0.35096288 0
2.2501104 -0.34075421 -0.35249969 0
2.3693771 -0.35883653 -0.35304168 0
2.4633396 -0.3369664 -0.35403454 0
2.5497048 -0.34878096 -0.35458186 0
2.6360703 -0.36059546 -0.35512915 0
2.7256484 -0.35298219 -0.35637951 0
2.8444228 -0.35612196 -0.35740042 0
2.9010849 -0.31261462 -0.35827005 0
-3.4531841 -0.27239722 -0.30426204 0
-3.3508413 -0.26430821 -0.30523825 0
-3.26086 -0.25720978 -0.30609772 0
-3.1708789 -0.25011134 -0.30695719 0
-3.0808976 -0.24301291 -0.30781662 0
-2.9657311 -0.24480958 -0.30874658 0
-2.8509152 -0.24571045 -0.30970597 0
-2.7392414 -0.26229486 -0.31020096 0
-2.6210995 -0.24453206 -0.31136388 0
-2.5284083 -0.25414276 -0.3120347 0
-2.3150854 -0.29987821 -0.31267932 0
-2.2316315 -0.28906825 -0.31361538 0
-2.1481779 -0.27825832 -0.31455144 0
-2.0551608 -0.28112268 -0.31447348 0
-1.9715668 -0.26968411 -0.3151809 0
-1.8601663 -0.29530853 -0.31755301 0
-1.7454271 -0.27709323 -0.31924778 0
-1.6434736 -0.27908343 -0.31998992 0
-1.5523396 -0.28072757 -0.32000437 0
-1.4428968 -0.27156663 -0.32143399 0
-1.3556679 -0.26670903 -0.32320827 0
-1.2461026 -0.25310493 -0.32280606 0
-1.1821902 -0.24014521 -0.32330215 0
1.2570349 -0.25530028 -0.34379998 0
1.3553549 -0.25514564 -0.34471986 0
1.4691223 -0.24273637 -0.34548292 0
1.550012 -0.24602404 -0.34592408 0
1.6388036 -0.25222039 -0.34696075 0
1.7579333 -0.25125536 -0.34860805 0
1.8609083 -0.24106699 -0.34966037 0
1.9413282 -0.25148159 -0.35029277 0
2.0414176 -0.25721264 -0.35066372 0
2.1596096 -0.24834581 -0.35212633 0
2.2270808 -0.24002947 -0.35292664 0
2.3545697 -0.25378364 -0.3540194 0
2.4741616 -0.24871486 -0.35451102 0
2.562288 -0.23907103 -0.35480151 0
2.6491518 -0.24717729 -0.35541639 0
2.736016 -0.25528353 -0.35603121 0
2.8446705 -0.23796271 -0.35592279 0
2.9019659 -0.27075475 -0.35786358 0
-3.4611712 -0.17354308 -0.30474764 0
-3.3548617 -0.16821837 -0.30565888 0
-3.2646365 -0.16369475 -0.3064324 0
-3.1744113 -0.15917112 -0.30720592 0
-3.0841861 -0.1546475 -0.30797946 0
-2.9488478 -0.14786205 -0.30913976 0
-2.8135102 -0.14107661 -0.31030005 0
-2.7240877 -0.15616803 -0.3112312 0
-2.6339419 -0.15100197 -0.31205192 0
-2.5437963 -0.14583591 -0.31287268 0
1.273976 -0.14655532 -0.34371451 0
1.3427155 -0.1446888 -0.34467876 0
1.4637767 -0.15487984 -0.34690934 0
1.5548161 -0.13884531 -0.34853289 0
1.6491363 -0.14195535 -0.34890351 0
1.7640429 -0.15957749 -0.34960821 0
1.840546 -0.13219981 -0.35112146 0
1.9589802 -0.1544915 -0.35132316 0
2.0413947 -0.14629239 -0.35212529 0
2.1221802 -0.1520808 -0.35262075 0
2.2203448 -0.14313322 -0.35353142 0
2.3467822 -0.1581814 -0.35399175 0
2.4596329 -0.15895838 -0.35498953 0
2.5546882 -0.14039792 -0.35648063 0
2.6681767 -0.15287265 -0.35703421 0
2.7552843 -0.15786624 -0.35760033 0
2.8472807 -0.14266412 -0.35840449 0
2.9186127 -0.14632224 -0.35883465 0
-3.4723749 -0.074567199 -0.30574656 0
-3.362319 -0.072212003 -0.30661452 0
-3.2719278 -0.070271045 -0.30732772 0
-3.1815372 -0.068330094 -0.30804089 0
-3.0459504 -0.065418668 -0.30911064 0
-2.9103642 -0.062507242 -0.3101804 0
-2.8199732 -0.060566291 -0.31089354 0
-2.7295823 -0.05862534 -0.31160671 0
-2.6391914 -0.056684382 -0.31231987 0
-2.5488005 -0.054743432 -0.31303304 0
1.2901555 -0.046132989 -0.34598762 0
1.3585958 -0.048583049 -0.3467198 0
1.4512624 -0.059951555 -0.34757107 0
1.5258372 -0.04772009 -0.34855995 0
1.6579051 -0.047458731 -0.34922624 0
1.7500849 -0.054366548 -0.34879783 0
1.8336149 -0.049930386 -0.35063079 0
1.9613811 -0.056155927 -0.35159868 0
2.0414717 -0.043782119 -0.35221192 0
2.1413565 -0.053810447 -0.35366696 0
2.2303426 -0.044013489 -0.35426334 0
2.3250759 -0.05001789 -0.35522112 0
2.4456124 -0.04543284 -0.35605216 0
2.5676198 -0.064181149 -0.35732931 0
2.6745999 -0.057512954 -0.35801843 0
2.761981 -0.059386726 -0.3587178 0
2.8455143 -0.040754423 -0.35968548 0
2.9341881 -0.035002839 -0.3606014 0
-3.5093386 0.025059303 -0.3070426 0
-3.4628265 0.049585834 -0.30744109 0
-3.3723538 0.048291069 -0.30811179 0
-3.2818811 0.046996299 -0.30878249 0
-3.1559141 0.045196258 -0.30985731 0
-3.0322118 0.04341989 -0.31045723 0
-2.9199898 0.041817229 -0.31146538 0
-2.8295171 0.04052246 -0.31213608 0
-2.7390442 0.039227691 -0.31280681 0
-2.6485713 0.037932921 -0.31347752 0
-2.5580986 0.036638156 -0.31414822 0
1.2935495 0.05562263 -0.34696972 0
1.3529114 0.042226747 -0.34803066 0
1.4562778 0.052140556 -0.34837946 0
1.5293243 0.051908363 -0.34958458 0
1.6589229 0.04744228 -0.34974122 0
1.7548184 0.054503005 -0.35003021 0
1.831658 0.052465066 -0.3513155 0
1.9659518 0.056301299 -0.35213879 0
2.0468161 0.043936323 -0.35292277 0
2.1281633 0.045683194 -0.35372099 0
2.2295446 0.04786323 -0.35471788 0
2.3268125 0.049954537 -0.3553876 0
2.4352257 0.061233256 -0.35611141 0
2.5541828 0.047680579 -0.35686183 0
2.6758137 0.057453439 -0.35766903 0
2.7630637 0.059328169 -0.35823941 0
2.8514197 0.040828303 -0.35853463 0
2.9230795 0.041884977 -0.35895452 0
-3.5082412 0.12558602 -0.30713534 0
-3.4653885 0.17375171 -0.30714023 0
-3.3751135 0.16922572 -0.30793172 0
-3.2848384 0.16469972 -0.30872324 0
-3.149426 0.15791073 -0.30991054 0
-3.0140135 0.15112174 -0.3110978 0
-2.9237385 0.14659575 -0.31188929 0
-2.8334637 0.14206974 -0.31268078 0
-2.7416065 0.15713321 -0.31355011 0
-2.6512983 0.15195628 -0.31426859 0
-2.5609896 0.14677934 -0.31498706 0
1.2875286 0.14807411 -0.34736946 0
1.357043 0.14627771 -0.3478207 0
1.470709 0.15561527 -0.34763998 0
1.5570948 0.13898198 -0.34922078 0
1.6550331 0.14237264 -0.35047743 0
1.7664015 0.16497928 -0.35102847 0
1.8399221 0.13858251 -0.35298824 0
1.9687214 0.1552366 -0.35318115 0
2.0490909 0.14687502 -0.35330248 0
2.129791 0.15266337 -0.35367373 0
2.2228389 0.14336795 -0.35359496 0
2.3359172 0.15927598 -0.35471445 0
2.4562361 0.15151036 -0.35617885 0
2.5802531 0.1479007 -0.35760862 0
2.6677601 0.15291542 -0.35855538 0
2.7552669 0.15793017 -0.3595022 0
2.8445501 0.14261395 -0.36008599 0
2.9338598 0.15553996 -0.36116001 0
-3.5200603 0.25234431 -0.30875522 0
-3.4710133 0.24864577 -0.30792648 0
-3.367038 0.26559117 -0.30920658 0
-3.2767501 0.25846913 -0.309809 0
-3.1864622 0.25134709 -0.31041142 0
-3.0510299 0.24066401 -0.31131506 0
-2.9179964 0.25126016 -0.31254411 0
-2.8278058 0.24349643 -0.31320104 0
-2.7372012 0.25544307 -0.31393409 0
-2.6471028 0.2470369 -0.31463331 0
-2.5558226 0.25697449 -0.31541884 0
-2.2448659 0.29078251 -0.316971 0
-2.1607111 0.27988178 -0.31738111 0
-2.0398271 0.27882665 -0.31916392 0
-1.9924018 0.2580803 -0.31820133 0
-1.8405836 0.29219967 -0.32293239 0
-1.7209663 0.28584123 -0.32355428 0
-1.6420836 0.2767649 -0.32369751 0
-1.551109 0.27658352 -0.32399869 0
-1.4557055 0.27405009 -0.32479933 0
-1.3642037 0.26771587 -0.32536617 0
-1.2490188 0.24777038 -0.3262859 0
-1.1926607 0.26016796 -0.32715422 0
1.2771332 0.24985559 -0.34876475 0
1.3472605 0.24372634 -0.34906855 0
1.4657092 0.25551713 -0.34975937 0
1.5366311 0.238436 -0.35060477 0
1.6435635 0.24892358 -0.35038844 0
1.7675935 0.25172389 -0.35123259 0
1.871485 0.24238536 -0.35179433 0
1.9521179 0.25283223 -0.35253057 0
2.0356321 0.24887355 -0.35325408 0
2.1468701 0.2624743 -0.35365 0
2.2247529 0.23978896 -0.35572171 0
2.3367827 0.25184593 -0.35601437 0
2.4504738 0.25506899 -0.35743552 0
2.5744231 0.24019504 -0.35755301 0
2.6616189 0.24833071 -0.35842595 0
2.7488146 0.25646642 -0.35929886 0
2.8402758 0.24456161 -0.36003691 0
2.9260828 0.24486524 -0.36092594 0
-3.5049119 0.32704031 -0.30797946 0
-3.4577975 0.37259734 -0.30874842 0
-3.3678312 0.36290222 -0.30946609 0
-3.2778649 0.35320711 -0.31018376 0
-3.1595278 0.33297884 -0.31115529 0
-3.0490093 0.35095859 -0.31197393 0
-2.9392817 0.3666254 -0.31271026 0
-2.8204408 0.34483165 -0.31357658 0
-2.7334909 0.35415354 -0.31478703 0
-2.6437557 0.34253061 -0.31551179 0
-2.5388224 0.35961297 -0.31686851 0
-2.4396744 0.34256446 -0.3170284 0
-2.3365583 0.33683524 -0.31801012 0
-2.2577319 0.35849741 -0.31939653 0
-2.1742971 0.34525621 -0.32024786 0
-2.0469482 0.33999932 -0.32159418 0
-1.9580122 0.35895315 -0.32113609 0
-1.8655448 0.3511543 -0.32227141 0
-1.7585942 0.34405568 -0.32240102 0
-1.6373948 0.34629536 -0.32364154 0
-1.5516808 0.34977013 -0.32446927 0
-1.442212 0.34710974 -0.32538879 0
-1.3545637 0.34043226 -0.32667512 0
-1.2514441 0.32015175 -0.32786784 0
-1.182673 0.31161374 -0.32771116 0
1.2462879 0.34754694 -0.3467865 0
1.3492948 0.35068515 -0.3486118 0
1.4717832 0.3541806 -0.35072687 0
1.5552752 0.35081357 -0.35144734 0
1.6308305 0.35561079 -0.35184824 0
1.7536023 0.34773552 -0.35248691 0
1.8605812 0.35024124 -0.35299516 0
1.9449154 0.35178092 -0.35379121 0
2.0246229 0.35129285 -0.35409632 0
2.1441202 0.35616389 -0.35489595 0
2.2352343 0.33850566 -0.35486484 0
2.3674674 0.35851336 -0.35652763 0
2.4767516 0.35696769 -0.35752636 0
2.5540729 0.34028819 -0.35910589 0
2.6611848 0.34462121 -0.36004764 0
2.7480989 0.3558808 -0.36093441 0
2.8325016 0.34632131 -0.36136127 0
2.920588 0.34646913 -0.36212826 0
-3.5033331 0.40290278 -0.30852175 0
-3.4668581 0.46586224 -0.30892447 0
-3.3610132 0.45989579 -0.30978692 0
-3.2713785 0.44763297 -0.31053942 0
-3.1817436 0.43537018 -0.31129187 0
-3.0630801 0.45648181 -0.31291428 0
-2.9394777 0.45241132 -0.31400332 0
-2.8223224 0.42734641 -0.31493926 0
-2.744174 0.46264234 -0.31460235 0
-2.624959 0.45530596 -0.31549075 0
-2.5317111 0.43913397 -0.31593806 0
-2.4390688 0.45912433 -0.31692979 0
-2.3457901 0.44156721 -0.31774768 0
-2.2358496 0.45417154 -0.31899032 0
-2.1472337 0.45212722 -0.31962973 0
-2.0641506 0.44998851 -0.32063079 0
-1.9665269 0.44752356 -0.32147941 0
-1.8494856 0.44507751 -0.32250834 0
-1.7593257 0.44222355 -0.32413507 0
-1.635116 0.43081483 -0.32358974 0
-1.5496372 0.42405415 -0.32424685 0
-1.4346766 0.40005624 -0.32642415 0
1.2459856 0.45580178 -0.34898037 0
1.3458551 0.44611439 -0.3498773 0
1.4422457 0.45831931 -0.35058028 0
1.5432703 0.45671892 -0.35138148 0
1.6542552 0.44116443 -0.35219178 0
1.7623928 0.43894297 -0.3531487 0
1.8412418 0.45702085 -0.35372448 0
1.9407108 0.455439 -0.354698 0
2.0501432 0.4470695 -0.35561347 0
2.1708276 0.46283266 -0.35643801 0
2.2397151 0.43828592 -0.35714209 0
2.3818693 0.44835523 -0.35793805 0
2.4684577 0.44643077 -0.35834777 0
2.5546961 0.46202675 -0.35923359 0
2.6466269 0.43961611 -0.35972288 0
2.733011 0.45396507 -0.3605465 0
2.8204098 0.44772542 -0.36077875 0
2.9121041 0.45155209 -0.36195573 0
-3.5009162 0.55578387 -0.31012568 0
-3.4525919 0.54785758 -0.31006473 0
-3.3436122 0.55533195 -0.31129834 0
-3.2541475 0.54047143 -0.31181598 0
-3.1611156 0.54831147 -0.31242201 0
-3.0654724 0.55439174 -0.31290248 0
-2.9761791 0.53824395 -0.31336144 0
-2.8840563 0.54293448 -0.31382439 0
-2.7393689 0.54808491 -0.31501654 0
-2.6121206 0.55005324 -0.31606656 0
-2.5265393 0.55104017 -0.31753382 0
-2.4783297 0.54032737 -0.31778052 0
-2.356812 0.54939663 -0.31941548 0
-2.2390966 0.54722369 -0.32021725 0
-2.1406448 0.5640974 -0.32228991 0
-2.0525932 0.55656904 -0.32278687 0
-1.9549228 0.5365653 -0.32413715 0
-1.8350611 0.51170254 -0.32459939 0
-1.2646226 0.58976996 -0.32939357 0
-1.1434754 0.55976027 -0.33027691 0
-1.0905271 0.57696199 -0.33060387 0
1.1746939 0.55828929 -0.3486017 0
1.2495924 0.54617298 -0.3502118 0
1.3491739 0.56360757 -0.3510358 0
1.4331981 0.55110812 -0.35137433 0
1.5589782 0.54509789 -0.35299978 0
1.6573327 0.53976876 -0.35278311 0
1.7306504 0.55689615 -0.35363665 0
1.8444382 0.56316346 -0.35429335 0
1.9482346 0.55245173 -0.35503751 0
2.0567231 0.53884864 -0.3562364 0
2.1737425 0.55608249 -0.35701036 0
2.278199 0.54825425 -0.35811648 0
2.3739593 0.53545946 -0.35916409 0
2.4593229 0.55471426 -0.3598721 0
2.546937 0.55531037 -0.36015004 0
2.6335776 0.55454499 -0.36074913 0
2.724966 0.55349272 -0.36202377 0
2.8332872 0.5544039 -0.36290419 0
2.9076173 0.54016548 -0.36350909 0
-3.4554653 0.65020955 -0.31072477 0
-3.3274095 0.65104675 -0.31128651 0
-3.2384205 0.63363528 -0.31182209 0
-3.1443703 0.6621272 -0.31263334 0
-3.0556619 0.64344823 -0.31320554 0
-2.9691846 0.64755642 -0.31435075 0
-2.8817844 0.65007424 -0.31556484 0
-2.7570004 0.65086418 -0.31713885 0
-2.616775 0.62972695 -0.31864029 0
-2.5222249 0.66456264 -0.31863239 0
-2.4680912 0.65036654 -0.31922033 0
-2.3476717 0.64753634 -0.32039076 0
-2.2353964 0.65798068 -0.32219815 0
-2.1353071 0.65329254 -0.32237551 0
-2.0253651 0.65960366 -0.32339537 0
-1.9370273 0.64615053 -0.32345504 0
-1.5454792 0.68103999 -0.32828483 0
-1.4366866 0.67632526 -0.3281354 0
-1.3474232 0.65227145 -0.3282516 0
-1.2570056 0.64378512 -0.32928401 0
-1.1469007 0.65662026 -0.33006367 0
-1.0516855 0.65082544 -0.32907262 0
1.098995 0.69722205 -0.34873599 0
1.1490743 0.65324557 -0.34780216 0
1.2578119 0.65077907 -0.34956262 0
1.360267 0.65701526 -0.35096809 0
1.4409381 0.64044148 -0.35225695 0
1.5394651 0.65229744 -0.35330847 0
1.6560853 0.66567886 -0.35434526 0
1.7401321 0.64697421 -0.35537803 0
1.8608961 0.64332926 -0.35632345 0
1.9599081 0.65391809 -0.35684109 0
2.0463886 0.65046304 -0.35822043 0
2.1572537 0.65176648 -0.35909468 0
2.2583306 0.64728016 -0.35904002 0
2.3470633 0.63646317 -0.35928631 0
2.4317608 0.65942693 -0.36023471 0
2.5244932 0.64580578 -0.36104861 0
2.6429458 0.66287661 -0.36269414 0
2.751776 0.64145225 -0.3620972 0
2.8853226 0.66169548 -0.36370918 0
2.9001329 0.6106596 -0.36389935 0
-3.4424999 0.75050145 -0.31103259 0
-3.3236809 0.74974537 -0.31222022 0
-3.2353017 0.72981107 -0.31288913 0
-3.1451721 0.75688732 -0.31433356 0
-3.0479839 0.75655717 -0.31523016 0
-2.9531367 0.75549686 -0.31599352 0
-2.8619311 0.75407177 -0.31674096 0
-2.7670014 0.75032169 -0.31720835 0
-2.6772721 0.74663526 -0.31803453 0
-2.5895872 0.742127 -0.31908315 0
-2.4721045 0.75510305 -0.3204689 0
-2.3483522 0.76480871 -0.3212145 0
-2.2596719 0.75381345 -0.32173237 0
-2.1698201 0.74121648 -0.32176727 0
-2.0575316 0.75225925 -0.32290801 0
-1.9420561 0.73858893 -0.32370743 0
-1.7599882 0.77556682 -0.32554978 0
-1.6504834 0.75010264 -0.32721391 0
-1.531137 0.74999374 -0.32736462 0
-1.4669596 0.74944586 -0.32631448 0
-1.3457768 0.73656785 -0.32873988 0
-1.2392584 0.74151921 -0.33076736 0
-1.1680697 0.76477432 -0.3301422 0
-1.0470674 0.74613017 -0.33128682 0
-0.97112846 0.76233792 -0.3309097 0
1.0646186 0.75282413 -0.34948257 0
1.1592332 0.74887472 -0.35025144 0
1.2564517 0.7652421 -0.35048336 0
1.3315556 0.75407249 -0.3522498 0
1.4503794 0.74966139 -0.35272375 0
1.5556499 0.74382228 -0.35347143 0
1.6592549 0.75825429 -0.35494196 0
1.7588232 0.74524575 -0.35622215 0
1.8444562 0.75051081 -0.35691398 0
1.9424503 0.76144326 -0.35743898 0
2.0570762 0.75250107 -0.35769546 0
2.1349704 0.74148983 -0.35878643 0
2.2343235 0.74540281 -0.36001918 0
2.3326218 0.74138641 -0.36138406 0
2.4446909 0.76428026 -0.36208057 0
2.5523837 0.74126774 -0.36207366 0
2.6544926 0.74693155 -0.36276627 0
2.7705517 0.75128204 -0.3640283 0
2.8672619 0.75544024 -0.3653037 0
-3.4441929 0.8374756 -0.31205437 0
-3.3488119 0.85706758 -0.31375897 0
-3.2330904 0.85186684 -0.31460881 0
-3.1176405 0.84539533 -0.31539744 0
-3.0258498 0.86714989 -0.3163799 0
-2.9385972 0.84214532 -0.31692058 0
-2.8442698 0.85935974 -0.31804425 0
-2.7526588 0.85323977 -0.31871167 0
-2.6624048 0.84616113 -0.31954265 0
-2.5759311 0.8186785 -0.32014179 0
-2.4620502 0.8411088 -0.32063612 0
-2.3491311 0.85924351 -0.32176298 0
-2.2307906 0.85248619 -0.32252789 0
-2.1492474 0.83902997 -0.32361984 0
-2.0584085 0.85468107 -0.32497156 0
-1.9668952 0.84996176 -0.32548821 0
-1.8641973 0.84290141 -0.32592177 0
-1.7587169 0.84221476 -0.32702744 0
-1.6479928 0.85390604 -0.32698184 0
-1.5486392 0.86231923 -0.32873502 0
-1.4516524 0.84975755 -0.32894632 0
-1.3536421 0.84919125 -0.33062527 0
-1.2503887 0.85757846 -0.33065319 0
-1.1505741 0.84966016 -0.33154741 0
-1.0519049 0.85032165 -0.33180812 0
-0.95265126 0.85251528 -0.33161184 0
-0.88479978 0.87537676 -0.33354503 0
0.96344852 0.87454569 -0.34872034 0
1.0492053 0.84817153 -0.35057026 0
1.1541873 0.84110129 -0.35182479 0
1.2634776 0.85328263 -0.35341418 0
1.354127 0.85899848 -0.35367179 0
1.445019 0.84581852 -0.35350752 0
1.5496036 0.85337335 -0.35381281 0
1.6233883 0.84778047 -0.35670826 0
1.7417144 0.85194165 -0.35573849 0
1.8600857 0.85987324 -0.35740757 0
1.9611928 0.84756404 -0.35822225 0
2.0675697 0.87260455 -0.3583788 0
2.1225715 0.84602612 -0.36009243 0
2.2552152 0.83215779 -0.35991839 0
2.3717232 0.84831685 -0.36017856 0
2.453474 0.84808397 -0.36217842 0
2.5670085 0.85640287 -0.36332402 0
2.6665196 0.84750384 -0.36426938 0
2.7533956 0.85342401 -0.36477172 0
2.8451734 0.8507306 -0.36502331 0
-3.4598844 0.93813443 -0.31363821 0
-3.3748598 0.96716821 -0.31421733 0
-3.2876072 0.94216359 -0.314758 0
-3.1483879 0.95124233 -0.31611285 0
-3.0082996 0.9560914 -0.3171463 0
-2.9218259 0.92860883 -0.31774539 0
-2.8294711 0.92159754 -0.31831485 0
-2.7211096 0.97329259 -0.319657 0
-2.6315949 0.96259439 -0.3205353 0
-2.5368187 0.94851279 -0.32085252 0
-2.4425671 0.95340139 -0.32196793 0
-2.3501031 0.93669808 -0.32265806 0
-2.2474115 0.95246613 -0.32379779 0
-2.1433842 0.95202762 -0.32437342 0
-2.0376778 0.96853024 -0.32595038 0
-1.9305315 0.95170587 -0.32697496 0
-1.8308023 0.94996369 -0.32677856 0
-1.7521136 0.93998039 -0.32689962 0
-1.6572231 0.95726442 -0.32800823 0
-1.5471023 0.94542789 -0.3289651 0
-1.4261545 0.9482789 -0.33068985 0
-1.3589404 0.96087968 -0.33038512 0
-1.2555381 0.94278759 -0.33152851 0
-1.149106 0.94263166 -0.3327859 0
-1.0661936 0.95399034 -0.33253759 0
-0.95748824 0.95289505 -0.3339698 0
-0.84916455 0.94968319 -0.3337611 0
-0.77391142 0.97866154 -0.33433834 0
0.87172967 0.96745384 -0.34901023 0
0.94381493 0.95702565 -0.34801027 0
1.047273 0.95066792 -0.35089204 0
1.1628158 0.95990306 -0.35220426 0
1.2326707 0.93684614 -0.35268131 0
1.3509355 0.95519847 -0.35435793 0
1.4535092 0.93678236 -0.35499617 0
1.5610639 0.93992019 -0.35584939 0
1.658917 0.93937314 -0.35554865 0
1.747785 0.95679426 -0.35699072 0
1.8438501 0.95872611 -0.3582052 0
1.9315342 0.93508369 -0.35818875 0
2.0471766 0.95509636 -0.35986769 0
2.1574218 0.95067358 -0.36047432 0
2.2565651 0.93702406 -0.36115226 0
2.3563573 0.93921179 -0.36266825 0
2.4425814 0.95333219 -0.36330497 0
2.5327468 0.94708443 -0.36300981 0
2.6378934 0.96493948 -0.36371854 0
2.7481673 0.94622117 -0.36488172 0
2.8266313 0.94305778 -0.36595234 0
-3.438525 1.0388949 -0.31427044 0
-3.3541944 1.0660217 -0.3147499 0
-3.2677207 1.0385392 -0.31534898 0
-3.1744781 1.033971 -0.31580257 0
-3.0756075 1.0507271 -0.31687999 0
-2.977519 1.0650057 -0.31791127 0
-2.860358 1.038691 -0.31880167 0
-2.7605655 1.0473572 -0.31952173 0
-2.6459589 1.0547049 -0.32051471 0
-2.5211148 1.0258393 -0.32241702 0
-2.4321303 1.0614977 -0.32290125 0
-2.3676443 1.0598176 -0.32330585 0
-2.2550235 1.0520974 -0.32439363 0
-2.1596758 1.0646671 -0.32559186 0
-2.0660102 1.0554153 -0.32584462 0
-1.9720129 1.0432597 -0.32588127 0
-1.8523566 1.0372351 -0.32707697 0
-1.7472423 1.0633442 -0.32748997 0
-1.6207633 1.0610945 -0.32885399 0
-1.5339215 1.0519341 -0.32995239 0
-1.4411699 1.0502856 -0.33086044 0
-1.3459239 1.0410322 -0.33164576 0
-1.2481338 1.0452663 -0.33242753 0
-1.1391331 1.0490879 -0.33192718 0
-1.0382181 1.0388973 -0.33405012 0
-0.96509928 1.0596044 -0.3359527 0
-0.85102719 1.0540568 -0.3358584 0
-0.75216842 1.0467362 -0.33557615 0
-0.65691513 1.0776452 -0.3382751 0
0.6922611 1.0998522 -0.34822008 0
0.75514096 1.0600444 -0.34888133 0
0.84609717 1.0499971 -0.34897837 0
0.95221829 1.0513262 -0.35078058 0
1.0548561 1.0715858 -0.35189703 0
1.1311783 1.0417305 -0.35285702 0
1.2422208 1.0491425 -0.35334253 0
1.3484058 1.0521886 -0.35499096 0
1.4687786 1.0572371 -0.35569963 0
1.544196 1.0349255 -0.3559885 0
1.6495304 1.0467722 -0.35725439 0
1.7542133 1.0504608 -0.3578195 0
1.8458163 1.0396041 -0.35722068 0
1.9661965 1.0447836 -0.35913697 0
2.0356669 1.0437515 -0.35974741 0
2.142143 1.0624892 -0.36148754 0
2.2384534 1.0443659 -0.36210582 0
2.3545957 1.0376375 -0.3622877 0
2.4525251 1.0393448 -0.36350298 0
2.5522716 1.038551 -0.36508825 0
2.6878979 1.0490861 -0.36601973 0
2.7790639 1.0527637 -0.36602151 0
-3.4132767 1.111751 -0.3140637 0
-3.3193984 1.18729 -0.31558368 0
-3.2339287 1.1567189 -0.31616557 0
-3.142899 1.1496152 -0.31679457 0
-3.0390382 1.1611412 -0.31753016 0
-2.9499664 1.1514473 -0.31846777 0
-2.8568773 1.138772 -0.31915838 0
-2.7733185 1.1284609 -0.32050499 0
-2.6591265 1.1717865 -0.32156461 0
-2.5679264 1.1536142 -0.32216895 0
-2.4705739 1.1526659 -0.3230319 0
-2.3544242 1.1355948 -0.32413638 0
-2.2523842 1.1373357 -0.32533538 0
-2.149159 1.1568117 -0.32508352 0
-2.0399415 1.1552063 -0.32613584 0
-1.9323314 1.1310216 -0.32694912 0
-1.8439533 1.1514593 -0.3271704 0
-1.7343301 1.1532427 -0.32795659 0
-1.6536913 1.1516721 -0.32884046 0
-1.5603361 1.1543247 -0.32985562 0
-1.4653201 1.1502626 -0.33057141 0
-1.3474432 1.1379783 -0.33176997 0
-1.2478681 1.1491662 -0.33193368 0
-1.14894 1.1529802 -0.33290374 0
-1.0542607 1.1464248 -0.33520269 0
-0.94155395 1.139466 -0.3367942 0
-0.85431671 1.1634511 -0.3361713 0
-0.74914765 1.1534325 -0.33693713 0
-0.64584672 1.154943 -0.33906928 0
-0.55270505 1.1521397 -0.33803675 0
-0.45544657 1.1793091 -0.33881041 0
0.47151583 1.1954061 -0.34432438 0
0.55484778 1.1781532 -0.34904492 0
0.65499353 1.1471605 -0.34758583 0
0.76157957 1.1515477 -0.3502326 0
0.85240024 1.1462467 -0.35078165 0
0.95512313 1.1681416 -0.35211205 0
1.0285167 1.1411061 -0.35194424 0
1.1435454 1.1441807 -0.35340661 0
1.252787 1.1537311 -0.35445023 0
1.3616301 1.1524274 -0.3550036 0
1.4383163 1.1425161 -0.35577565 0
1.5444244 1.1560997 -0.35686952 0
1.6380078 1.1406974 -0.35817233 0
1.7263229 1.1479237 -0.35828212 0
1.8412218 1.1534694 -0.35910594 0
1.948169 1.1454353 -0.35919133 0
2.0578291 1.1458968 -0.36022678 0
2.1524603 1.1585741 -0.36145851 0
2.2666962 1.1375781 -0.36288759 0
2.362313 1.1435981 -0.3639791 0
2.4580333 1.1468178 -0.36482343 0
2.5486963 1.1450254 -0.36498794 0
2.6477139 1.1441665 -0.36589372 0
2.7516146 1.151776 -0.36701563 0
-3.3569593 1.2368571 -0.31520274 0
-3.2510033 1.2424803 -0.31619358 0
-3.1521633 1.2564659 -0.31725949 0
-3.0255222 1.2310823 -0.31859294 0
-2.9084311 1.2816465 -0.31978571 0
-2.8164189 1.2652464 -0.32037359 0
-2.7257822 1.2480679 -0.32122299 0
-2.6352305 1.2294877 -0.32190976 0
-2.5459764 1.2100917 -0.32276133 0
-2.3382061 1.2370833 -0.32482302 0
-2.2572405 1.2359749 -0.32481077 0
-2.1532075 1.2603165 -0.32594249 0
-2.0599806 1.2456797 -0.32637727 0
-1.9622108 1.2448926 -0.3270216 0
-1.8671449 1.2415551 -0.32760292 0
-1.7557211 1.2602876 -0.32872632 0
-1.6518577 1.2433416 -0.32900545 0
-1.5399032 1.244873 -0.33025938 0
-1.4504662 1.25385 -0.33213425 0
-1.3565313 1.2493095 -0.3316958 0
-1.248683 1.2411107 -0.33192804 0
-1.1571567 1.252408 -0.33378169 0
-1.0561858 1.2415773 -0.3355116 0
-0.9529714 1.2596782 -0.3363432 0
-0.83484 1.2379367 -0.33641344 0
-0.74248046 1.2610267 -0.33946079 0
-0.65836447 1.2552536 -0.3385776 0
-0.54896307 1.2581348 -0.33882317 0
-0.44617817 1.245124 -0.33938649 0
-0.35424626 1.252923 -0.3416304 0
-0.24853131 1.2467035 -0.34069547 0
-0.15103506 1.2735424 -0.34373805 0
-0.050237317 1.2780355 -0.34278291 0
0.050779376 1.2892503 -0.34582409 0
0.15194333 1.280195 -0.34550509 0
0.25228748 1.2651721 -0.34577867 0
0.35344109 1.2499335 -0.34812176 0
0.45452771 1.2509979 -0.34795064 0
0.55747074 1.2528466 -0.349742 0
0.64727992 1.255971 -0.3501063 0
0.75507158 1.2443697 -0.3507883 0
0.85022759 1.2614654 -0.35278481 0
0.93970871 1.2495029 -0.35306937 0
1.0511717 1.2357284 -0.35397032 0
1.145983 1.2355024 -0.35313129 0
1.2566942 1.2549857 -0.35446075 0
1.3457826 1.2410283 -0.35605091 0
1.4402372 1.2520425 -0.35607365 0
1.5497707 1.2527918 -0.35726064 0
1.661328 1.2474282 -0.35851181 0
1.7615123 1.2454427 -0.35944679 0
1.8682896 1.2616843 -0.36065832 0
1.9376616 1.2488309 -0.36078969 0
2.0548716 1.2426443 -0.36099046 0
2.1596687 1.2573673 -0.3614777 0
2.2442775 1.2359132 -0.36304677 0
2.339179 1.244879 -0.36397383 0
2.4355106 1.2517253 -0.36469933 0
2.5357926 1.2577112 -0.36641097 0
2.6486125 1.2588936 -0.36744589 0
2.7189205 1.2370986 -0.36740002 0
-3.3547311 1.3371525 -0.31596404 0
-3.2777259 1.3337038 -0.31668091 0
-3.1577358 1.3915066 -0.31800681 0
-3.0649114 1.3768789 -0.31857821 0
-2.9820805 1.339668 -0.31917667 0
-2.882216 1.3447204 -0.32022649 0
-2.7922664 1.3271524 -0.32120666 0
-2.2585773 1.3306285 -0.32564828 0
-2.1340656 1.3466477 -0.32632959 0
-2.0377095 1.3411335 -0.32726601 0
-1.941079 1.344709 -0.32794535 0
-1.8512424 1.3493989 -0.32897401 0
-1.7627395 1.3499659 -0.32914791 0
-1.6350626 1.3475188 -0.33109084 0
-1.5498554 1.353981 -0.33162639 0
-1.4513724 1.3559237 -0.33177733 0
-1.3449094 1.3418821 -0.33248496 0
-1.2469785 1.3444426 -0.3333942 0
-1.1397033 1.3312048 -0.33405229 0
-1.046756 1.357608 -0.33621293 0
-0.94011247 1.3478104 -0.33604258 0
-0.84686631 1.3496492 -0.3377867 0
-0.75600207 1.3461958 -0.33923644 0
-0.63922799 1.3341737 -0.33796805 0
-0.54351556 1.3607624 -0.33988073 0
-0.46256486 1.3641522 -0.34052852 0
-0.34839058 1.3543895 -0.34172428 0
-0.25788838 1.3437808 -0.34221068 0
-0.15710938 1.3504699 -0.34378707 0
-0.052950777 1.3468388 -0.34392056 0
0.043795824 1.3581622 -0.34619066 0
0.15028594 1.348617 -0.34608099 0
0.26175758 1.3454552 -0.34691271 0
0.35102838 1.3526508 -0.34825772 0
0.44289991 1.3539072 -0.3486166 0
0.56323826 1.3586951 -0.34970284 0
0.65374291 1.365796 -0.35159686 0
0.75329435 1.3309165 -0.35156143 0
0.85264719 1.3545669 -0.35295156 0
0.95518148 1.3652742 -0.35429075 0
1.0549138 1.3425766 -0.35354814 0
1.1632987 1.3564526 -0.35567427 0
1.2424307 1.3423011 -0.35466555 0
1.34728 1.3520348 -0.35615954 0
1.4465671 1.3514137 -0.35737729 0
1.5636477 1.3593384 -0.35801771 0
1.6599429 1.3418629 -0.35824549 0
1.7640362 1.3444664 -0.35918149 0
1.8435389 1.3434643 -0.36067575 0
1.9453977 1.3547668 -0.36232534 0
2.0519676 1.3433989 -0.36238381 0
2.1439774 1.3601869 -0.36319312 0
2.2511036 1.3394113 -0.36328197 0
2.3446114 1.3499073 -0.36425468 0
2.442013 1.3598289 -0.36562243 0
2.5492561 1.3487153 -0.36661237 0
2.6571991 1.3574805 -0.36755785 0
2.7024615 1.3082494 -0.36865619 0
-3.3145063 1.46059 -0.31688818 0
-3.2305729 1.4513004 -0.31738129 0
-3.1292009 1.459953 -0.31854323 0
-3.0385566 1.444213 -0.31965199 0
-2.9564598 1.4051929 -0.32017019 0
-2.2349093 1.4404798 -0.3264949 0
-2.1522133 1.4580727 -0.32712492 0
-2.045562 1.4463335 -0.32820463 0
-1.9458284 1.4394034 -0.329234 0
-1.8300873 1.4579884 -0.32993963 0
-1.7357016 1.4447875 -0.33039984 0
-1.6361772 1.4431797 -0.33182025 0
-1.5378803 1.4390272 -0.33213294 0
-1.4587269 1.4639969 -0.33308247 0
-1.3523067 1.4371765 -0.3336491 0
-1.2528906 1.4516163 -0.33423531 0
-1.1562586 1.4537265 -0.33590889 0
-1.0687157 1.4555702 -0.33555681 0
-0.95451564 1.4468703 -0.33801514 0
-0.85984391 1.4543684 -0.33792067 0
-0.75515962 1.4396243 -0.33856699 0
-0.63508582 1.4554317 -0.33975741 0
-0.54686403 1.4468994 -0.34039879 0
-0.44598749 1.4449525 -0.34240553 0
-0.35063797 1.4407463 -0.34187043 0
-0.24661349 1.4599992 -0.34367272 0
-0.14253537 1.472069 -0.34592792 0
-0.054858692 1.466108 -0.34551293 0
0.045831818 1.4697345 -0.34602824 0
0.15006775 1.4665817 -0.34688649 0
0.24387179 1.4637032 -0.34876308 0
0.34792173 1.4681489 -0.34942436 0
0.45348415 1.4397092 -0.34799376 0
0.54768163 1.428091 -0.35086694 0
0.64841735 1.4571849 -0.35150316 0
0.74872559 1.4527553 -0.35232782 0
0.85023892 1.4406825 -0.35279813 0
0.93851471 1.463203 -0.35453796 0
1.0545001 1.4651855 -0.35429001 0
1.1518064 1.439973 -0.35529199 0
1.2499641 1.4482944 -0.35682264 0
1.3614799 1.446918 -0.35677403 0
1.4503207 1.4765277 -0.35794464 0
1.549915 1.4561716 -0.3592726 0
1.6573002 1.4534804 -0.3597264 0
1.7501366 1.4356754 -0.35961384 0
1.855656 1.4566561 -0.36068043 0
1.9548326 1.4678965 -0.36150348 0
2.044452 1.4455658 -0.36362439 0
2.1619637 1.444883 -0.36386952 0
2.2606275 1.4495274 -0.36466253 0
2.3664114 1.4385848 -0.36536613 0
2.4853716 1.4547572 -0.36605695 0
2.5701704 1.4556191 -0.36730996 0
2.6280537 1.4308237 -0.36850891 0
-3.259732 1.5302089 -0.31784639 0
-2.1821535 1.5584825 -0.3296276 0
-2.0715704 1.5555282 -0.32898381 0
-1.9732268 1.5491242 -0.32988536 0
-1.8674498 1.5544415 -0.33022183 0
-1.7645985 1.5564541 -0.33140174 0
-1.6581843 1.5490495 -0.33227819 0
-1.5341846 1.5619862 -0.33320323 0
-1.4434255 1.5340331 -0.33367991 0
-1.3650858 1.5589495 -0.3339662 0
-1.2534209 1.5540886 -0.33511707 0
-1.1512737 1.5537117 -0.33533943 0
-1.041351 1.55399 -0.3381691 0
-0.94702137 1.5536425 -0.33845389 0
-0.84879601 1.537142 -0.33834383 0
-0.75143224 1.5591098 -0.3396292 0
-0.65409756 1.5594556 -0.34054297 0
-0.56114405 1.5514101 -0.34165192 0
-0.45254573 1.5579319 -0.34197006 0
-0.35017443 1.5555832 -0.34384638 0
-0.25044611 1.5418181 -0.34397393 0
-0.15159567 1.564941 -0.34599626 0
-0.039152954 1.5529727 -0.34739208 0
0.053924244 1.5396342 -0.3476786 0
0.14634149 1.5474463 -0.34782681 0
0.24404114 1.5378838 -0.35115373 0
0.34360281 1.5494448 -0.34970936 0
0.45615619 1.5526329 -0.3503437 0
0.54704803 1.5467019 -0.35116327 0
0.65286624 1.5501242 -0.35161752 0
0.73379064 1.5581599 -0.35257629 0
0.8521781 1.5433061 -0.35241655 0
