# .PCD v0.7 - Point Cloud Data file format
VERSION 0.7
FIELDS x y z intensity
SIZE 4 4 4 4
TYPE F F F F
COUNT 1 1 1 1
WIDTH 1403
HEIGHT 1
VIEWPOINT 0 0 0 1 0 0 0
POINTS 1403
DATA ascii
-12.183449 -34.743267 4.5204015 11
-12.284659 25.306316 4.479929 12
-12.289664 25.3183 5.4958639 13
-12.171302 -34.703903 5.8245106 12
-12.295269 25.331535 6.5269775 14
-12.303287 25.349766 7.5774121 15
-12.151634 -34.638248 8.4742451 14
-12.143743 -34.61087 9.8277111 15
-11.929634 -7.3344431 0.23980018 8
-11.754022 -6.9934869 0.23424427 8
-11.603444 -6.6778584 0.22933133 8
-11.886089 -6.0590668 0.228733 8
-11.728639 -35.082756 0.64630419 8
-11.90775 -7.3207359 0.72765619 9
-11.753477 -6.9929428 0.71198916 9
-11.768357 -6.1073532 0.69045144 9
-11.97341 -5.9951177 0.69738114 9
-11.843618 25.322008 0.50961703 8
-11.747597 -6.9892197 1.1908814 10
-11.767203 -6.1065788 1.1551923 10
-11.976118 -5.9963059 1.1671242 10
-11.906644 -7.3198175 1.2176093 10
-11.843332 25.323118 1.4873464 9
-11.716851 -35.042568 1.9370035 9
-11.903024 -7.3173528 1.7100929 11
-11.736607 -6.9824514 1.671482 11
-11.74929 -6.0970936 1.6203605 11
-11.951489 -5.9837899 1.636198 11
-11.860124 -7.2907071 2.1992099 12
-11.708411 -6.9654322 2.1521399 12
-11.74454 -6.0944481 2.0904481 12
-11.960118 -5.9879456 2.1132445 12
-11.84482 -7.2810445 2.696496 13
-11.686935 -6.9524145 2.6373372 13
-11.738932 -6.0913548 2.5651846 13
-11.9422 -5.9787917 2.5904958 13
-11.831657 -7.2727008 3.1998749 14
-11.670762 -6.942554 3.1288123 14
-11.719488 -6.0810723 3.0423548 14
-11.944693 -5.9798651 3.0781085 14
-11.707716 -35.010326 3.230242 10
-11.996193 -7.6158209 3.2738976 14
-11.718559 -6.0804043 3.5313044 15
-11.920081 -5.9673533 3.5657132 15
-11.850502 25.341902 3.4585958 11
-11.995715 -7.615252 3.8002403 15
-11.818775 -7.2645245 3.7104137 15
-11.665863 -6.9394035 3.6304417 15
-11.695704 -34.969437 4.5279427 11
-11.687242 -34.939159 5.8356066 12
-11.865124 25.378468 6.4939013 14
-11.681211 -34.916119 7.157095 13
-11.87374 25.398701 7.5396023 15
-11.66839 -34.872662 8.4900093 14
-11.575463 -6.222014 0.22521533 8
-11.504377 -6.2914705 0.68275309 9
-11.418949 25.368835 0.50713271 8
-11.595061 -6.672617 1.1655197 10
-11.545688 -6.2056241 1.1420828 10
-11.424096 25.382071 1.480864 9
-11.577546 -6.6623182 1.6349261 11
-11.545451 -6.2053132 1.6044054 11
-11.543492 -6.6424894 2.1039228 12
-11.533948 -6.1989374 2.0686514 12
-11.540242 -6.6404071 2.5822551 13
-11.539763 -6.201879 2.5409434 13
-11.429598 25.396107 2.4592886 10
-11.525651 -6.6317873 3.0638261 14
-11.501345 -6.1810169 3.0085585 14
-11.508972 -6.6219606 3.551374 15
-11.517097 -6.1893015 3.4971471 15
-11.4252 25.388191 3.4418421 11
-11.212438 -35.215477 4.5389447 11
-11.430165 25.401064 4.4359097 12
-11.439039 25.422625 5.4439144 13
-11.204495 -35.185261 5.8496451 12
-11.443946 25.435419 6.4651656 14
-10.855103 17.561409 -0.34502083 7
-10.860179 20.808533 -0.39202699 7
-11.013373 25.453955 2.4490774 10
-11.004352 25.435083 3.4260964 11
-11.013889 25.459055 4.4175496 12
-11.017784 25.47003 5.4191303 13
-11.023939 25.48624 6.4365988 14
-11.192497 -35.14222 7.1701217 13
-11.024349 25.489235 7.4680099 15
-11.186628 -35.118408 8.5101719 14
-11.175244 -35.077175 9.8653841 15
-10.797282 24.949739 -0.45406288 7
-10.438758 9.276598 -0.23515736 7
-10.564753 10.860466 -0.25447625 7
-10.711963 12.745357 -0.27902576 7
-10.787712 14.912009 -0.30793551 7
-10.588862 25.479336 0.50287247 8
-10.590854 25.486155 1.4682404 9
-10.594646 25.497307 2.4381094 10
-10.597583 25.508492 4.398859 12
-10.718574 -35.435257 4.5474529 11
-10.599231 25.514549 5.3951726 13
-10.711454 -35.406124 5.860631 12
-10.601501 25.522141 6.4059815 14
-10.703221 -35.373253 7.1855574 13
-10.610229 25.545275 7.4383597 15
-10.689345 -35.315865 9.8886414 15
-10.092977 6.629108 -0.20460109 7
-10.259475 7.8615341 -0.21829025 7
-10.170964 25.514486 0.50052625 8
-10.176126 25.529566 1.4619926 9
-10.179062 25.539082 2.4276209 10
-10.181415 25.547144 3.3997226 11
-10.181494 25.549543 4.3798647 12
-10.185932 25.562881 5.3734202 13
-10.224605 -35.655933 5.8775434 12
-10.186256 25.565945 6.3790355 14
-10.212709 -35.608383 7.2032232 13
-10.193975 25.587578 7.4066353 15
-10.203794 -35.57119 8.5460701 14
-10.195493 -35.536057 9.908639 15
-9.7272654 4.5292645 -0.18311739 7
-9.906311 5.5211034 -0.19283225 7
-9.7614918 25.561722 0.49853528 8
-9.7686834 25.582804 1.4566704 9
-9.7669935 25.580675 2.4177346 10
-9.7659883 25.580353 3.3847983 11
-9.77425 25.604282 4.3643303 12
-9.7332745 -35.907169 4.5712962 11
-9.779295 25.619829 5.354835 13
-9.731575 -35.894588 5.8937464 12
-9.7795095 25.622776 6.3569574 14
-9.7186899 -35.84058 7.2216878 13
-9.7849798 25.639513 7.3795905 15
-9.7152548 -35.821449 8.5722275 14
-9.704567 -35.775402 9.935895 15
-9.3553438 25.609341 0.49666497 8
-9.3609352 25.627045 1.45119 9
-9.3628902 25.634819 2.4096305 10
-9.3593292 25.627537 3.3725746 11
-9.3674021 25.652069 4.3486905 12
-9.2363453 -36.143459 4.5845876 11
-9.3703156 25.662527 5.3346052 13
-9.2318754 -36.119186 5.9087815 12
-9.3660374 25.653381 6.3299727 14
-9.2237749 -36.080585 7.2431107 13
-9.3795881 25.692991 7.3548231 15
-9.2194567 -36.056763 8.5964394 14
-9.2113667 -36.018044 9.9659576 15
-8.9506578 25.650352 -0.45413414 7
-8.9540939 25.662708 0.49501798 8
-8.9570932 25.673868 1.4462051 9
-8.9589205 25.681683 2.4014246 10
-8.9565887 25.677614 3.3615534 11
-8.9598961 25.689709 4.3324046 12
-8.9599266 25.692453 5.3130527 13
-8.9702911 25.724802 6.3146067 14
-8.9705935 25.728413 7.3267059 15
-8.430294 2.1448697e-05 -0.14716232 7
-8.6582737 0.62949276 -0.15100446 7
-8.5503244 25.70101 0.49318925 8
-8.5536461 25.713717 1.4411708 9
-8.5577784 25.728863 2.3938227 10
-8.5571127 25.729639 3.3515906 11
-8.5637646 25.752396 4.321382 12
-8.7409868 -36.399567 4.6012731 11
-8.5617285 25.749126 5.2983241 13
-8.7322617 -36.355881 5.9269419 12
-8.5640774 25.759045 6.2916284 14
-8.573143 25.789167 7.3075728 15
-8.7223616 -36.299828 8.6241446 14
-8.7093573 -36.238037 9.9916763 15
-8.2029657 -0.59617639 -0.14405107 7
-8.1283617 3.3619554 0.15685959 8
-8.0399017 3.3253825 0.45953912 9
-8.1529789 25.75078 0.49168813 8
-8.0012331 3.3094029 1.0672863 11
-8.1587839 25.771996 1.4375023 9
-8.159256 25.776426 2.3868186 10
-8.1587973 25.777943 3.3419321 11
-8.1626577 25.793098 4.3076901 12
-8.2374201 -36.636803 4.6164575 11
-8.1666946 25.80884 5.2854595 13
-8.2297831 -36.594925 5.9466281 12
-8.1723213 25.829647 6.2790179 14
-8.2219734 -36.552212 7.2884555 13
-8.173934 25.837849 7.2867432 15
-8.2173824 -36.523754 8.648962 14
-8.2115602 -36.489693 10.028035 15
-7.6909595 -1.7002023 -0.13876399 7
-7.9421744 -1.1603316 -0.14101334 7
-7.7369127 1.1311123 -0.13551767 7
-7.7370424 1.1311241 0.13755274 8
-7.652678 1.2895004 0.13668884 8
-7.7486248 -36.987087 0.66596621 8
-7.7264633 1.1295657 0.54738289 9.5
-7.6480017 1.2886951 0.54388851 9.5
-7.9540229 3.2898762 0.75688404 10
-7.7111993 1.127322 0.95826155 11
-7.6384721 1.2871474 0.95272219 11
-7.7166257 1.1281041 1.377265 12.5
-7.6323757 1.2860711 1.3669585 12.5
-7.9253116 3.2780137 1.3627994 12
-7.7434983 -36.954205 1.9851458 9
-7.7219152 1.1288663 1.8034266 14
-7.6358171 1.2865989 1.7897549 14
-7.7959094 3.2245135 1.797869 13.5
-7.6947055 1.1248791 2.0855603 15
-7.6410084 1.2306126 2.0758264 15
-7.6725321 3.1735048 2.2300823 15
-7.7378922 -36.919022 3.3066452 10
-7.7299652 -36.872681 4.6323671 11
-7.7225304 -36.828644 5.9665966 12
-7.7165666 -36.791565 7.3139353 13
-7.7053838 -36.72068 10.060629 15
-7.4287105 -2.2171056 -0.13690726 7
-7.4873586 1.6569563 -0.13241129 7
-7.2240143 2.1592016 -0.12970072 7
-7.5503054 1.4990159 0.13580178 8
-7.376225 1.8393296 0.22293872 8.333333
-7.2381759 2.1062057 0.26554662 8.5
-7.2378545 -37.234459 0.6692372 8
-7.5419865 1.4973341 0.53955883 9.5
-7.4111371 1.753039 0.53448206 9.5
-7.2284794 2.1033759 0.66112167 10
-7.5254841 1.4940413 0.94393355 11
-7.3775582 1.8016193 0.93486476 11
-7.2197423 2.1008193 1.0598626 11.5
-7.526545 1.4942079 1.3555574 12.5
-7.3633213 1.8208823 1.3133241 12.4
-7.216403 2.0998044 1.4640684 13
-7.2314358 -37.192242 1.9928781 9
-7.5157185 1.492061 1.7713845 14
-7.3816271 1.7647272 1.7552122 14
-7.2224092 2.1016483 1.7399974 14
-7.5514517 1.4136094 2.0610685 15
-7.3672366 1.7990707 2.0353816 15
-7.2391143 2.0495625 2.01948 15
-7.2269964 -37.160252 3.3193173 10
-7.2132292 -37.070885 5.9891 12
-7.211339 -37.051853 7.3449717 13
-7.203299 -37.000988 8.7105589 14
-6.8801785 -3.1963449 -0.1344624 7
-7.1614213 -2.7158871 -0.13553303 7
-6.9708252 2.6486924 -0.12780033 7
-7.1588283 2.2535574 0.26447946 8.5
-6.9907565 2.6214824 0.23715833 8.3999996
-7.1594138 2.2537363 0.65932119 10
-6.9836888 2.5954852 0.65498871 10
-7.1528187 2.2516551 1.0571924 11.5
-6.9746528 2.5920274 1.0496505 11.5
-7.1460171 2.2495086 1.4596077 13
-6.9647322 2.5884457 1.4483758 13
-7.1453481 2.2492945 1.7330589 14
-6.9438906 2.6152267 1.8275535 14.4
-7.1541286 2.1949379 2.0089803 15
-7.0374813 2.4423447 2.0002632 15
-6.5969615 -3.6668525 -0.133929 7
-6.6463962 -11.620321 0.23132403 8
-6.721571 -37.475014 0.67253196 8
-6.7487078 -11.603218 0.70084172 9
-6.5197778 -11.592656 0.69459552 9
-6.6333704 -11.595539 1.1660396 10
-6.6286345 -11.586403 1.636096 11
-6.7177925 -37.443947 2.00174 9
-6.713511 -37.410049 3.3334024 10
-6.7066998 -37.361942 4.6690803 11
-6.6985025 -37.295879 7.374187 13
-6.6912808 -37.24522 8.7451887 14
-6.2840381 -4.1144805 -0.13337314 7
-6.1480908 -11.714775 0.22902669 8
-6.204474 -37.736691 0.6763525 8
-6.3262906 -11.640166 0.69205076 9
-6.3237076 -11.634409 1.1560743 10
-6.1409636 -11.698064 1.6197913 11
-6.1976147 -37.683853 2.0103712 9
-6.3147674 -11.615913 2.0912318 12
-6.1932898 -37.6465 3.3469524 10
-6.1886396 -37.607105 4.6888604 11
-6.1834631 -37.564419 6.0390406 12
-6.1816607 -37.542221 7.4052839 13
-6.1764998 -37.499413 8.7838354 14
-5.6577678 -5.0072436 -0.13413158 7
-5.9859123 -4.5703511 -0.13375184 7
-5.9168673 -11.896385 0.23027936 8
-5.6796598 -37.981197 0.68001467 8
-5.9098811 -11.881207 0.69366276 9
-5.9057755 -11.871691 1.1581272 10
-5.8988261 -11.856546 1.6239356 11
-5.6745868 -37.934956 2.0200043 9
-5.66962 -37.889442 3.3617418 10
-5.6635065 -37.836147 4.7075548 11
-5.6601934 -37.801617 6.064229 12
-5.659214 -37.782604 7.4366403 13
-5.653316 -37.730453 8.8187599 14
-5.3202786 -5.443675 -0.13501181 7
-5.2997532 -17.484116 0.31995872 8
-5.2945814 -17.464281 0.95743102 9
-5.3015833 -17.484798 1.5994995 10
-4.9511776 -5.8597808 -0.1358709 7
-5.0038481 -17.413078 0.31763649 8
-5.1490583 -38.218498 0.68369871 8
-5.0071445 -17.42178 0.9513731 9
-5.0003591 -17.39521 1.5848736 10
-5.1466861 -38.187183 2.0301039 9
-5.1440716 -38.154037 3.3791161 10
-5.1383753 -38.097851 4.7312346 11
-5.1364331 -38.069572 6.0955324 12
-5.1330147 -38.030155 7.4708595 13
-5.1292701 -37.988148 8.8616276 14
-4.5770822 -6.2888112 -0.13747993 7
-4.4514837 -0.32330081 -0.23410796 6
-4.5527387 0.16653483 -0.23881319 6
-4.6339016 0.67730671 -0.24498516 6
-4.6631451 1.0318524 -0.24959284 6
-4.6640582 1.3940688 -0.25414369 6
-4.6570582 1.769737 -0.25983122 6
-4.6267934 2.1551039 -0.26592866 6
-4.5874414 2.5580921 -0.27338585 6
-4.4878392 2.9498425 -0.27926537 6
-4.4036121 3.3776782 -0.28832754 6
-4.6124296 -17.474533 0.31737822 8
-4.6165843 -38.48053 0.68797761 8
-4.6111636 -17.466787 0.94869101 9
-4.6090612 -17.455452 1.5814533 10
-4.6127901 -38.433266 2.0402896 9
-4.6099238 -38.393753 3.3949587 10
-4.6058064 -38.343704 4.7538786 11
-4.6037397 -38.310726 6.1237402 12
-4.6022182 -38.282177 7.5074177 13
-4.5992446 -38.241272 8.9051552 14
-4.1776009 -6.7119765 -0.13937394 7
-4.0845485 -1.3795313 -0.2267938 6
-4.2674518 -0.94245815 -0.22956318 6
-4.3641462 -0.6370579 -0.2315138 6
-4.2797985 3.8081167 -0.2973755 6
-4.1385965 4.261138 -0.30811849 6
-4.1383619 14.968965 0.28248283 8
-4.0786481 -38.745399 0.69246149 8
-4.1431212 14.988132 0.82689679 9
-4.1458497 14.999979 1.3740461 10
-4.1455159 15.000726 1.9240059 11
-4.0750356 -38.693035 2.0516193 9
-4.1521225 15.026446 2.4829004 12
-4.1557922 15.041951 3.0478318 13
-4.0722332 -38.648403 3.4128029 10
-4.0232549 14.991741 3.5984924 14
-4.2970872 15.127897 3.6459208 14
-4.1654367 15.080635 4.2080712 15
-4.0693197 -38.602642 4.7790885 11
-4.0657616 -38.550613 6.1529579 12
-4.0651121 -38.526184 7.5438857 13
-4.0637536 -38.494774 8.9505196 14
-3.7503366 -7.1286926 -0.14155 7
-3.7239616 -2.0664146 -0.22408256 6
-3.8936121 -1.8061941 -0.22578044 6
-3.9450638 4.7031932 -0.31821755 6
-3.7294967 5.1679525 -0.3302013 6
-3.9992845 14.888145 -0.2583169 7
-3.7362559 14.766355 0.27688617 8
-3.7339594 14.759546 0.809403 9
-3.7416172 14.791853 1.3469591 10
-3.7387478 14.78282 1.8848941 11
-3.7441607 14.80635 2.4321728 12
-3.7492192 14.828519 2.9869888 13
-3.7515516 14.840014 3.5484636 14
-3.7572818 14.864904 4.1236358 15
-3.3063881 -7.5693226 -0.14460528 7
-3.2006845 -2.8257051 -0.22463557 6
-3.3866029 -2.5801153 -0.22403349 6
-3.5625319 -2.3281109 -0.22394755 6
-3.4758105 5.6403418 -0.34313869 6
-3.3474133 14.557411 0.27137277 8
-3.3488657 14.566363 0.79446471 9
-3.3556139 14.598386 1.3222225 10
-3.3524895 14.587022 1.8500377 11
-3.2286842 14.53828 2.3714304 12
-3.4886801 14.693641 2.4049346 12
-3.3585453 14.618303 2.9290841 13
-3.3644507 14.646321 3.483676 14
-3.3662732 14.656986 4.044538 15
-3.5266492 -38.858253 4.8048415 11
-3.5255468 -38.82481 6.1888762 12
-3.5237532 -38.783485 7.5844541 13
-3.5216284 -38.738251 8.995326 14
-3.1100862 26.313032 -0.44587687 7
-2.8181009 -7.9831367 -0.14756787 7
-2.9925451 -3.0533109 -0.22487096 6
-2.8854561 -0.8592118 -0.26358756 5
-2.9804809 -0.54520762 -0.26539388 5
-3.0537162 -0.22162987 -0.26793194 5
-3.0957723 0.11294967 -0.27117258 5
-3.1196752 0.57276392 -0.27749419 5
-3.0913825 1.0490963 -0.28541964 5
-3.0277941 1.4108039 -0.29170078 5
-2.9359279 1.7823082 -0.29996318 5
-2.8004827 2.1501553 -0.30798978 5
-3.1732104 6.1034613 -0.35620657 6
-2.8339145 6.5808759 -0.37100238 6
-2.8184121 14.684351 -0.25111941 7
-2.971565 14.356045 0.26615274 8
-2.8155677 14.67271 0.27110633 8
-2.9761186 14.380607 0.78038526 9
-2.81235 14.659145 0.79305387 9
-3.1087179 26.311081 0.47948214 8
-2.8100541 14.650346 1.3163943 10
-3.1093426 26.325878 1.4067599 9
-2.895411 14.531241 1.8311658 11
-2.8947852 14.530574 2.3591058 12
-3.1112821 26.351763 2.3394973 10
-2.8958824 14.538705 2.894639 13
-2.895602 14.539713 3.4364159 14
-3.1123223 26.370167 3.2788813 11
-2.99033 14.46572 3.9724104 15
-3.1118917 26.37631 4.2257257 12
-3.1103039 26.372835 5.1816816 13
-3.1116009 26.393761 6.1561823 14
-3.11007 26.391064 7.1416535 15
-2.667371 -3.3883705 -0.22680095 6
-2.5004709 -1.630986 -0.26140699 5
-2.6504753 -1.3460368 -0.26046658 5
-2.7971914 -1.058031 -0.26185277 5
-2.6910992 2.3975244 -0.31429136 5
-2.5652456 2.6453896 -0.32122651 5
-2.4100068 2.8788455 -0.32719821 5
-2.4546506 7.0775995 -0.38793561 6
-2.6492491 14.978063 0.27586809 8
-2.4768288 15.294956 0.28086245 8
-2.7270646 26.364855 0.47938317 8
-2.4752328 15.289079 0.82256937 9
-2.6449478 14.960841 1.3405274 10
-2.4702051 15.262225 1.3639904 10
-2.7266674 26.372126 1.4066478 9
-2.6455948 14.967931 1.8781763 11
-2.474227 15.290733 1.9137689 11
-2.7289841 26.405443 2.3401654 10
-2.6453979 14.970319 2.4202206 12
-2.4702058 15.274075 3.0205622 13
-2.4674084 15.260997 3.5826492 14
-2.7271633 26.399197 3.2768753 11
-2.7983484 14.605572 3.9989984 15
-2.6344447 14.919646 4.0738187 15
-2.7269919 26.408869 4.2237897 12
-2.7275872 26.426023 5.183424 13
-2.7280006 26.441603 6.1570563 14
-2.727412 26.447762 7.1451101 15
-2.0145483 7.5407548 -0.40433437 6
-2.3036249 -8.427577 -0.15154207 7
-2.1884649 -3.8014371 -0.23035817 6
-2.0863745 -2.1227596 -0.26053098 5
-2.2970986 -1.8804833 -0.26007423 5
-2.1021838 -0.88182747 -0.27988803 4
-2.2292328 -0.57630485 -0.28277594 4
-2.3051238 -0.2507723 -0.28484043 4
-2.3532581 0.21470715 -0.29070452 4
-2.3387122 0.60773712 -0.2969802 4
-2.2741394 0.96177334 -0.30348352 4
-2.128448 1.4032035 -0.31367257 4
-2.2513595 3.1273446 -0.33573511 5
-2.0528133 3.3415258 -0.34162453 5
-2.1124508 15.970523 0.29168263 8
-2.3442345 26.410044 0.47921565 8
-2.2037208 15.791924 0.84657747 9
-2.2014427 15.779854 1.4053526 10
-2.3437722 26.417986 1.406798 9
-2.1086504 15.957459 1.9882671 11
-2.3442039 26.435942 2.3392599 10
-2.1991978 15.773685 2.5349674 12
-2.2885211 15.583508 3.0746086 13
-2.1030443 15.925961 3.1355534 13
-2.342962 26.435337 3.2764328 11
-2.2872994 15.579889 3.6490583 14
-2.1011343 15.916974 3.7201848 14
-2.2842495 15.564023 4.2292819 15
-2.0984979 15.902638 4.3122535 15
-2.3435564 26.455338 4.2249584 12
-2.343509 26.46834 5.1841106 13
-2.3439643 26.48716 6.1586776 14
-2.3431561 26.492098 7.1467118 15
-1.8346889 26.713749 -0.50747138 7
-1.7447736 -8.8678694 -0.15591091 7
-1.7929697 -4.078578 -0.23347801 6
-1.6919172 -2.4910915 -0.26360515 5
-1.9285553 -2.2676885 -0.26051667 5
-1.7885634 -1.4083463 -0.27969262 4
-1.8027636 -0.99618948 -0.28532314 3.5
-1.7355267 -0.61881518 -0.29187062 3
-1.8307402 -0.33409402 -0.29467055 3
-1.8931309 0.27647614 -0.30324656 3
-1.8535537 0.59196818 -0.30919734 3
-1.7393323 0.9721657 -0.31685543 3
-1.6237329 1.2491128 -0.32529247 3
-1.9098237 1.8342525 -0.32538667 4
-1.6643631 2.1490378 -0.33394969 4
-1.8503938 3.5729294 -0.35045084 5
-1.6285523 3.800498 -0.36009213 5
-1.9001037 26.588055 0.45281672 8
-1.902248 26.598604 1.3847686 9
-1.9047921 26.614777 2.3213432 10
-1.9074624 26.633095 3.2650239 11
-1.9094626 26.641432 4.2165189 12
-1.9590827 26.509132 5.1855755 13
-1.9591095 26.526163 6.160058 14
-1.8700106 26.818674 6.1576056 14
-1.9581509 26.530325 7.1481566 15
-1.8744222 26.8211 7.1534591 15
-1.5286726 8.0217457 -0.42325446 6
-1.227343 -4.4439602 -0.24099435 6
-1.5250095 -4.2863436 -0.23813698 6
-1.2409592 -2.8053551 -0.26812482 5
-1.4267161 -2.6838934 -0.26577574 5
-1.4158192 -1.7867385 -0.28041568 4
-1.3126694 -1.2818674 -0.290333 3
-1.4234018 -0.99854416 -0.29324538 2.6666667
-1.3204048 -0.64915532 -0.30120561 1.6666666
-1.4072032 -0.30938274 -0.30365661 1.5
-1.4431716 0.31914973 -0.31275794 1.5
-1.404429 0.62881386 -0.31868583 1.6666666
-1.3289671 0.98640972 -0.32375681 2
-1.4857454 1.4296851 -0.32769299 3
-1.2917889 1.6708184 -0.33565933 3
-1.4635295 2.3895493 -0.3439624 4
-1.2981278 2.5164526 -0.3475489 4
-1.3824868 4.0121918 -0.36957815 5
-1.51539 26.645863 0.45407748 8
-1.5770556 26.513754 1.4081596 9
-1.4582846 26.808813 1.3667651 9
-1.5747427 26.49567 2.3387787 10
-1.4636734 26.835535 2.3098798 10
-1.5765549 26.545906 3.2823122 11
-1.468556 26.851751 3.25929 11
-1.5751543 26.543222 4.2291074 12
-1.5745691 26.554262 5.188962 13
-1.477561 26.866934 5.1849575 13
-1.5744424 26.573206 6.1645837 14
-1.4828767 26.888655 6.1702642 14
-1.573915 26.58588 7.1557512 15
-1.4884466 26.913843 7.1739521 15
-0.986058 8.4931498 -0.44349185 6
-1.1932045 26.518797 -0.44831848 7
-0.92115384 -4.614429 -0.24560222 6
-0.94474733 -2.969902 -0.27239907 5
-0.98609185 -2.1129899 -0.28637618 4
-0.88189214 -1.641712 -0.29449034 3
-0.99196982 -1.4464614 -0.29570949 2.6666667
-0.93459135 -0.95729536 -0.30437335 1
-1.0204911 -0.6598286 -0.30846182 0.33333334
-1.1337502 -0.24885772 -0.31016377 0
-1.051301 0.6940766 -0.32718605 0.25
-0.95503241 0.99388444 -0.33350018 0.75
-1.0346001 1.3698274 -0.33699319 2
-1.0608157 1.8915645 -0.34463805 3
-0.86527932 2.0398803 -0.35182524 3
-1.0424962 2.7195072 -0.35765168 4
-0.96451712 4.274961 -0.38198155 5
-1.0001239 26.554455 0.47907925 8
-1.0667573 26.878448 0.43191186 8
-0.99940544 26.567766 1.4090089 9
-0.99874502 26.581594 2.3433609 10
-1.0758023 26.905474 2.3162091 10
-0.99799675 26.592983 3.2841432 11
-1.0805776 26.92485 3.2678773 11
-0.99685693 26.599712 4.2331195 12
-1.0853997 26.944387 4.2290397 12
-0.99621218 26.615341 5.1949 13
-1.0900718 26.958492 5.2011333 13
-1.1888194 26.61401 6.168941 14
-0.99439514 26.636139 7.1612191 15
-1.0997652 26.990858 7.1917405 15
-0.40339884 4.7941694 -0.42543614 5
-0.70112795 9.3577976 -0.50428039 6
-0.62740207 -3.097388 -0.27582607 5
-0.56159031 -2.3094616 -0.29155612 4
-0.58050436 -1.7946062 -0.29922915 3
-0.59760267 -1.3876554 -0.3058871 1.75
-0.63404047 -1.0406722 -0.31056866 0.33333334
-0.5769918 1.139292 -0.34664029 0
-0.50263065 1.3336834 -0.34909683 0.66666669
-0.54485476 1.7219613 -0.35336384 2
-0.53087902 2.2162666 -0.36236477 3
-0.65418661 2.9303622 -0.36866981 4
-0.51279193 4.5230832 -0.39663857 5
-0.67777061 26.954851 0.43472144 8
-0.42080343 26.633198 1.4110291 9
-0.68242604 26.983192 1.377751 9
-0.4197464 26.64636 2.3470318 10
-0.68670404 26.993357 2.3245733 10
-0.41882092 26.667875 3.29076 11
-0.69111305 27.008184 3.278394 11
-0.41759643 26.67234 4.2414517 12
-0.69564354 27.026691 4.241962 12
-0.41636419 26.677233 5.2031493 13
-0.70006514 27.038074 5.2160873 13
-0.41507837 26.680025 6.1778893 14
-0.70463002 27.053131 6.205081 14
-0.70942551 27.075115 7.2129669 15
-0.066257983 3.2649825 -0.40192387 4
-0.18674347 4.6683059 -0.40723696 5
-0.054062195 4.8980746 -0.43221617 5
-0.38223562 8.9111023 -0.46308476 6
-0.017458534 9.7991199 -0.52384073 6
-0.32977748 -1.4336718 -0.31048864 1.5
-0.29324996 -1.1503749 -0.31805629 0
-0.1383476 1.4139924 -0.35956123 0.40000001
-0.15043466 1.815851 -0.36836895 1.75
-0.16469252 2.3347328 -0.37154374 3
-0.16009831 2.4242172 -0.38406375 3
-0.22777022 3.1053746 -0.38230717 4
-0.30001569 3.2094216 -0.39688513 4
-0.034934815 26.66671 0.47978091 8
-0.2867842 27.027821 0.43757251 8
-0.033660565 26.67536 1.4126756 9
-0.2909621 27.045214 1.3823988 9
-0.032381404 26.683994 2.3496304 10
-0.29518831 27.066408 2.3321519 10
-0.29945612 27.089066 3.2893062 11
-0.029820399 26.71384 4.2470732 12
-0.30358252 27.088144 4.2525024 12
-0.028501488 26.721436 5.2106619 13
-0.30806217 27.125978 5.2337451 13
-0.027190331 26.741823 6.1909561 14
-0.31231427 27.127285 6.2225857 14
-0.025816703 26.743721 7.1836925 15
-0.31685838 27.155575 7.2346935 15
0.17391911 3.2963336 -0.40606669 4
0.30972603 4.9885426 -0.44004843 5
0.11016926 27.084711 -0.50459808 7
0.2751275 -3.321012 -0.29009181 5
0.29676339 -2.4698277 -0.30513877 4
0.2217283 -1.7920401 -0.31649381 2.5
0.1769091 -1.3726325 -0.32183391 1
0.18577039 -1.1825918 -0.32432228 0
0.27258778 1.3550158 -0.37156677 0
0.19655421 1.7803295 -0.37787738 1.5
0.19745797 2.4592755 -0.39065233 3
0.35307476 26.693478 0.47989213 8
0.35484514 26.730997 1.4153193 9
0.10235839 27.129726 1.3884933 9
0.098301984 27.133726 2.3397319 10
0.35767514 26.745533 3.2993312 11
0.35919052 26.759623 4.2542582 12
0.090369239 27.181568 4.2689648 12
0.36066338 26.768921 5.2199006 13
0.086224727 27.189596 5.2478199 13
0.36215252 26.777958 6.1993728 14
0.082112223 27.212032 6.2438359 14
0.36378029 26.796244 7.1979275 15
0.077845231 27.22183 7.2541609 15
0.65820891 2.4384272 -0.40028948 3
0.54396975 3.3140893 -0.41307706 4
0.68814766 5.0602121 -0.44860622 5
0.72920144 10.21539 -0.54459894 6
0.43959233 -5.1036587 -0.26547658 6
0.73707825 -4.4320307 -0.23235659 6
0.55228263 -3.3664303 -0.29669613 5
0.67940396 -2.467731 -0.31384906 4
0.63812965 -1.9227085 -0.32211378 3
0.59512079 -1.4476802 -0.32867742 1.6
0.5785706 -1.0763478 -0.33456784 0
0.73868132 1.1510071 -0.37236658 0
0.61133224 1.3820157 -0.37807602 0.5
0.63950706 1.8769546 -0.38713175 2
0.47253057 2.4567397 -0.39626801 3
0.50175107 27.187704 0.44379708 8
0.49789956 27.198404 1.3940778 9
0.49433154 27.223087 2.3497167 10
0.49059534 27.241402 3.312084 11
0.48666948 27.252737 4.2828426 12
0.47877651 27.281013 6.262794 14
0.47512022 27.314175 7.2821269 15
1.0966413 2.283308 -0.40220591 3
1.045447 3.2696476 -0.42168462 4
1.0707695 5.0668883 -0.45389622 5
0.95675683 -10.712263 -0.18074454 7
1.0090492 -4.1767368 -0.22177847 6
0.91642898 -3.2962084 -0.29738307 5
0.96002501 -2.4197085 -0.31892961 4
1.1547849 -2.385884 -0.32467428 4
1.0379893 -1.8073983 -0.3317731 3
1.0445515 -1.3652514 -0.3384389 2
1.0080235 -0.97889656 -0.34342858 0.75
1.0923042 -0.65319866 -0.35122553 0
1.1440066 0.75568807 -0.37724328 0
1.0185122 1.0118484 -0.37828398 0.25
0.97360843 1.3188963 -0.383993 1
1.0399567 1.6945572 -0.38974634 2
0.83397835 2.3799133 -0.3998825 3
0.89991617 27.27058 0.44710988 8
0.89602274 27.276331 1.4004397 9
0.89301914 27.307198 2.3597567 10
0.88935196 27.320549 3.3249009 11
0.88552141 27.330441 4.2986636 12
0.88202405 27.351074 5.2859449 13
0.87844872 27.371317 6.2879915 14
1.4387314 2.121469 -0.40729633 3
1.4129137 3.1678517 -0.42538771 4
1.4681519 5.0762095 -0.46209005 5
1.5378542 10.581627 -0.56559789 6
1.3702412 -3.8124397 -0.20861329 6
1.3163105 -2.9793048 -0.28274053 5
1.5718617 -2.711113 -0.27162001 5
1.4167618 -2.2593522 -0.32681674 4
1.3247313 -1.6803932 -0.34022883 3
1.4469396 -1.4391003 -0.34685174 2.6666667
1.383165 -0.97121334 -0.35261738 1.6666666
1.3620808 -0.52723712 -0.35868558 0.75
1.4465092 -0.14442144 -0.36569142 0.60000002
1.4811231 0.2649864 -0.37412789 0.66666669
1.3702095 0.56557351 -0.37755457 0.5
1.2970442 0.96797562 -0.38188076 1
1.4464048 1.3732119 -0.39299354 2
1.3006145 27.34761 0.45043036 8
1.2939503 27.379021 2.3692479 10
1.290828 27.399696 3.338438 11
1.2837378 27.426857 5.3057542 13
1.2811053 27.460436 6.3142781 14
1.2774708 27.475529 7.3365302 15
1.7987025 1.8134661 -0.40662625 3
1.7711459 3.0222654 -0.42945319 4
1.8637661 5.0307746 -0.46808806 5
1.9255898 -11.282259 -0.1906988 7
1.8796984 -4.6603436 -0.081662595 7
1.7981553 -3.3692708 -0.19588152 6
1.7352051 -2.5457945 -0.26687878 5
1.7623724 -2.2216134 -0.2925038 4.5
1.8761524 -1.7635956 -0.31601125 4
1.802092 -1.3041301 -0.35469508 3
1.6258112 -0.80819464 -0.35783032 2
1.7615538 -0.56774539 -0.36565697 2
1.9023104 -0.13006489 -0.37687105 2
1.9185811 0.30933443 -0.38356 2
1.8723578 0.59975219 -0.38778695 2
1.7357224 0.94284129 -0.38962793 2
1.7042941 27.426884 0.45389327 8
1.7015665 27.4485 1.4149327 9
1.697855 27.455338 2.3796477 10
1.6960751 27.4923 3.3543489 11
1.6918436 27.49221 4.3341112 12
1.6887631 27.510626 5.3282657 13
1.681888 27.539511 7.3616481 15
2.341675 0.93702775 -0.40150735 3
2.1470335 1.3663763 -0.40541267 3
2.3117788 2.6667142 -0.43169779 4
2.1035881 2.8225417 -0.43085378 4
2.2483895 4.9281759 -0.47157928 5
2.3992155 10.86291 -0.58534491 6
2.1141937 27.493748 -0.50493914 7
2.2519305 -4.2055521 -0.076592878 7
2.1729381 -2.9438961 -0.18694767 6
2.1043904 -2.1238434 -0.25881386 5
2.3095052 -1.8667402 -0.25668433 5
2.1772885 -1.3397378 -0.31381667 4
2.202997 -0.98493266 -0.33737671 3.5
2.1969194 -0.66138482 -0.3661361 3
2.3417578 -0.29534015 -0.37616667 3
2.376924 -24.207872 0.44098806 8
2.1112926 27.509222 0.45751435 8
2.3773348 -24.224442 1.2925068 9
2.1072478 27.510675 1.4214191 9
2.378289 -24.246538 2.1488335 10
2.3842707 -24.319353 3.0182872 11
2.1030078 27.562613 3.3682783 11
2.0829506 -24.980139 3.9883547 12
2.3862722 -24.352255 3.8940139 12
2.1004887 27.584326 4.3550344 12
2.3865781 -24.368258 4.7785225 13
2.0834665 -25.001698 4.8954496 13
2.0975907 27.60194 5.3534141 13
2.0843441 -25.027779 5.8175502 14
2.3875933 -24.391598 5.6779933 14
2.094048 27.612223 6.3649011 14
2.0911541 27.631653 7.3959122 15
2.6892171 2.3063645 -0.43286183 4
2.5026624 2.489686 -0.43156207 4
2.6415503 4.8194914 -0.47743639 5
2.5833943 -3.7664161 -0.072339006 7
2.783891 -3.4851046 -0.070051797 7
2.5059042 -2.5227721 -0.18101171 6
2.7465322 -2.2151384 -0.17902656 6
2.5764091 -1.4548534 -0.25594717 5
2.7695539 -1.1226163 -0.25781366 5
2.567838 -0.61913693 -0.32408521 4
2.6442742 -0.10615807 -0.35383084 3.6666667
2.450835 0.29535413 -0.39289194 3
2.4288368 0.57327479 -0.39737999 3
2.6632686 -23.603025 0.43128073 8
2.5211699 27.586655 0.46116343 8
2.6651847 -23.630434 1.2634251 9
2.5181782 27.599236 1.4295901 9
2.6659052 -23.647427 2.0996568 10
2.5153816 27.61408 2.402566 10
2.6737552 -23.727022 2.9500232 11
2.675432 -23.752628 3.8047185 12
2.5098443 27.645441 4.3720274 12
2.6756959 -23.765978 4.6683564 13
2.6775665 -23.7936 5.5481029 14
2.5089369 27.6817 5.377511 13
2.5048428 27.684742 6.3915358 14
2.6784832 -23.813049 6.4419312 15
2.502218 27.704227 7.4265766 15
3.0918708 1.3577374 -0.4121896 4
3.0366173 1.7564698 -0.42847779 4
2.8370211 2.0908356 -0.43041664 4
3.015898 4.6567883 -0.4809745 5
2.9232695 -11.852402 -0.20173858 7
2.9991632 -3.2389936 -0.0687503 7
3.1786251 -2.9660029 -0.067165576 7
2.8961735 -2.004133 -0.17840219 6
3.0546756 -1.7973509 -0.17923939 6
3.1786652 -1.5681645 -0.17900047 6
2.8805823 -0.92658937 -0.26091424 5
3.0431473 -0.61650419 -0.26770043 5
3.1973441 -0.28658512 -0.27637652 5
2.8929644 0.34478852 -0.35625228 4
2.966929 0.57846147 -0.36941803 4
3.0348632 0.95243961 -0.38874868 4
2.9398315 -23.051397 0.42257956 8
2.9336555 27.657234 0.46480837 8
2.9402316 -23.06374 1.2359494 9
2.9307151 27.668795 1.437103 9
2.9422822 -23.088936 2.0543456 10
2.9307551 27.707846 2.4160914 10
2.9490669 -23.150976 2.884156 11
2.9295456 27.73576 3.4023798 11
2.9508131 -23.174002 3.7192726 12
2.9261639 27.744123 4.3959465 12
2.9518993 -23.192026 4.5643559 13
2.955241 -23.227728 5.4264302 14
2.9227793 27.752928 5.4011517 13
2.9559433 -23.243095 6.2995734 15
2.9210024 27.777111 6.4241905 14
2.9185908 27.796169 7.464098 15
3.3692608 4.45013 -0.48294517 5
3.3150685 11.091119 -0.60591722 6
3.4596405 -2.5814891 -0.06597279 7
3.3131223 -1.3413091 -0.18026909 6
3.5177424 -0.98831153 -0.18408062 6
3.2818999 -0.050744865 -0.28247783 5
3.4834266 0.54436684 -0.30339113 5
3.5317783 -4.6820498 0.11359295 8
3.2012954 -22.499296 0.41390049 8
3.4530938 -21.980543 0.40586275 8
3.4560821 -22.006632 1.1854831 9
3.2026639 -22.516951 1.2096742 9
3.3508086 27.772192 1.4467098 9
3.4540513 -22.001095 1.9670136 10
3.2063234 -22.550606 2.0110691 10
3.4673848 -22.092583 2.7651088 11
3.3489044 27.791117 2.4292588 10
3.2129247 -22.604828 2.8223546 11
3.4679625 -22.103653 3.5636449 12
3.3472307 27.812155 3.4193404 11
3.2150941 -22.628273 3.6395516 12
3.4682097 -22.112719 4.3714867 13
3.2168038 -22.648623 4.4669232 13
3.3450406 27.829357 4.4187398 12
3.4692247 -22.126749 5.1922102 14
3.2156148 -22.648895 5.3023829 14
3.3428824 27.84725 5.4305186 13
3.2198241 -22.686964 6.161737 15
3.4725766 -22.155685 6.031364 15
3.3403718 27.862816 6.4567647 14
3.336942 27.871531 7.4988575 15
3.7096379 4.2175655 -0.48509023 5
3.7188723 -2.1845379 -0.065181047 7
3.8950741 -1.9187888 -0.065206058 7
3.7157686 -0.61318851 -0.18932062 6
3.9165308 -0.2052222 -0.19708274 6
3.6143706 0.98013109 -0.32192251 5
3.7067277 1.3039753 -0.33773884 5
3.7904744 1.6546162 -0.35549521 5
3.867363 2.0368443 -0.37577289 5
3.9298513 2.4517457 -0.39836434 5
3.693491 -21.476406 0.3981199 8
3.9281781 -21.013395 0.39116269 8
3.6422393 -4.5471005 0.11321542 8
3.8465316 -4.2262602 0.11184077 8
3.7734911 27.830984 0.47299179 8
3.6959112 -21.496861 1.1614363 9
3.9256918 -21.006086 1.1385186 9
3.7698865 27.835648 1.4545752 9
3.697952 -21.515163 1.9288409 10
3.9305143 -21.037592 1.8916115 10
3.7060046 -21.568203 2.706636 11
3.9389563 -21.088379 2.6540196 11
3.7702181 27.868855 2.4425056 10
3.7077792 -21.585093 3.4890954 12
3.942966 -21.115698 3.4228466 12
3.7700596 27.898756 3.4383461 11
3.7113843 -21.612646 4.2836041 13
3.941308 -21.112984 4.1962433 13
3.7659695 27.900574 4.4403214 12
3.7107244 -21.615669 5.0852032 14
3.9465621 -21.147093 4.9887285 14
3.7164893 -21.655931 5.9102387 15
3.9464819 -21.152967 5.7888474 15
3.7620912 27.936525 6.4880381 14
3.7605958 27.958519 7.5384684 15
4.0010629 2.9209905 -0.42628387 5
4.062016 3.4441564 -0.45862651 5
4.0428634 3.9672036 -0.48832813 5
4.2764192 11.241405 -0.62632835 6
4.2006063 27.896215 -0.50772595 7
4.0494471 -12.444082 -0.21443202 7
4.0779004 -1.6490026 -0.065682538 7
4.2585783 -1.367817 -0.066460997 7
4.2445292 0.49594373 -0.21442741 6
4.3819914 0.84181422 -0.22391538 6
4.1486173 -20.540291 0.38403907 8
4.3648281 -20.104872 0.37763807 8
4.138658 -3.7796164 0.11077763 8
4.3185306 -3.5204341 0.11067881 8
4.1976562 27.904797 0.47703972 8
4.1501613 -20.553232 1.1177527 9
4.3658342 -20.114382 1.0978413 9
4.153872 -20.576857 1.8560719 10
4.3637977 -20.110003 1.8201379 10
4.1640697 -20.632416 2.6046634 11
4.3811073 -20.194159 2.5577843 11
4.1950045 27.943377 2.4560416 10
4.1650786 -20.642864 3.3563769 12
4.3784995 -20.18725 3.2930076 12
4.1962228 27.979536 3.4574394 11
4.1657076 -20.651508 4.1168723 13
4.3824921 -20.210609 4.0419917 13
4.3831234 -20.218658 4.799293 14
4.1708159 -20.68228 4.8936458 14
4.3868575 -20.241009 5.5734529 15
4.1924548 28.012329 5.4884319 13
4.1719522 -20.693605 5.6799541 15
4.1894917 28.022253 6.5236101 14
4.1878176 28.041119 7.5786476 15
4.433136 -1.0720524 -0.067491725 7
4.6451879 -0.76758009 -0.069444247 7
4.5270095 1.2196091 -0.23535293 6
4.6771431 1.6355382 -0.24888715 6
4.5681953 -19.662886 0.37113044 8
4.7685905 -19.255119 0.36528218 8
4.4577599 -3.3194807 0.11086757 8
4.6747675 -3.0083475 0.11156162 8
4.6310697 28.009468 0.4817386 8
4.5719967 -19.683643 1.0784577 9
4.770844 -19.268333 1.0599951 9
4.6297603 28.027256 1.4747372 9
4.5756364 -19.703745 1.7898375 10
4.7749767 -19.289106 1.7589244 10
4.585237 -19.749374 2.5102959 11
4.788373 -19.347086 2.4684095 11
4.7875743 -19.348152 3.1788795 12
4.5869155 -19.761179 3.2347407 12
4.6274281 28.064991 3.4779301 11
4.594172 -19.796904 3.9729214 13
4.7933016 -19.375473 3.9026439 13
4.5952411 -19.806229 4.7175188 14
4.7902822 -19.367741 4.6299362 14
4.6249976 28.076687 4.4919758 12
4.595345 -19.811504 5.4738064 15
4.7955341 -19.393293 5.3777461 15
4.622447 28.087969 5.5179625 13
4.6202164 28.128895 7.6220145 15
4.8337169 -0.43752447 -0.071426943 7
5.0485501 -0.084934354 -0.074216932 7
4.8329339 2.097635 -0.26489565 6
5.0258613 2.6318212 -0.28559983 6
4.9608302 -18.855862 0.35961032 8
5.147604 -18.47332 0.35427007 8
4.9740839 -2.5831816 0.11330394 8
5.1722798 -2.3128843 0.1149506 8
5.0644817 28.085932 0.48607951 8
4.9615312 -18.862383 1.0421184 9
5.1499333 -18.485233 1.0259006 9
5.0644746 28.109518 1.4846479 9
4.9647708 -18.878508 1.7285078 10
5.151351 -18.49391 1.7005894 10
5.1644673 -18.544355 2.3854427 11
4.975935 -18.924608 2.4241374 11
5.0624337 28.122139 2.4874988 10
4.9774323 -18.934225 3.1231167 12
5.1659331 -18.553272 3.0730221 12
5.060513 28.135571 3.4974101 11
4.9815674 -18.953865 3.8326247 13
5.167459 -18.562452 3.7689826 13
4.9824138 -18.961134 4.5503221 14
5.1704783 -18.577019 4.4764514 14
5.0610991 28.162937 4.5191259 12
5.1712875 -18.583761 5.1943312 15
4.9895835 -18.992378 5.2869163 15
5.058517 28.173285 5.550714 13
5.059576 28.203926 6.6018014 14
5.0575738 28.218239 7.6676331 15
5.2639337 11.281774 -0.64508176 6
5.4575462 0.63161236 -0.080802463 7
5.2071385 3.2296777 -0.30896866 6
5.4057217 3.9230366 -0.33746931 6
5.3268485 -18.097855 0.34907684 8
5.4970379 -17.723488 0.34391361 8
5.2979307 -2.1393836 0.11618903 8
5.5023208 -1.8550382 0.11844631 8
5.3782582 -6.1274734 0.44506678 9
5.5501037 -5.8353982 0.44038948 9
5.5023098 28.161741 0.49053633 8
5.3278837 -18.104717 1.0095593 9
5.5046458 -17.751022 0.99477184 9
5.5027475 28.185923 1.4946167 9
5.3319435 -18.121807 1.6739359 10
5.5097179 -17.770449 1.64931 10
5.344676 -18.168226 2.3474476 11
5.5158272 -17.793226 2.3097479 11
5.4996805 28.192554 2.502459 10
5.3458085 -18.175495 3.0236738 12
5.5228224 -17.818882 2.9780555 12
5.3503284 -18.194252 3.710326 13
5.5275912 -17.837444 3.6542604 13
5.3530564 -18.207012 4.4063172 14
5.5020494 28.249233 4.5473857 12
5.3527012 -18.20941 5.111681 15
5.5311046 -17.855396 5.0351105 15
5.5013208 28.268322 5.5867381 13
5.4988489 28.278921 6.6395769 14
5.7092905 1.0888362 -0.085651889 7
5.9919834 1.6040294 -0.091702834 7
5.673316 -17.396244 0.33967438 8
5.9927325 -16.715267 0.33070782 8
5.6123166 -1.7109784 0.11984179 8
5.6909046 -1.5989372 0.12085682 8
5.7820621 -5.4238567 0.43460363 9
5.8394594 -17.065166 0.96657574 9
5.9943237 -16.7223 0.95255041 9
5.9983001 -16.735966 1.577848 10
5.9475904 28.270935 1.5054179 9
5.6758671 -17.409958 1.6239389 10
5.6843739 -17.438887 2.2748671 11
5.8476448 -17.094576 2.2414272 11
5.9469433 28.288576 2.5203156 10
5.6910782 -17.462362 2.9326484 12
5.6898537 -17.461687 3.5945425 13
5.8563581 -17.125628 3.5431983 13
5.9494338 28.321072 3.5444701 11
5.6982532 -17.490421 4.2726417 14
5.8643022 -17.151648 4.2109852 14
5.946269 28.327261 4.5754347 12
5.6975498 -17.491436 4.9560747 15
5.8600373 -17.142216 4.8815036 15
5.9459348 28.346987 5.6209044 13
5.9475293 28.376081 6.6841979 14
5.9440241 28.381607 7.760323 15
6.2621408 11.205841 -0.66196424 6
6.3102083 2.1935103 -0.099202298 7
6.1500072 -16.401299 0.32675898 8
6.2960205 -16.077612 0.32262272 8
6.0585675 -4.9651475 0.43045843 9
6.271822 -4.6375537 0.42948648 9
6.398304 28.339209 0.5002988 8
6.1525311 -16.410471 0.94033778 9
6.2983947 -16.085981 0.92744207 9
6.1503377 -16.407135 1.5556941 10
6.3012424 -16.095568 1.5352511 10
6.3978019 28.356358 1.5166285 9
6.1613555 -16.438873 2.1792455 11
6.3155437 -16.134277 2.1514146 11
6.3180132 -16.142944 2.7706783 12
6.3979764 28.376543 2.5381 10
6.0886431 -16.615704 2.8273988 12
6.0912547 -16.625412 3.4674053 13
6.3207078 -16.152216 3.3976395 13
6.0937424 -16.634594 4.1167941 14
6.3248491 -16.165199 4.0348258 14
6.1795163 -16.497417 4.748538 15
6.3279171 -16.175503 4.6826062 15
6.3995428 28.422749 4.6074591 12
6.0252099 -16.824253 4.8161397 15
6.3988447 28.46003 6.7273884 14
6.4030333 28.340504 -0.51398665 7
6.6693301 2.8780491 -0.10847782 7
6.5593171 -16.058498 0.32463527 8
6.5943289 -4.1906691 0.43119606 9
6.7614002 -3.9581392 0.43280295 9
6.5498343 -16.037659 0.93058461 9
6.5410128 -16.018427 1.537361 10
6.5200768 -15.969689 2.142472 11
6.5125484 -15.953631 2.7547655 12
6.4001045 28.40543 3.5682878 11
6.4024057 28.496336 7.818624 15
7.1433063 9.5900536 -0.19269519 7
6.9012532 -16.217178 0.33035642 8
7.1419544 9.5907774 0.22592041 8
6.9117413 -3.7571514 0.43503243 9
7.197721 -3.4053106 0.44095901 9
7.1526823 9.6075201 0.64614791 9
6.8510137 28.413309 0.50512868 8
7.1682992 9.630764 1.0700661 10
6.885994 -16.185904 1.5634276 10
6.8571458 28.456675 1.5290362 9
6.8620028 -16.132006 2.177968 11
6.8482981 -16.102177 2.7978978 12
6.8537464 28.461105 2.5562348 10
7.0125685 -16.160477 3.4524882 13
6.8583441 28.49843 3.5941103 11
7.0038142 -16.14287 4.0919638 14
6.9931865 -16.120539 4.7391429 15
6.8586793 28.518478 4.6407146 12
6.8557463 28.525345 5.6976833 13
6.8577089 28.552591 6.7743387 14
6.8525786 28.551018 7.8624291 15
7.2085423 9.3874531 -0.60503882 6
7.24687 10.998445 -0.67608708 6
7.4962707 9.0613937 -0.18767488 7
7.2608485 9.3172607 -0.18955104 7
7.497035 9.0646524 0.22421762 8
7.2748456 9.3373413 0.22450162 8
7.4063425 -3.1783321 0.44669065 9
7.5018311 9.0724745 0.63719362 9
7.2783108 9.3440905 0.63989347 9
7.3149977 28.510094 0.51050448 8
7.2449288 -16.361879 0.96230304 9
7.5122991 9.0872154 1.0531583 10
7.2804513 9.3492346 1.0571853 10
7.5966654 -16.505232 1.6160654 10
7.2122436 -16.292727 2.2141647 11
7.3162794 28.549725 2.5754061 10
7.5621786 -16.434893 2.8939073 12
7.5549283 -16.421364 3.5433278 13
7.3212223 28.586298 3.6202281 11
7.5425644 -16.396795 4.1977839 14
7.3224959 28.608902 4.6743236 12
7.5264401 -16.364117 4.8585997 15
7.3212662 28.622082 5.7397985 13
7.3206034 28.656195 7.9221711 15
7.8847122 8.8498039 -0.60347003 6
7.8031998 8.890089 -0.18775527 7
7.6206675 -16.552919 0.34264189 8
7.7222023 8.9310026 0.225844 8
7.7219987 8.9329386 0.63995445 9
7.7852101 28.606476 0.5160234 8
7.7980924 -16.618307 0.98804212 9
7.7191114 8.9318142 1.0553592 10
7.7827806 28.614107 1.55276 9
7.9674535 -16.667625 1.6437093 10
7.948019 -16.629217 2.2915232 11
7.9397364 -16.614059 2.9460783 12
7.919878 -16.574799 3.6015315 13
7.792706 28.683397 3.6484857 11
7.9093065 -16.554907 4.2679043 14
7.7922897 28.698717 4.7090764 12
7.8948202 -16.526888 4.9411607 15
7.7891908 28.704468 5.7805576 13
7.7903371 28.725929 6.8707666 14
7.7868404 28.730766 7.9755464 15
8.0004396 -16.732185 0.34927011 8
8.2567444 28.684782 0.52136815 8
8.2623272 28.719664 1.5667175 9
8.262454 28.735872 2.6166508 10
8.2643175 28.758179 3.6748896 11
8.2692165 28.80735 5.8270144 13
8.2693901 28.824442 6.9245768 14
8.7445078 28.780535 -0.5231123 7
8.7428112 28.80497 1.5800159 9
8.7447081 28.826242 2.6381137 10
8.7506113 28.860708 3.7058578 11
8.7531481 28.88435 4.7834382 12
8.7521582 28.89665 5.8723392 13
8.7502823 28.906296 6.9762883 14
8.7519913 28.927929 8.1021509 15
9.232029 28.881983 0.5332728 8
9.2333822 28.900574 1.5943345 9
9.2320347 28.910873 2.6597984 10
9.2409744 28.953173 3.7365894 11
9.2414694 28.969435 4.821341 12
9.2437916 29.006666 7.0344305 14
9.2465305 29.030567 8.1700001 15
9.9430809 9.6273127 -0.70175374 6
9.7275085 28.970886 0.53929633 8
9.7374487 29.014067 1.6101178 9
9.7317095 29.011038 2.6836865 10
9.7439098 29.061092 3.7704072 11
9.7435656 29.074228 4.8639183 12
9.742383 29.085058 5.9699936 13
9.7482061 29.116827 7.0969973 14
9.7493057 29.134874 8.240694 15
10.237501 29.07955 0.54586244 8
10.239551 29.112059 2.7084594 10
10.253606 29.178812 4.9079123 12
10.251494 29.186647 6.022954 13
10.254527 29.209215 7.1573329 14
10.254082 29.222204 8.3090048 15
10.671066 8.9213409 -0.70279539 6
10.750663 29.173969 0.55234277 8
10.758691 29.20845 1.6413637 9
10.75461 29.210394 2.7338099 10
10.765226 29.252024 3.8382101 11
10.770102 29.27832 4.9525442 12
10.765978 29.280516 6.0761361 13
10.773081 29.326939 8.3847589 15
11.271795 29.255068 -0.53614706 7
11.274152 29.27355 0.55910653 8
11.275018 29.288221 1.6567702 9
11.292536 29.358479 3.8753233 11
11.290995 29.380102 6.1323767 13
11.295169 29.403938 7.2869539 14
11.297593 29.423489 8.4607592 15
11.808086 29.389128 1.673902 9
11.809051 29.40362 2.7867708 10
11.82653 29.459003 3.9128904 11
11.826539 29.471346 5.0454264 12
11.830059 29.492525 6.1932473 13
11.829177 29.502989 7.3555865 14
11.830004 29.517899 8.5387926 15
12.350467 29.478483 0.57333177 8
12.355059 29.501055 1.6922218 9
12.356649 29.516571 2.8161564 10
12.372333 29.565594 3.9525406 11
12.368807 29.569181 5.0945086 12
12.378315 29.603842 6.255919 13
12.372501 29.602304 7.4266558 14
12.378771 29.629681 8.6246147 15
12.903443 29.582113 0.5807752 8
12.914047 29.617611 1.7113914 9
12.904907 29.608202 2.8444502 10
12.922491 29.659758 3.9918411 11
12.927437 29.682638 5.1479831 12
12.931951 29.704672 6.3184547 13
12.930372 29.71299 7.5030427 14
12.932584 29.730158 8.7100096 15
13.469739 29.69265 0.58857107 8
13.472828 29.710459 1.7297889 9
13.468268 29.711565 2.8748429 10
13.494067 29.779285 4.0359292 11
13.494806 29.7922 5.2025561 12
13.498249 29.811178 6.3843484 13
13.498574 29.823483 7.5819535 14
13.503052 29.845106 8.8026142 15
14.040298 29.778688 -0.55384326 7
14.044662 29.798628 0.59650153 8
14.097054 0.76954502 1.2816 10
14.239109 1.090559 1.2962804 10
14.386247 1.4184781 1.3119909 10
14.14171 0.56560576 1.7867934 11
14.233394 1.090616 1.8021017 11
14.377969 1.4182895 1.823663 11
14.050649 29.822004 1.749891 9
14.169375 0.56719315 2.297698 12
14.245172 1.0920728 2.3148129 12
14.387156 1.4198033 2.3420959 12
14.161756 0.67061526 2.8103211 13
14.351294 1.3116677 2.8562658 13
14.049477 29.830345 2.9077511 10
14.230624 0.57062292 3.3455064 14
14.208562 0.98587912 3.345603 14
14.35201 1.3123541 3.3851693 14
14.189458 0.67293608 3.8668039 15
14.317325 1.2041374 3.9106278 15
14.069751 29.884005 4.0794392 11
14.067618 29.890501 5.256978 12
14.078277 29.924141 6.4538674 13
14.079711 29.938461 7.6646738 14
14.630342 29.903952 0.60465127 8
14.579502 1.8674974 0.81575435 9
14.741227 2.2172921 0.82713789 9
14.513875 0.36751902 1.3178219 10
14.531311 1.7548367 1.3282509 10
14.742634 2.2182 1.3525954 10
14.673922 -14.819986 1.8704047 10
14.591235 0.36989281 1.8424659 11
14.535434 1.7560207 1.8478916 11
14.682354 2.1000321 1.8716524 11
14.631632 29.91707 1.7696652 9
14.603349 0.37069237 2.3666365 12
14.541889 1.7575663 2.3727896 12
14.628934 -14.992598 2.6194241 11
14.743432 2.2197483 2.4148149 12
14.647861 0.37228605 2.9039929 13
14.549126 1.7590034 2.9042473 13
14.698812 2.1037974 2.9422002 13
14.642721 29.95014 2.9418302 10
14.63435 -14.999175 3.3683624 12
14.66977 0.37333983 3.4466524 14
14.550073 1.7598743 3.4421217 14
14.680928 0.3741416 3.9968767 15
14.412885 1.4242209 3.9417813 15
14.514337 1.6483786 3.9754503 15
14.641726 -15.007854 4.1268997 13
14.600482 1.8742896 4.005878 15
14.715826 2.1076865 4.0452414 15
14.663817 30.003656 4.1264691 11
14.707379 -14.858048 4.8801351 14
14.667089 30.02104 5.3189788 12
14.72226 -14.87417 5.6635456 15
14.665003 30.027651 6.5236611 13
14.672588 30.054094 7.7503338 14
14.897899 2.5745099 0.8386271 9
15.057904 2.9429829 0.8508113 9
14.970081 0.16009271 1.3587009 10
14.901487 2.5758948 1.371696 10
14.998001 2.8182917 1.384019 10
14.817353 -14.535945 1.8621848 10
14.962157 -14.257051 1.8547573 10
15.088429 -13.964482 1.8456641 10
15.029771 0.16116226 1.8970965 11
14.890144 2.5747294 1.9064991 11
15.052779 2.9437249 1.9348167 11
14.828766 -14.548138 2.5986555 11
14.977366 -14.272492 2.5887063 11
15.106113 -13.981752 2.5761971 11
15.063287 0.16198488 2.4402046 12
14.901069 2.5773814 2.4488599 12
15.117676 3.0711842 2.4975867 12
15.114429 0.16298771 2.9952989 13
14.800751 2.3391068 2.9688776 13
15.066505 2.9480302 3.0411289 13
14.83427 -14.554561 3.3414214 12
14.975543 -14.27175 3.3268321 12
15.107541 -13.984021 3.3113122 12
15.148061 0.16382936 3.5575979 14
14.806569 2.3407841 3.5199206 14
14.921065 2.5824008 3.5554154 14
15.027676 2.8271136 3.5899515 14
15.128903 3.0751867 3.6241386 14
14.841875 -14.563054 4.0937285 13
14.978608 -14.27567 4.0744767 13
15.115502 -13.992337 4.0566454 13
15.169219 0.1645585 4.1281457 15
14.937297 2.5859993 4.1244793 15
15.080114 2.9524724 4.1803937 15
14.842603 -14.564826 4.8549886 14
15.051553 -14.139156 4.8226171 14
15.125434 -14.003477 5.5805564 15
14.858352 -14.581326 5.6345448 15
15.003411 -14.301311 5.610878 15
15.234997 30.02389 0.61334062 8
15.322896 3.5780876 0.87202448 9
15.441021 3.8436694 0.881603 9
15.563717 4.1158137 0.89168251 9
15.44231 -0.060597043 1.4012926 10
15.285551 3.45367 1.420692 10
15.458376 3.8489122 1.443784 10
15.575452 4.1198921 1.4598844 10
15.218441 -13.679403 1.8376496 10
15.365496 -13.412738 1.8322527 10
15.541371 -0.060593653 1.9612845 11
15.283254 3.4540565 1.9760145 11
15.236119 30.036337 1.7915382 9
15.571978 4.1199865 2.0305731 11
15.243114 -13.702433 2.5659442 11
15.567302 -0.060229756 2.5213661 12
15.28861 3.4561863 2.537344 12
15.460153 3.851289 2.5785911 12
15.286898 3.4566867 3.1039982 13
15.467493 3.8540871 3.1563678 13
15.244257 30.062578 2.9762938 10
15.242265 -13.702583 3.2974849 12
15.299109 3.4603429 3.681741 14
15.468057 3.8552241 3.741076 14
15.597167 4.1296854 3.7860236 14
15.246477 -13.707281 4.0385742 13
15.304276 3.4623904 4.2679324 15
15.485706 3.8606029 4.3402357 15
15.260473 30.104744 4.1724734 11
15.250653 -13.711961 4.7903376 14
15.265179 -13.725944 5.55864 15
15.387512 -13.436336 5.5322056 15
15.267511 30.129015 5.3789711 12
15.264668 30.134035 6.5964727 13
15.274586 30.164249 7.8374476 14
15.844234 30.128794 0.62197596 8
15.688594 4.3942161 0.90213555 9
15.81946 4.6802983 0.91319323 9
15.684634 4.3941579 1.475661 10
15.819405 4.6813703 1.4942694 10
15.950831 4.9739513 1.5130216 10
15.851667 30.152859 1.8139492 9
15.75887 4.5407019 2.0669436 11
15.937906 4.9710917 2.1035357 11
15.649603 4.2643242 2.6246521 12
15.949739 4.9759097 2.7025013 12
15.604061 -0.059910458 3.0917516 13
15.863501 30.185307 3.0129271 10
15.770908 4.54635 3.249032 13
15.962925 4.9811597 3.3094213 13
15.626423 -0.059513558 3.6692693 14
15.85648 4.6967211 3.8796124 14
15.978849 4.9872761 3.9264219 14
15.669898 -0.059206095 4.2635942 15
15.602639 4.1321831 4.388968 15
15.882041 30.230526 4.2235003 11
15.776619 4.5502901 4.464263 15
15.974814 4.9872298 4.549119 15
15.885884 30.248037 5.4429855 12
15.969754 -13.539553 5.670393 15
15.888878 30.264071 6.6769872 13
15.894888 30.285969 7.9305496 14
16.13242 5.4182744 0.34421954 8
16.327887 5.8826804 0.3505564 8
16.136442 5.4209008 0.9414925 9
16.334988 5.8865061 0.95977145 9
16.210485 5.5776768 1.5516552 10
16.35008 5.8931947 1.5726571 10
16.074228 5.2715955 2.1310301 11
16.329012 5.8869486 2.1857491 11
16.172419 -13.707477 2.6550679 11
16.150703 5.4292769 2.7554305 12
16.347097 5.894732 2.8093979 12
16.122374 -13.666009 3.4013677 12
16.149124 5.4299407 3.371227 13
16.359325 5.9004359 3.4402595 13
16.101734 5.2842083 3.974597 14
16.064829 -13.618208 4.1495919 13
