# .PCD v0.7 - Point Cloud Data file format
VERSION 0.7
FIELDS x y z intensity
SIZE 4 4 4 4
TYPE F F F F
COUNT 1 1 1 1
WIDTH 1395
HEIGHT 1
VIEWPOINT 0 0 0 1 0 0 0
POINTS 1395
DATA ascii
-39.048641 1.6799107 0.68087709 8
-39.129322 2.8086829 0.68252987 8
-39.116474 3.3718596 0.68263811 8
-39.165546 3.942301 0.68396753 8
-38.850445 -2.2294672 2.0410202 9
-38.879066 -1.6725633 2.0406449 9
-38.91798 -1.1158153 2.0412238 9
-38.937801 -0.55812973 2.0412171 9
-38.966499 0.00010729331 2.0420916 9
-39.030518 1.1190714 2.0454412 9
-39.056622 1.6802627 2.0474329 9
-39.074966 2.2424557 2.0494401 9
-39.093975 2.8061559 2.051904 9
-39.13583 3.3735387 2.055994 9
-39.167328 3.942492 2.0599709 9
-39.17757 4.511549 2.0632648 9
-38.827831 -2.786911 3.4077175 10
-38.842678 -2.2290347 3.4054644 10
-38.890717 -1.1150383 3.4046612 10
-38.932034 -0.55804837 3.406817 10
-38.962723 0.00010911401 3.4087393 10
-38.994068 0.55895185 3.4114168 10
-38.997391 1.1181282 3.4123402 10
-39.032475 1.6792326 3.4167447 10
-39.063015 2.24178 3.4214559 10
-39.114918 3.3717477 3.4322071 10
-39.146248 3.9403806 3.4391301 10
-39.175285 4.5112963 3.4465799 10
-39.188438 5.0828824 3.4533608 10
-38.812992 -2.7858641 4.7798529 11
-38.852581 -2.2296174 4.7799053 11
-38.887749 -1.1149583 4.7775321 11
-38.926647 -0.55797255 4.7804313 11
-38.952278 0.00011086617 4.7826796 11
-38.975929 0.55869633 4.7856627 11
-39.001221 1.1182448 4.7898316 11
-39.054459 2.2412996 4.801455 11
-39.093105 2.8061161 4.8102374 11
-39.106579 3.3710403 4.8169246 11
-39.134422 3.9392011 4.8263903 11
-39.157482 4.5092549 4.8362846 11
-39.195736 5.083838 4.8490872 11
-38.841335 -2.2289855 6.1635275 12
-38.853481 -1.6714896 6.1606221 12
-38.878731 -1.1147046 6.1610603 12
-38.904728 -0.5576598 6.1628785 12
-38.946728 0.00011273094 6.1684937 12
-38.962769 0.55851233 6.1712613 12
-39.022251 1.6788098 6.1849437 12
-39.054104 2.2412891 6.1940331 12
-39.074844 2.8048158 6.2026463 12
-39.103664 3.3708005 6.2138362 12
-39.13628 3.9394004 6.2269335 12
-39.161869 4.5097728 6.2402301 12
-39.188946 5.0829673 6.2550902 12
-38.848034 -1.6712649 7.559412 13
-38.870087 -1.114462 7.5594201 13
-38.902279 -0.55762595 7.5629492 13
-38.922199 0.00011451389 7.5656424 13
-38.963055 0.55852109 7.5739589 13
-38.973381 1.1174603 7.5778937 13
-39.019848 1.6787149 7.5904198 13
-39.055931 2.8034687 7.6091247 13
-39.084003 3.3691165 7.6228061 13
-39.106426 3.9364059 7.6369839 13
-39.158829 4.5094337 7.658638 13
-39.170773 5.0806203 7.6740103 13
-39.198185 5.6565151 7.694057 13
-38.43602 -10.730808 0.70409173 8
-38.480213 -10.151153 0.70181692 8
-38.50251 -9.5691528 0.69929701 8
-38.661911 -6.1451402 0.68779069 8
-38.69799 -5.5836234 0.68654847 8
-38.734745 -5.0234752 0.68545842 8
-38.755714 -4.4625297 0.68422848 8
-38.780396 -3.9032016 0.68320364 8
-38.799114 -3.3442612 0.68221366 8
-38.416138 -11.32117 2.1066995 9
-38.424133 -10.727632 2.0981543 9
-38.454788 -10.144572 2.0913317 9
-38.488029 -9.56567 2.0851209 9
-38.64814 -6.1430082 2.055289 9
-38.676926 -5.5806332 2.0519722 9
-38.718754 -5.0214434 2.0497739 9
-38.748249 -4.4617057 2.0473473 9
-38.780029 -3.9031944 2.0454638 9
-38.794678 -3.3439033 2.0431004 9
-38.411587 -10.724269 3.4964275 10
-38.445446 -10.142235 3.4855807 10
-38.474831 -9.5625057 3.4751179 10
-38.641521 -6.1420169 3.4274743 10
-38.677822 -5.5808144 3.4228692 10
-38.707325 -5.0200043 3.4183781 10
-38.718845 -4.4583564 3.4130147 10
-38.757545 -3.9009612 3.4107559 10
-38.792774 -3.3437629 3.4088953 10
-38.68288 -5.0168772 4.7929583 11
-38.722393 -4.4588003 4.789062 11
-38.757397 -3.9009757 4.7855968 11
-38.784428 -3.3430669 4.7821393 11
-38.40995 -10.723954 4.9037733 11
-38.439423 -10.140778 4.8881416 11
-38.465611 -9.5603333 4.8732057 11
-38.643272 -6.1423535 4.8086538 11
-38.672394 -5.5800819 4.8014565 11
-38.41901 -10.135521 6.3000069 12
-38.44664 -9.5557375 6.281096 12
-38.638741 -6.1416926 6.2008562 12
-38.659866 -5.5783248 6.1904078 12
-38.691902 -5.0180917 6.1830101 12
-38.714802 -4.4579649 6.1754451 12
-38.743088 -3.8995659 6.1700239 12
-38.758156 -3.3408265 6.1637774 12
-38.656704 -5.5779209 7.5957704 13
-38.680607 -5.0166707 7.5851851 13
-38.713917 -4.4578991 7.5780306 13
-38.74221 -3.8995087 7.5714712 13
-38.760891 -3.3410866 7.5646 13
-38.796947 -2.7847502 7.5626831 13
-38.425529 -10.137374 7.7315364 13
-38.458168 -9.5587234 7.7094069 13
-38.643002 -6.1424308 7.6099682 13
-38.036232 -18.774818 0.75243759 8
-38.052326 -18.109421 0.74729478 8
-38.098942 -17.466581 0.74295962 8
-38.140324 -16.828493 0.73872036 8
-38.164986 -16.190144 0.73435241 8
-38.212284 -15.56805 0.73061228 8
-38.258194 -14.32287 0.72275126 8
-38.284355 -13.710541 0.71915239 8
-38.314129 -13.104959 0.71579611 8
-38.351719 -12.506984 0.71275532 8
-38.38081 -11.910855 0.70972228 8
-38.396824 -11.315323 0.70661396 8
-38.020012 -18.767183 2.2339618 9
-38.044239 -18.105921 2.2196622 9
-38.086781 -17.461329 2.2070603 9
-38.121834 -16.820635 2.1946318 9
-38.160961 -16.188725 2.1830301 9
-38.177994 -15.554338 2.1707489 9
-38.205364 -14.930869 2.1596279 9
-38.272202 -13.706404 2.1397154 9
-38.311302 -13.104192 2.130873 9
-38.334721 -12.501619 2.1216745 9
-38.369576 -11.907534 2.1136172 9
-38.237404 -14.315546 3.5815551 10
-38.268452 -13.705275 3.5653973 10
-38.299374 -13.100309 3.5501144 10
-38.328415 -12.499745 3.5355227 10
-38.362488 -11.905503 3.5222435 10
-38.385693 -11.312348 3.5088017 10
-38.013554 -18.76437 3.7206521 10
-38.051819 -18.109884 3.6983657 10
-38.085423 -17.461033 3.6766763 10
-38.101631 -16.812027 3.6543417 10
-38.150063 -16.184387 3.636095 10
-38.22171 -14.937514 3.6000645 10
-38.062088 -17.45067 5.1522598 11
-38.102692 -16.812807 5.1243491 11
-38.131424 -16.176765 5.0962377 11
-38.157005 -15.546325 5.0690804 11
-38.217396 -14.936077 5.0478625 11
-38.260735 -13.702727 4.9990497 11
-38.279335 -13.09365 4.9761438 11
-38.335152 -12.502128 4.9592857 11
-38.34977 -11.901725 4.938283 11
-38.379097 -11.310559 4.9203558 11
-38.00227 -18.759174 5.2153296 11
-38.315971 -12.496058 6.391511 12
-38.341263 -11.899258 6.3663096 12
-38.38818 -11.313396 6.3462033 12
-38.399895 -10.721292 6.3217587 12
-38.031933 -18.101124 6.6824508 12
-38.054798 -17.447653 6.6415911 12
-38.090645 -16.807802 6.6048636 12
-38.12632 -16.174894 6.5699048 12
-38.152527 -15.544769 6.5350809 12
-38.225544 -14.311575 6.4740682 12
-38.255768 -13.701166 6.4449673 12
-38.283081 -13.095137 6.416986 12
-38.188263 -14.925196 7.979476 13
-38.212936 -14.307091 7.9406743 13
-38.253975 -13.700746 7.9072857 13
-38.279999 -13.094286 7.8727593 13
-38.296448 -12.489878 7.8382087 13
-38.347862 -11.90148 7.8126984 13
-38.368156 -11.307653 7.7826943 13
-38.392143 -10.719272 7.7552705 13
-38.017342 -18.094538 8.1954575 13
-38.054554 -17.447884 8.1484785 13
-38.084057 -16.805208 8.1021223 13
-38.123802 -16.174116 8.0601587 13
-37.756371 -24.3685 0.79884821 8
-37.788799 -23.629381 0.79211903 8
-37.818073 -22.900572 0.78559232 8
-37.859272 -22.190458 0.779571 8
-37.920616 -20.790131 0.76783407 8
-37.968571 -20.114351 0.76267004 8
-37.992706 -19.435196 0.75725085 8
-37.674141 -25.874081 0.81277382 8
-37.699425 -25.104145 0.80533075 8
-37.700569 -25.105549 2.388402 9
-37.736725 -24.356417 2.3681769 9
-37.773533 -23.620399 2.3488317 9
-37.814762 -22.899099 2.3305693 9
-37.845425 -22.18285 2.3124373 9
-37.883553 -21.481899 2.2955184 9
-37.913128 -20.78648 2.2788143 9
-37.946789 -20.10323 2.2630682 9
-37.648426 -25.85709 2.4084735 9
-37.689484 -25.09881 3.9761472 10
-37.718369 -24.345173 3.9418204 10
-37.760948 -23.613108 3.9103301 10
-37.805786 -22.894207 3.8804154 10
-37.844162 -22.182621 3.8511353 10
-37.876381 -21.478315 3.8224945 10
-37.906246 -20.783157 3.7948472 10
-37.993835 -19.436573 3.7458429 10
-37.652061 -25.86027 4.0110364 10
-37.678871 -25.092394 5.5728269 11
-37.708321 -24.339296 5.5248566 11
-37.750366 -23.607063 5.4807076 11
-37.799252 -22.890791 5.4394331 11
-37.824642 -22.171688 5.3966107 11
-37.880043 -21.480873 5.3598375 11
-37.909267 -20.785269 5.3210621 11
-37.923168 -20.091564 5.2818313 11
-37.966164 -19.422812 5.2482796 11
-37.650188 -25.859673 5.6229744 11
-37.952606 -19.416283 6.764039 12
-37.987614 -18.752319 6.7214475 12
-37.654942 -25.077105 7.1798868 12
-37.707653 -24.339487 7.1225257 12
-37.746323 -23.605118 7.065021 12
-37.78447 -22.882383 7.0098691 12
-37.825443 -22.172678 6.9576039 12
-37.848991 -21.463747 6.9044337 12
-37.887691 -20.773895 6.8562627 12
-37.618809 -25.838799 7.243022 12
-37.984306 -18.75107 8.2456779 13
-31.29701 -5.4349761 0.55834568 8
-31.260981 -5.4287701 1.6666332 9
-31.176613 -5.4141684 2.7721388 10
-31.148787 -5.4093895 3.8854864 11
-31.118912 -5.404253 5.0061221 12
-31.034172 -5.3895879 6.1262746 13
-30.654259 -7.1532521 0.55445522 8
-30.701256 -6.2425146 0.5512684 8
-30.734789 -5.7920928 0.55003184 8
-30.669376 -6.6950436 1.6497802 9
-30.698933 -6.2421107 1.6461053 9
-30.707592 -5.7870245 1.6416677 9
-30.664257 -6.6940026 2.7504864 10
-30.690042 -6.2403698 2.7442167 10
-30.709064 -5.7873635 2.7379379 10
-30.660505 -6.6932592 3.8577573 11
-30.681087 -6.2386169 3.8484268 11
-30.700222 -5.7857575 3.8397548 11
-30.662334 -6.693737 4.9752154 12
-30.685236 -6.239531 4.9636402 12
-30.690603 -5.7840056 4.9503164 12
-30.642616 -6.6895084 6.1009588 13
-30.671495 -6.2368064 6.0880165 13
-30.681324 -5.7823186 6.0726233 13
-17.419233 8.2926168 0.3307443 8
-17.576967 22.29797 0.4813292 8
-17.437548 8.3012657 1.0063958 9
-17.583221 22.305105 1.474739 9
-17.425446 8.2954359 1.6829901 10
-17.427837 8.296504 2.3647382 11
-17.439857 8.3021536 3.0542078 12
-17.438908 8.3016272 3.7494757 13
-16.834017 8.3121443 0.32172713 8
-17.088432 15.327974 0.3902283 8
-16.992409 22.537458 0.47848883 8
-16.858448 8.3241367 0.97964257 9
-17.087463 15.326766 1.1929536 9
-16.995401 22.540636 1.4658194 9
-16.865612 8.3275986 1.64018 10
-16.86396 8.3267059 2.3041027 11
-16.875319 8.3322382 2.9758856 12
-16.878803 8.3338823 3.6543088 13
-16.744106 15.458264 0.38730308 8
-16.493927 15.671484 0.3865886 8
-16.637302 23.083357 0.48232937 8
-16.747982 15.461488 1.1845405 9
-16.516129 15.692196 1.1838591 9
-16.644018 23.091747 1.4779668 9
-16.313391 8.3481197 0.31390291 8
-16.339153 15.976588 0.38820136 8
-16.318066 8.3504324 0.95498896 9
-16.339981 15.976997 1.1874554 9
-16.324448 8.3536186 1.5989408 10
-16.315569 8.3489923 2.2452233 11
-16.325294 8.3538885 2.8996549 12
-15.791893 8.3691339 0.3060253 8
-15.809395 8.3783264 0.93205035 9
-15.808948 8.3780031 1.559968 10
-15.812606 8.3798561 2.1922469 11
-15.816379 8.3817682 2.8302615 12
-15.301404 8.3924208 0.29870796 8
-15.315481 8.4000521 0.90984279 9
-15.316574 8.4005632 1.5230324 10
-15.330725 8.4082327 2.1418698 11
-15.325408 8.4052238 2.7636402 12
-14.878294 2.1463714 -0.26399773 7
-14.846217 8.4219398 0.29204249 8
-14.839708 8.4181509 0.88857061 9
-14.857274 8.4280214 1.4891523 10
-14.856236 8.4273367 2.0921912 11
-14.850699 8.4240999 2.6995032 12
-14.446973 -1.0364488 -0.25210768 7
-14.652994 3.8485625e-05 -0.255788 7
-14.79563 1.0616504 -0.25971887 7
-14.61811 6.7036471 -0.2857134 7
-14.422755 9.0230465 0.29071781 8
-14.45967 9.3373384 0.29399982 8
-14.465857 9.7894268 0.29816401 8
-14.493972 10.269073 0.3030245 8
-14.409756 8.5898046 0.87358105 9
-14.4313 9.3188915 0.89422208 9
-14.46271 9.7871656 0.90886754 9
-14.479247 10.258479 0.92333692 9
-14.404622 8.7265558 1.4680864 10
-14.421652 9.0221186 1.4827371 10
-14.419751 9.311306 1.4960018 10
-14.454639 9.7814865 1.5209982 10
-14.412559 8.4511147 2.0465152 11
-14.418366 9.0199442 2.0829999 11
-14.439098 9.3236685 2.1049821 11
-14.460938 9.7856054 2.1382973 11
-14.472301 10.253231 2.1718218 11
-14.405762 8.4470263 2.6403368 12
-14.415157 9.0178146 2.6881521 12
-14.425112 9.3145056 2.7145314 12
-14.455951 9.9332085 2.7726026 12
-14.472409 10.253145 2.8035676 12
-14.208397 -2.049 -0.24918088 7
-14.383182 7.8888698 -0.29217133 7
-14.070347 9.0860758 -0.29897302 7
-14.394468 8.4408092 0.28540793 8
-14.386798 8.715538 2.6593919 12
-13.901285 -3.033015 -0.24634579 7
-13.699055 10.308838 -0.30662507 7
-13.559776 -3.9932854 -0.24417664 7
-13.221101 11.52221 -0.31414875 7
-13.154783 -4.9210668 -0.24212807 7
-12.730656 -5.8314462 -0.24099387 7
-12.67285 12.753852 -0.32245955 7
-12.241122 -6.7048407 -0.23990008 7
-12.020491 13.971747 -0.33082059 7
-11.725605 -7.5597687 -0.23959261 7
-11.282772 15.194514 -0.33981532 7
-11.143639 -8.3700876 -0.23924689 7
-10.541044 -9.1665354 -0.23981474 7
-10.43673 16.391932 -0.34887373 7
-9.8626871 -9.9006624 -0.24004988 7
-9.6224365 1.670521 0.51087493 9
-9.6184111 1.6698233 1.0256972 10.5
-9.6233091 1.6706758 1.5463132 12
-9.6390219 1.6734062 1.9010828 13
-9.4900179 17.570669 -0.35829335 7
-9.5992699 1.6664956 0.16900395 8
-9.1931086 -10.65421 -0.24198097 7
-8.9893646 1.6935711 0.1586182 8
-9.0055866 1.6966296 0.47932333 9
-9.0085964 1.6971977 0.96299326 10.5
-9.017169 1.6988139 1.452679 12
-9.0262775 1.7005318 1.7848716 13
-8.4554939 -11.348376 -0.24374971 7
-8.4451342 18.736496 -0.36831447 7
-8.4582129 1.7192874 0.14961308 8
-8.4722662 1.7221452 0.60408783 9.5
-8.4853334 1.7248025 1.0624812 11
-8.4918556 1.7261285 1.3719018 12
-8.5050106 1.7288041 1.6865425 13
-8.0770054 1.7626354 -0.14548971 7
-8.106946 2.3885972 -0.14913702 7
-8.1400347 3.0474017 -0.1537796 7
-8.0658503 1.8816866 0.14344727 8
-8.0908852 2.1967008 0.14504349 8
-8.107214 2.6118648 0.14711857 8
-8.1294451 3.0107965 0.14952178 8
-8.1390457 3.4193358 0.15205325 8
-8.0699682 1.8826445 0.57882887 9.5
-8.0900221 2.1964285 0.58532554 9.5
-8.1091013 2.6124709 0.59475321 9.5
-8.1316891 3.0115578 0.60506904 9.5
-8.1481476 3.4231257 0.61654884 9.5
-8.15804 3.7407143 0.62583458 9.5
-8.0686035 1.882323 1.016591 11
-8.0847883 2.1950276 1.0279245 11
-8.0969639 2.6086814 1.0435904 11
-8.1240854 3.0087218 1.0626494 11
-8.1472845 3.4226723 1.0838133 11
-8.1617317 3.7423623 1.1010184 11
-8.0768757 1.8842515 1.31302 12
-8.0832939 2.1946428 1.3261095 12
-8.1052971 2.6112702 1.3480164 12
-8.1271029 3.0098343 1.3718028 12
-8.1386909 3.4191294 1.3972 12
-8.1688337 3.7455895 1.4221526 12
-8.0635777 1.8811449 1.6090379 13
-8.0763607 2.1927512 1.6264018 13
-8.1060171 2.6115088 1.6548892 13
-8.1224289 3.0080924 1.683022 13
-8.1390686 3.4192998 1.7152961 13
-8.1529465 3.7382736 1.742492 13
-7.6703854 -11.999206 -0.24581864 7
-7.2833991 19.847534 -0.37824586 7
-6.842185 -12.608523 -0.24828599 7
-6.4604502 14.906288 0.2770656 8
-6.531692 12.098937 0.71555716 9
-6.2080731 14.907251 0.27551675 8
-6.3227539 12.125434 0.71175814 9
-6.208652 10.071524 1.0316153 10
-6.0826163 3.112216 1.3279828 13
-6.0413013 3.201277 1.3288633 13
-6.1885672 5.5529633 1.3158731 12
-6.0635891 5.6812973 1.3150771 12
-5.9871945 -13.207931 -0.25179979 7
-5.6927595 -0.81993407 -0.30091387 6
-5.7453942 -0.41172257 -0.30161366 6
-5.7824821 1.494239e-05 -0.30305421 6
-5.803123 0.41603744 -0.30520308 6
-5.7780356 0.83292878 -0.3065345 6
-5.7408009 1.2524447 -0.30883378 6
-5.667016 1.669313 -0.3108092 6
-5.7246046 14.941803 0.27325195 8
-5.8059368 12.181898 0.70261657 9
-5.7631679 10.148423 1.017722 10
-5.653883 -1.3810972 1.3438942 14
-5.7299719 -1.0146351 1.3436644 14
-5.7887683 -0.55377787 1.3428032 14
-5.8055515 -0.23555399 1.3415478 14
-5.7968712 0.19716658 1.3393338 14
-5.7547526 0.59940124 1.3361115 14
-5.6914577 1.0085882 1.3348495 14
-5.6322136 1.3136348 1.3354712 14
-5.8967857 3.4292183 1.3260876 13
-5.6689854 3.7772648 1.3243027 13
-5.8294539 5.9112477 1.3140544 12
-5.6269035 6.0873871 1.3120735 12
-5.4038892 -1.8007364 -0.29771787 6
-5.5905704 -1.2180765 -0.29913566 6
-5.5805774 2.0888503 -0.31377885 6
-5.4498296 2.4987092 -0.31598213 6
-5.2857676 2.8990157 -0.31798378 6
-5.4577112 18.988277 -0.35250226 7
-5.3669252 14.964744 0.27170464 8
-5.4036713 12.230797 0.69638342 9
-5.4207749 10.218656 1.0088658 10
-5.2785926 -2.5058208 1.3490604 14
-5.4096265 -2.198878 1.3483256 14
-5.5503101 -1.7842448 1.3461916 14
-5.5677104 1.5107423 1.3321499 14
-5.4674473 1.8038744 1.3297702 14
-5.301414 2.2038023 1.3263009 14
-5.5439224 3.9284096 1.3207707 13
-5.3671665 4.1617122 1.3204736 13
-5.3722019 6.2932138 1.3097926 12
-5.2043972 6.4167809 1.3078035 12
-4.8327579 -13.073913 -0.24303871 7
-4.9881921 -2.726651 -0.2966904 6
-5.1645236 -2.3613009 -0.29644027 6
-5.1119266 3.3015387 -0.32120529 6
-4.8944349 3.6844239 -0.32354838 6
-5.0090842 14.975715 0.27008733 8
-5.004159 12.268859 0.69028401 9
-5.0805368 10.280492 1.0002972 10
-5.0809312 -2.8731029 1.3475574 14
-5.1573548 -2.7248247 1.3466996 14
-4.8428831 -1.2745963 1.3415881 15
-4.897316 -1.0119495 1.3399398 15
-4.9573817 -0.60562122 1.3384068 15
-4.976409 -0.1958669 1.3346581 15
-4.977026 0.17799278 1.3348981 15
-4.9368324 0.60338378 1.3332925 15
-4.8558869 1.0228561 1.3305124 15
-5.1127815 2.592798 1.3243405 14
-4.8864503 2.984278 1.322906 14
-5.173059 4.3806977 1.3178159 13
-4.9718571 4.5924926 1.3161129 13
-4.9657068 6.592958 1.3067647 12
-5.0106091 8.9737406 1.2600803 11
-4.5346208 -3.3975689 -0.29574931 6
-4.7761893 -3.0724394 -0.29637861 6
-4.6617036 4.0650039 -0.32680875 6
-4.6214356 -10.085634 0.19431402 8
-4.6597733 14.997437 0.26884004 8
-4.4773588 -8.0975513 0.48573378 9
-4.6136103 12.311408 0.6851607 9
-4.5753579 10.360072 0.98818147 10
-4.5152893 -2.182174 1.3437064 15
-4.6699653 -1.781857 1.3392887 15
-4.7717028 -1.4771035 1.3381456 15
-4.7585096 1.382955 1.3286977 15
-4.6015019 1.7975564 1.3250182 15
-4.4525218 2.1189332 1.3224617 15
-4.7602477 3.1718888 1.3214672 14
-4.5858746 3.4001629 1.3193815 14
-4.4032965 3.6218855 1.3174204 14
-4.7603016 4.7934322 1.3135029 13
-4.5413032 4.985383 1.311537 13
-4.7204318 6.7598443 1.3052849 12
-4.5441208 6.868959 1.3040532 12
-4.567452 8.9982367 1.2374225 11
-4.0185823 -4.02179 -0.2969963 6
-4.2952414 -3.7249641 -0.2968449 6
-4.241096 4.5922356 -0.33063063 6
-4.0036473 18.962482 -0.34470913 7
-4.1442509 -10.073339 0.19036874 8
-4.1953549 15.01198 0.26715052 8
-4.1908307 -8.118907 0.47943431 9
-4.2263536 12.346736 0.68032646 9
-4.204762 10.419461 0.98063105 10
-4.11379 -2.8581152 1.3417876 15
-4.251091 -2.6489043 1.3422019 15
-4.3650503 2.2927773 1.3224757 15
-4.1767731 2.5921717 1.3192123 15
-4.0136151 2.8443086 1.3198196 15
-4.2022867 3.8266213 1.3138174 14
-4.0022473 4.0308743 1.3128411 14
-4.3162074 5.1695499 1.3096496 13
-4.1648645 5.2901258 1.3095912 13
-4.157629 7.0873952 1.3012956 12
-4.138114 9.0202007 1.2171476 11
-3.7537498 -12.930596 -0.23588428 7
-3.7290275 -4.3069501 -0.29781428 6
-3.6046171 0.12921086 -0.31587172 5
-3.6000187 0.51857513 -0.31862709 5
-3.7747507 5.0914569 -0.3350347 6
-3.8021247 -10.049368 0.18747015 8
-3.7389791 15.0321 0.26582843 8
-3.8025839 -8.1353331 0.47095218 9
-3.8427958 12.376208 0.67584312 9
-3.6907132 -5.6665449 0.83069551 11
-3.6540787 -4.8162036 0.95773959 12
-3.8499682 -4.7493882 0.96866786 12
-3.7519205 10.472836 0.97116631 10
-3.8500032 3.030304 1.3151172 15
-3.6426463 3.2699027 1.3138512 15
-3.7881143 4.2201719 1.3112422 14
-3.8218598 5.517487 1.3056281 13
-3.6336772 5.6263738 1.3029398 13
-3.7561951 7.2751184 1.2968073 12
-3.8330863 9.0320034 1.2035577 11
-3.4193966 -4.5715618 -0.29871407 6
-3.3057213 -1.3688378 -0.3125214 5
-3.4336562 -1.008112 -0.31248716 5
-3.5224621 -0.63537693 -0.31293389 5
-3.5848038 -0.2566039 -0.3142522 5
-3.5406268 0.77195966 -0.31766906 5
-3.5031331 1.0314035 -0.3203387 5
-3.3816876 1.4060235 -0.32177719 5
-3.2356944 1.7745684 -0.32431337 5
-3.4383612 5.4114709 -0.33883965 6
-3.4317963 -10.033842 0.18467118 8
-3.3989253 15.042386 0.26491594 8
-3.3909099 -8.1482267 0.46251562 9
-3.2094018 -6.7962394 0.65759069 10
-3.4653659 12.409152 0.67219883 9
-3.3981714 -5.7398767 0.81932336 11
-3.3882139 -4.8862023 0.94198346 12
-3.3658769 9.0900974 1.189396 11
-3.3884058 10.517527 0.96493745 10
-3.3945456 -3.0260756 1.2182698 15
-3.4438171 3.4691491 1.3125644 15
-3.2348304 3.6573429 1.3109963 15
-3.3538218 4.5461292 1.3066207 14
-3.3860037 5.7753286 1.3026489 13
-3.4447699 7.419579 1.2958974 12
-3.0953794 -4.8209376 -0.30011117 6
-2.8639617 -2.1405911 -0.31219482 5
-3.0712647 -1.8204172 -0.31183612 5
-3.048737 2.1285932 -0.3272101 5
-2.8205988 2.4609785 -0.32937121 5
-3.0572941 5.6760516 -0.34058008 6
-2.9901288 -10.013672 0.18152131 8
-3.0614479 15.049568 0.26410997 8
-2.9956319 -8.1700163 0.45568144 9
-3.0174189 -6.826056 0.65288699 10
-2.8656287 -5.8441238 0.79910254 11
-3.0006437 12.455318 0.66882104 9
-3.0502775 -5.795218 0.80418015 11
-3.0070438 -4.9926653 0.92323726 12
-3.0086656 -3.7323875 1.1067605 14
-2.9823103 -3.2476366 1.1809944 15
-3.1243916 -3.16837 1.1917202 15
-2.9466138 9.1521015 1.18007 11
-2.950314 10.573121 0.95886046 10
-2.9960046 3.845757 1.3095533 15
-3.0988045 4.7253017 1.3068237 14
-2.8857398 4.8446951 1.3042858 14
-3.0869493 5.930584 1.3010521 13
-2.8682749 6.0308042 1.2996448 13
-3.0790873 7.5612435 1.2934654 12
-2.8540304 7.6300621 1.2908094 12
-2.7393315 -12.790601 -0.23036106 7
-2.753437 -5.0480289 -0.3016153 6
-2.528491 -2.5228343 -0.31217021 5
-2.709439 -2.3433557 -0.31290329 5
-2.4226961 -0.90170741 -0.31682116 4
-2.5209398 -0.64249641 -0.31914908 4
-2.5821176 -0.27737057 -0.31883338 4
-2.6046467 0.23372845 -0.32189873 4
-2.5399666 0.64969456 -0.32280457 4
-2.4755986 0.9259848 -0.32553041 4
-2.6541276 2.6756086 -0.33168066 5
-2.4606977 2.8668652 -0.33253613 5
-2.6711102 5.9476194 -0.34421751 6
-2.5985332 18.949701 -0.33894923 7
-2.5985484 -9.9915113 0.17889063 8
-2.6183913 15.076945 0.26355335 8
-2.6050954 -8.1730547 0.44883266 9
-2.6062593 -6.868865 0.64241201 10
-2.6230149 -5.8695192 0.78924477 11
-2.5347967 12.474921 0.66491354 9
-2.605655 -5.0752416 0.90358478 12
-2.6176748 -3.8853221 1.0815268 14
-2.6254141 -3.400847 1.1509712 15
-2.6344891 9.1927662 1.173854 11
-2.4976978 9.2137451 1.171934 11
-2.5921161 10.602377 0.95374286 10
-2.5314646 4.1381421 1.303569 15
-2.5599592 5.0093412 1.3017448 14
-2.6008165 6.1380954 1.2976853 13
-2.5476069 7.7290087 1.289773 12
-2.2070229 -5.336915 -0.3038632 6
-2.1408949 -2.8511498 -0.31211188 5
-2.336103 -2.6888833 -0.31153238 5
-2.2104125 -1.3603913 -0.31869084 4
-2.3700454 -1.0796361 -0.31916127 4
-2.0263958 -0.290766 -0.32390994 3
-2.0371161 0.29300082 -0.3263745 3
-2.0113409 0.43798676 -0.32665533 3
-2.395983 1.0980935 -0.32480291 4
-2.2820742 1.3607779 -0.32790753 4
-2.0716696 1.6814777 -0.32956749 4
-2.257936 3.0503769 -0.33402461 5
-2.0484002 3.2306182 -0.33661941 5
-2.2581513 6.1836052 -0.3472634 6
-2.216404 -9.9752178 0.17660464 8
-2.1742158 15.077177 0.26277405 8
-2.2238097 -8.1732645 0.44280383 9
-2.1730444 -6.8911023 0.63145995 10
-2.224046 -5.9158187 0.77568281 11
-2.1668222 12.494313 0.66268349 9
-2.1473544 -5.1565566 0.88451499 12
-2.1278381 -4.0300217 1.0518067 14
-2.197377 -3.79038 1.0882918 14.5
-2.2315061 -3.5501289 1.1232823 15
-2.1887267 9.2485323 1.1670827 11
-2.159662 10.641332 0.94914371 10
-2.1698 4.3257246 1.3007983 15
-2.2071838 5.1627188 1.2992356 14
-2.0345893 5.2209001 1.2966861 14
-2.2227774 6.2679486 1.2949994 13
-2.2183394 7.8192248 1.2884635 12
-1.631618 -5.5712967 -0.3061139 6
-1.8330656 -3.0784736 -0.31434426 5
-1.8428569 -1.8332471 -0.31961152 4
-1.6409158 -1.2203907 -0.32347101 3
-1.7861303 -0.97062254 -0.32192385 3
-1.9353987 -0.60386068 -0.32112044 3
-1.6422895 -0.35582975 -0.32613283 2
-1.6509326 0.35927913 -0.32912001 2
-1.946171 0.64937979 -0.326114 3
-1.7945185 1.0263381 -0.32953945 3
-1.6547968 1.2469873 -0.33001339 3
-1.8963312 1.913311 -0.33265632 4
-1.6836377 2.114296 -0.334021 4
-1.8134524 3.37609 -0.33712602 5
-1.8213847 6.3783765 -0.34954938 6
-1.8052294 -9.9595642 0.17442736 8
-1.7339858 15.079565 0.26227632 8
-1.8190795 -8.1666422 0.43697116 9
-1.828995 -6.904253 0.62383991 10
-1.7892904 -5.9603662 0.76342171 11
-1.8026459 12.521575 0.66145205 9
-1.8151414 -5.2142258 0.87402683 12
-1.6876836 -4.6275339 0.95702225 13
-1.8236887 -4.1045632 1.0369679 14
-1.7993793 -3.685061 1.0988538 15
-1.7778624 9.2827291 1.1609925 11
-1.7301868 10.673105 0.94557232 10
-1.8306419 4.4778876 1.3008567 15
-1.7883465 5.3108282 1.2972417 14
-1.8703473 6.3700304 1.2927833 13
-1.6859353 6.4203663 1.2927558 13
-1.7513367 7.9178724 1.285845 12
-1.2364317 -5.7072558 -0.30857834 6
-1.3844743 -3.3253808 -0.31687501 5
-1.3701537 -2.2004745 -0.31970504 4
-1.2262059 -1.6203011 -0.32236817 3
-1.4425079 -1.43146 -0.32238317 3
-1.3250825 -1.0204573 -0.32524365 2
-1.3602459 -0.73165798 -0.32579052 1.5
-1.3906777 -0.3008813 -0.3279188 1
-1.3821549 0.30058202 -0.32734826 1
-1.3443872 0.67219484 -0.32878953 1.3333334
-1.3785048 0.96424168 -0.33005342 2
-1.4647828 1.47953 -0.33239776 3
-1.2512639 1.6957655 -0.33597577 3
-1.3680432 2.3461528 -0.33555976 4
-1.5745862 3.5189285 -0.33897153 5
-1.328969 3.6571088 -0.34191284 5
-1.3692976 6.5472598 -0.35203052 6
-1.224282 18.960375 -0.33526906 7
-1.435514 -9.9337654 0.17247783 8
-1.4072639 15.098819 0.26235393 8
-1.4220736 -8.1553354 0.43186897 9
-1.4407753 -6.9179931 0.61686128 10
-1.3988644 -5.9833117 0.75348556 11
-1.3919073 12.528058 0.65951306 9
-1.4164816 -5.2490816 0.86062062 12
-1.4088277 -4.6762156 0.94907546 13
-1.3953475 -4.1868019 1.0187887 14
-1.3544017 -3.7847517 1.0772543 15
-1.3718369 9.3242826 1.1580757 11
-1.3800259 10.693473 0.94321936 10
-1.3982831 4.6127486 1.2962946 15
-1.4027578 5.4050794 1.2930391 14
-1.3794992 6.4715023 1.2891427 13
-1.3378602 7.9787621 1.2832416 12
-1.0254799 -3.4693105 -0.31880745 5
-0.92065293 -2.436518 -0.32188436 4
-1.0913827 -2.3640895 -0.32130083 4
-0.98432672 -1.7771026 -0.32363132 3
-0.99851424 -1.3464874 -0.32743728 2
-1.0226388 -0.99597627 -0.32710984 1
-1.0331293 -0.65557754 -0.32760149 0
-1.183537 -0.25564522 -0.32378936 0
-1.1958027 0.25988546 -0.32879984 0
-1.0214396 0.66034752 -0.32896835 0
-0.96555763 0.97747332 -0.33267587 0.75
-1.0365772 1.3382568 -0.33346397 2
-0.99140155 1.8583246 -0.33627391 3
-1.0226097 2.5374451 -0.33773863 4
-1.065305 3.7564573 -0.34281898 5
-0.9025166 6.6854539 -0.35451031 6
-1.0348271 -9.9027824 0.17053917 8
-1.079596 15.097098 0.26222026 8
-1.0043449 -8.1555672 0.42816025 9
-1.0317451 -6.9147239 0.60987324 10
-0.89818305 -6.0002136 0.74348521 11
-1.1181241 -5.9957938 0.74764031 11
-0.89332682 12.540526 0.65829116 9
-1.0080163 -5.2836709 0.85114795 12
-0.98886865 -4.7113376 0.93538457 13
-1.0175648 -4.2314267 1.0046867 14
-1.000124 -3.8466001 1.0652521 15
-0.96500975 9.3424587 1.154483 11
-0.95472652 10.720726 0.94203007 10
-0.94753963 4.7185106 1.294687 15
-0.96293247 5.4944277 1.2919958 14
-0.93317181 6.5453334 1.2883778 13
-0.94345546 8.0288601 1.2825838 12
-0.77705497 -3.5422256 -0.3201493 5
-0.65653151 -2.5265167 -0.32361498 4
-0.56169182 -1.8614897 -0.3263694 2.75
-0.6357708 -1.3966846 -0.32655016 1.5
-0.6872077 -1.0623802 -0.32843506 0.25
-0.59354681 1.0739355 -0.33404866 0
-0.64613831 1.3782185 -0.33413476 1.3333334
-0.52331805 1.6498406 -0.3388212 2
-0.60967761 2.0360126 -0.3388803 3
-0.64999002 2.6771793 -0.33961636 4
-0.65619624 3.8707566 -0.34438133 5
-0.42280412 6.7881165 -0.35679641 6
-0.64457178 15.100143 0.26233178 8
-0.79632384 -8.1448517 0.42611733 9
-0.72996622 -6.917418 0.60638589 10
-0.72370708 -6.0037146 0.74089211 11
-0.59257001 -5.9972386 0.73821211 11
-0.53230941 12.551316 0.65818292 9
-0.64070505 -5.2920618 0.84321761 12
-0.62622684 -4.7251401 0.92594963 13
-0.6292026 -4.2613511 0.9945417 14
-0.60326076 -3.8775678 1.0519488 15
-0.56040931 9.3642349 1.1535218 11
-0.56810772 10.733462 0.94115865 10
-0.552661 4.7744794 1.2931675 15
-0.56387585 5.5411978 1.2903974 14
-0.55311614 6.5683861 1.2848557 13
-0.56579423 8.0456142 1.280076 12
-0.37531543 -1.6488254 -0.33244735 2
-0.36760917 -1.3692683 -0.33119345 1
-0.3176764 -1.1692958 -0.32879472 0
-0.18408786 1.3747865 -0.33850053 0.66666669
-0.13065341 1.7548766 -0.34319982 2
-0.1322172 2.1573329 -0.34326133 3
-0.25911561 2.7700481 -0.3422474 4
-0.088566743 2.8421936 -0.34933394 4
-0.23661149 3.960089 -0.34710482 5
-0.092663512 4.0331478 -0.35393432 5
-0.10260517 6.9250164 -0.36352199 6
-0.14390673 19.026178 -0.32573855 7
-0.18321699 15.135325 0.26425973 8
-0.15363467 12.580069 0.65908128 9
-0.39206588 -3.8838904 1.0460981 15
-0.13901363 9.3889523 1.1521851 11
-0.14310232 10.732327 0.94026196 10
-0.033662919 10.8025 0.94084722 10
-0.23543213 4.7882366 1.2902256 15
-0.019991141 4.8502264 1.2836283 15
-0.16327797 5.5598183 1.2889746 14
-0.01175429 5.6077123 1.2807382 14
-0.11081164 6.6073785 1.2807144 13
-0.10136741 8.0656481 1.2765486 12
0.35105273 -5.9571457 -0.31836152 6
0.23207976 -3.6618464 -0.32655761 5
0.26264158 -2.619508 -0.32970715 4
0.19886351 -2.0432954 -0.33204424 3
0.18686759 -1.6612093 -0.33294541 2
0.13307846 -1.3392593 -0.33431393 0.66666669
0.28272989 -1.1750946 -0.3344191 0
0.19192736 1.3857586 -0.34853056 0.5
0.23142807 1.7748266 -0.34965459 2
0.30465484 2.1850963 -0.35233194 3
0.21627228 2.850904 -0.3536289 4
0.195851 4.0473151 -0.35705477 5
0.39481863 6.958919 -0.36799344 6
0.30619875 15.187087 0.26562738 8
0.19796343 12.625413 0.65947407 9
0.38534704 -5.2748857 0.83576578 12
0.34199262 -4.715847 0.91796273 13
0.33620647 -4.2466383 0.98317629 14
0.30345461 -3.8593731 1.0377816 15
0.18710358 9.4381189 1.1518961 11
0.19794449 10.796809 0.93974864 10
0.35271999 10.802752 0.94013649 10
0.25610983 4.8374481 1.282517 15
0.28773955 5.592042 1.2789212 14
0.18826315 6.6172094 1.2748461 13
0.27491063 8.0768661 1.2702413 12
0.75853437 -12.388324 -0.22378042 7
0.43712577 -5.9605641 -0.31902346 6
0.65305662 -3.6261048 -0.32934627 5
0.64798945 -2.5655138 -0.33289769 4
0.42450374 -2.0063469 -0.33266672 3
0.57897532 -1.8363534 -0.33444202 2.6666667
0.57716912 -1.3786925 -0.33733672 1.3333334
0.59300393 -1.0482603 -0.33887431 0
0.61797082 1.1107451 -0.35027468 0
0.54324901 1.3237796 -0.34994981 0.75
0.51038396 1.7059743 -0.35176763 2
0.61299098 2.1203611 -0.35537913 3
0.72196543 2.7767768 -0.35818154 4
0.5211221 2.8193414 -0.35653663 4
0.63132077 4.0250936 -0.36154407 5
0.73258615 -9.7526302 0.16480292 8
0.63263589 15.18586 0.26457328 8
0.65878278 -8.0511885 0.418569 9
0.58117068 -6.8457751 0.59734142 10
0.5865801 -5.9339905 0.72937614 11
0.69518083 12.621352 0.65843892 9
0.59084463 -5.2367692 0.83277428 12
0.57663465 -4.6805863 0.91574711 13
0.57936013 -4.2208986 0.98355645 14
0.58070254 -3.8359272 1.0406641 15
0.67075342 9.4229412 1.1513854 11
0.73980397 10.796975 0.94017547 10
0.50754672 10.803182 0.9402355 10
0.59803581 4.7885284 1.2776649 15
0.68483508 5.5479422 1.2766824 14
0.61209261 6.5821075 1.2727913 13
0.64866811 8.0447474 1.2678325 12
0.93673164 -12.385051 -0.22424351 7
0.87191862 -5.9727979 -0.3231087 6
1.0463759 -3.5591953 -0.33259442 5
1.0132132 -2.4535306 -0.33554304 4
0.98838639 -1.8186637 -0.3395918 3
0.95523244 -1.382588 -0.34098655 2
1.0087193 -1.0070727 -0.34321189 1
1.0504304 -0.58368534 -0.34429041 0
1.1917973 -0.27476197 -0.35020056 0
1.1895484 0.34812963 -0.3536694 0
1.0858876 0.58898193 -0.35180351 0
1.01749 0.98689151 -0.35477266 0.75
0.99816924 1.3832061 -0.35518339 1.8
1.0478464 1.9289689 -0.35752419 3
0.83798885 2.0419319 -0.35724261 3
1.0091393 2.6656599 -0.35810539 4
1.0608848 3.941211 -0.36420527 5
0.89696121 6.9561687 -0.37241492 6
0.97703153 -9.7311306 0.16440667 8
1.1785948 15.191862 0.26323453 8
0.96067345 15.202163 0.26395106 8
1.003203 -8.0045977 0.41750893 9
0.9244023 -6.8105168 0.59709364 10
1.0941558 -6.7798023 0.59633595 10
0.99058819 -5.8877125 0.72977561 11
1.0584818 12.622933 0.65861219 9
1.0029513 -5.1792927 0.83328366 12
0.9783265 -4.6183801 0.91648358 13
0.95210975 -4.1607471 0.98540241 14
0.97903663 -3.7649009 1.0434825 15
1.0775448 9.4112082 1.1535114 11
1.0505453 10.790952 0.94095659 10
0.99155974 4.7070489 1.274667 15
1.0560582 5.4702191 1.2722079 14
1.0768573 6.5003481 1.2678398 13
0.99173176 7.9976511 1.2651013 12
1.3052918 -5.9279923 -0.32588667 6
1.4331849 -3.447428 -0.33616272 5
1.3685803 -2.3036366 -0.34026024 4
1.2552108 -1.6756971 -0.34443957 3
1.4197445 -1.5169942 -0.34327418 3
1.3918853 -0.95099992 -0.34583196 2
1.3845323 -0.6095612 -0.34872675 1.3333334
1.3552612 -0.1860701 -0.34971514 0.75
1.3474816 0.23260666 -0.35257694 0.66666669
1.4049882 0.63743037 -0.3545832 1.3333334
1.3688235 1.0807269 -0.35569698 2
1.4887402 1.5928551 -0.3589403 3
1.311317 1.7521703 -0.35886651 3
1.3821704 2.4949985 -0.360872 4
1.3398863 3.8532207 -0.36547917 5
1.3984237 6.9040003 -0.37611482 6
1.2214357 19.050707 -0.3321895 7
1.3962549 -9.6903553 0.16386905 8
1.3970929 15.185173 0.26264158 8
1.3794922 -7.9744773 0.4182204 9
1.3654236 -6.7532587 0.59801662 10
1.3953999 -5.8307562 0.73238772 11
1.4225372 12.614338 0.65880901 9
1.3807051 -5.1252313 0.83804828 12
1.3800631 -4.5417929 0.9212746 13
1.3949028 -4.0660515 0.99224085 14
1.3898096 -3.6658988 1.0517182 15
1.453585 9.4019623 1.1575366 11
1.4794509 10.776546 0.94283932 10
1.4212201 4.5845261 1.2722888 15
1.4143475 5.370873 1.2685672 14
1.5800288 6.3767791 1.2634801 13
1.3534392 6.4412937 1.2660536 13
1.3873322 7.9193501 1.2614939 12
1.8230422 -12.296823 -0.22600827 7
1.737797 -5.8544016 -0.32886297 6
1.8183502 -3.3119373 -0.34119996 5
1.6881685 -2.0834394 -0.34209886 4
1.9188911 -1.9016232 -0.34551257 4
1.6341472 -1.3013926 -0.34652457 3
1.868718 -0.95112795 -0.34984216 3
1.7460588 -0.57649517 -0.35099292 2.3333333
1.6942875 -0.17012466 -0.35142687 2
1.7150161 0.24888638 -0.35724273 2
1.6600465 0.53385991 -0.35801885 2
1.8842366 1.0494823 -0.35932821 3
1.6505702 1.4179659 -0.35991561 3
1.8092562 2.2061174 -0.36415249 4
1.7503235 3.6937137 -0.36846927 5
1.8997377 6.8232951 -0.38019872 6
1.8171883 -9.6494484 0.16361888 8
1.618099 15.197148 0.26244003 8
1.8391367 15.201019 0.26215225 8
1.8142953 -7.9221678 0.41930869 9
1.8317314 -6.6782331 0.60030836 10
1.7773368 -5.7542701 0.73520446 11
1.7886332 12.605575 0.65956479 9
1.7758917 -5.0421691 0.84368807 12
1.7842017 -4.4495873 0.93012583 13
1.7678496 -3.9664543 1.0021567 14
1.7472156 -3.5505011 1.0616425 15
1.865634 9.3772526 1.1623242 11
1.8330847 10.764648 0.94543225 10
1.7654752 4.442256 1.2670591 15
1.7601402 5.2563467 1.2657424 14
1.8735247 6.2911019 1.2621433 13
1.7792236 7.8271594 1.2584745 12
2.1712377 -5.7610474 -0.33255848 6
2.1694908 -3.1014535 -0.34329686 5
2.1247902 -1.6890745 -0.34840196 4
2.3112581 -1.4567171 -0.35137126 4
2.0525293 -0.48455405 -0.35277772 3
2.1219609 -0.1800279 -0.3565402 3
2.1312218 0.26127428 -0.35939202 3
2.0551944 0.60846305 -0.35864073 3
2.3709986 1.5974395 -0.36773014 4
2.1738052 1.839234 -0.36539528 4
2.2635789 3.4058676 -0.37116995 5
2.3978813 6.7081075 -0.3843523 6
2.2051656 -9.6085119 0.16358212 8
2.060014 15.197248 0.26178715 8
2.2841699 15.209487 0.26176533 8
2.1931422 -7.8702674 0.42086259 9
2.2311103 -6.6173148 0.60476393 10
2.1895971 -5.6816463 0.74270731 11
2.2056956 12.605948 0.66167927 9
2.1733177 -4.9436979 0.85177362 12
2.1864121 -4.3281369 0.94046563 13
2.1764181 -3.3837833 1.0792198 15
2.2618334 9.4093895 1.1757181 11
2.2669666 10.736077 0.94887215 10
2.1976013 4.233398 1.2657138 15
2.2175102 5.0639839 1.2629085 14
2.1152914 6.1990905 1.2592763 13
2.2003036 7.6982317 1.2547313 12
2.7202396 -12.227411 -0.22936858 7
2.6016591 -5.6380653 -0.33644614 6
2.503891 -2.8616817 -0.34590116 5
2.7202094 -2.6888378 -0.34871349 5
2.4126704 -1.2850404 -0.35215881 4
2.558594 -1.0212916 -0.35583767 4
2.6971936 -0.64145207 -0.35885733 4
2.7746732 -0.242798 -0.36099499 4
2.7939048 0.22753084 -0.36320284 4
2.7728553 0.5363096 -0.36593953 4
2.6600137 0.93341368 -0.36477485 4
2.5029912 1.3143981 -0.36489597 4
2.624351 3.1481838 -0.37344041 5
2.6074662 19.100857 -0.340725 7
2.5977478 -9.5697231 0.1638505 8
2.5051825 15.195316 0.26133385 8
2.7312164 15.204605 0.2613782 8
2.6049876 -7.8069081 0.4232482 9
2.6299002 -6.5332289 0.60927254 10
2.488831 -5.600626 0.74708933 11
2.7083559 -5.5480113 0.75223649 11
2.6238871 12.590714 0.66362357 9
2.4980309 -4.8534789 0.86045879 12
2.6838977 -4.7834358 0.86433613 12
2.6174524 -4.183506 0.95662522 13
2.4912138 -3.2462971 1.0971892 15
2.6648717 -3.1542168 1.1069973 15
2.5885129 9.4189224 1.1860213 11
2.625654 10.71256 0.95277858 10
2.6750419 3.9310696 1.2620109 15
2.5050504 4.0464606 1.2626213 15
2.779048 4.7679515 1.2604824 14
2.5879571 4.8735685 1.2602377 14
2.7607744 5.9191256 1.2549961 13
2.5090663 6.0458531 1.2581245 13
2.6507294 7.5388074 1.2513874 12
3.0367043 -5.5023665 -0.341566 6
2.9175797 -2.493387 -0.35066867 5
3.1172051 -2.2951415 -0.35438731 5
3.051116 2.7371025 -0.3754105 5
2.8480442 2.9534762 -0.37485006 5
2.887058 6.5505791 -0.38810882 6
3.0300076 -9.5191364 0.16429026 8
2.955122 15.195894 0.26116326 8
2.9908628 -7.7389665 0.42603746 9
2.98473 -6.4563599 0.61478066 10
2.9728026 -5.4758024 0.75886488 11
2.9963865 12.561703 0.66525126 9
2.9739568 -4.6865458 0.87444955 12
2.8967049 -4.0652928 0.96717513 13
3.1167624 -3.9666502 0.97716391 13
2.9712758 -2.9743133 1.1273601 15
2.8124564 9.433568 1.1947622 11
3.0669663 10.672435 0.9581176 10
3.1823206 3.5242152 1.2612236 15
2.9651685 3.7094126 1.2613363 15
3.0381606 4.58498 1.2566862 14
3.0217936 5.7777801 1.2529467 13
3.071574 7.3578706 1.2478274 12
3.0804114 9.4546528 1.2064891 11
3.4453917 -5.301765 -0.34471807 6
3.2902613 -2.0725694 -0.35668346 5
3.4365993 -1.8309877 -0.35783142 5
3.5891972 -1.5895492 -0.36127302 5
3.4840722 2.1357336 -0.3764137 5
3.2452247 2.5120115 -0.37668219 5
3.3577774 6.3414073 -0.39083099 6
3.4208906 9.4664021 -0.1890507 7
3.3941147 -9.4721622 0.16481736 8
3.5568953 9.4144421 0.16139103 8
3.358237 10.678423 0.18237416 8
3.3876247 -7.6790824 0.43027797 9
3.3735344 -6.3713875 0.62244982 10
3.3782613 -5.3619161 0.77128291 11
3.557246 9.4119081 0.51258755 9
3.3605399 10.680957 0.57318223 9
3.3590941 -4.5461335 0.89001971 12
3.3570051 -3.8538585 0.98983192 13
3.233974 -2.8010871 1.1463863 15
3.4067266 -2.680275 1.1614603 15
3.5550451 9.4027739 0.86428463 10
3.3478038 10.636883 0.96136779 10
3.5214248 3.161942 1.2579596 15
3.3421113 3.3691299 1.2610954 15
3.4883933 4.240572 1.2548523 14
3.2632442 4.4235282 1.255746 14
3.4750988 5.5166326 1.252426 13
3.2909093 5.6196771 1.2509675 13
3.383383 7.2144136 1.246419 12
3.4295635 9.4753523 1.2219265 11
3.6339302 -12.148309 -0.23387983 7
3.8430595 -5.0732079 -0.3480536 6
3.7097166 -1.3300146 -0.3632217 5
3.8125861 -1.0615481 -0.3652105 5
3.9304006 -0.64446473 -0.3683061 5
3.9862497 -0.21284032 -0.36930457 5
3.9907963 0.60452151 -0.37352413 5
3.9163368 1.0395554 -0.37496331 5
3.7856143 1.4616892 -0.37485066 5
3.6940532 1.74391 -0.3768636 5
3.8213816 6.1101933 -0.39422241 6
3.8061831 -9.4316921 0.16585754 8
3.8326216 9.4175949 0.16236272 8
3.7255521 -7.6153984 0.43401465 9
3.9099395 -7.5741577 0.43603051 9
3.7672157 -6.2710266 0.63100439 10
3.7591691 -5.2279663 0.78299165 11
3.9130208 -5.1627316 0.78741628 11
3.8322132 9.4134283 0.51718754 9
3.7931573 -4.3519902 0.90832144 12
3.6169045 -3.7251222 1.00502 13
3.6052196 -2.5329034 1.1800611 15
3.8373506 9.4227133 0.87427604 10
3.7284598 2.9118669 1.2582285 15
3.837517 9.4198465 1.2326705 11
4.2397895 -4.8305082 -0.35253114 6
4.0200405 0.31248918 -0.37315673 5
4.2643375 5.8380809 -0.3970615 6
4.1949811 9.4266891 -0.19606864 7
4.2221441 -9.3764172 0.16694792 8
4.2852325 9.4418373 0.16449481 8
4.0955238 -7.5302396 0.43817401 9
4.0859904 -6.1811137 0.63851261 10
4.0547204 -5.1158714 0.79326695 11
4.289885 9.4488249 0.52707988 9
4.0631895 -4.2437515 0.92381108 12
4.2874656 9.4406013 0.89009994 10
4.2921748 9.4478912 1.2568086 11
4.5955954 -12.119145 -0.24080718 7
4.6160731 -4.5513349 -0.35659459 6
4.6844597 5.5293055 -0.39948162 6
4.6254911 9.4572201 0.16625106 8
4.6285462 9.4606829 0.53427589 9
4.62923 9.4592657 0.90346777 10
4.5495429 9.4662142 1.2715992 11
5.0780473 5.1856432 -0.40144214 6
4.9743519 -4.2429094 -0.3606585 6
5.0722919 9.4915476 -0.20662554 7
4.9808087 9.4809313 0.16837417 8
5.029355 9.486022 0.5439266 9
4.9808416 9.4756432 0.91777849 10
5.0340538 9.4893227 1.2999387 11
4.9865155 9.4810019 1.677533 12
5.4421329 4.8098311 -0.40294752 6
5.4792223 25.904024 -0.47248381 7
5.3191409 -3.911365 -0.36517069 6
5.4437127 9.5130768 0.17139482 8
5.4402556 9.5046539 0.5540185 9
5.4427171 9.5063896 0.93839705 10
5.4433961 9.5050488 1.3248587 11
5.3539772 9.5038729 1.7077688 12
5.7820001 4.4107976 -0.40454623 6
5.6457295 -3.5543034 -0.36989826 6
5.9156251 -3.1527784 -0.37256357 6
5.7277899 9.5243721 0.17325391 8
5.7299595 9.5255919 0.56188357 9
5.7297244 9.5229673 0.9516654 10
5.7362471 9.5310707 1.3451761 11
5.7339449 9.5250492 1.7401483 12
6.3383307 3.523519 -0.40517947 6
6.0827069 3.9810963 -0.4053517 6
6.1867495 -2.7438667 -0.37694874 6
6.0142202 9.5308247 -0.21842909 7
6.1208825 9.5431557 0.17602073 8
6.1189852 9.5381308 0.57215548 9
6.1256027 9.5459576 0.97066629 10
6.0204444 9.5312328 1.3628134 11
6.1299634 9.547905 1.7754929 12
6.7610188 2.5676064 -0.40526357 6
6.5571427 3.048439 -0.40469801 6
6.4358187 -2.314342 -0.38163894 6
6.6182046 -1.8526562 -0.38416982 6
6.7881279 -1.3808602 -0.38777223 6
6.6405001 9.5752945 0.18003592 8
6.5332818 9.5643778 0.58418304 9
6.4307799 9.5604305 0.98559707 10
6.5373297 9.5657511 1.4000472 11
6.5396461 9.5668821 1.8129524 12
6.6547537 9.5844879 2.2453494 13
7.070148 1.0411389 -0.40121338 6
6.9935713 1.5527235 -0.40209442 6
6.8870163 2.0606384 -0.40323943 6
6.9121747 -0.89251608 -0.39061114 6
6.9961014 -0.39312702 -0.39307749 6
7.0806952 0.52456093 -0.39861122 6
7.0698328 9.5927792 -0.23290819 7
6.9633408 9.5896263 0.18259346 8
6.8576846 9.5875444 0.59403992 9
6.8594947 9.5878868 1.0078819 10
7.0846105 9.6062336 1.0201926 10
6.8586655 9.5845823 1.4237653 11
7.0898895 9.6111698 1.4425488 11
6.8629775 9.5883427 1.8443353 12
7.0862999 9.6042233 1.8666701 12
6.8602605 9.5823917 2.2676184 13
7.0917897 9.609395 2.2978404 13
7.5031004 26.075064 -0.49107072 7
7.5610681 -16.28459 -0.33463237 7
7.4188294 9.6195526 0.1864979 8
7.4160366 9.6138697 0.61113638 9
7.4260898 9.6246758 1.0386477 10
7.4217939 9.6170826 1.4669338 11
7.5390215 9.6232939 1.9114734 12
7.4257569 9.6179457 2.3376479 13
7.7621307 9.6268959 0.18934359 8
7.776082 9.641983 0.62301242 9
7.7841268 9.6498232 1.0588543 10
7.7762237 9.6360893 1.9359103 12
7.7732944 9.6304445 2.3806229 13
8.2618895 9.6633329 -0.2503264 7
8.2630768 9.6627684 0.19402498 8
8.139451 9.6556454 0.63474011 9
8.138257 9.6523237 1.077881 10
8.1437283 9.6567688 1.5246934 11
8.1448736 9.6561165 1.9747388 12
8.287796 9.6814919 2.4510767 13
8.646204 9.6768799 0.19756135 8
8.6554823 9.6852875 0.65228736 9
8.5261297 9.6795807 1.1008416 10
8.5218248 9.6728182 1.555557 11
8.6659393 9.6911945 2.0318689 12
8.6603384 9.6830606 2.4982586 13
8.9350481 -16.10677 -0.34580418 7
9.0522604 9.700778 0.20152916 8
9.0481434 9.6945572 0.66547692 9
9.0600481 9.7053051 1.1325526 10
8.8002186 9.7023335 1.5803711 11
9.0680351 9.7118855 1.6028605 11
9.0648775 9.7066469 2.0753348 12
9.0678053 9.7078314 2.5542877 13
9.3388634 9.7222281 0.20445833 8
9.3313236 9.7126293 0.67562819 9
9.3441696 9.7240152 1.1501218 10
9.3437243 9.7216969 1.6263527 11
9.3453083 9.7195673 2.592433 13
9.34653 9.7189054 3.0847995 14
9.6235723 9.7348785 -0.2712492 7
9.9270248 9.7537804 0.2104696 8
9.9225235 9.7476101 0.69717622 9
9.7796583 9.7441893 1.1770171 10
9.6410542 9.7450867 1.6531775 11
9.7909031 9.7516031 2.1588256 12
9.9454899 9.7626467 2.6791041 13
9.7953644 9.7520981 3.1620071 14
10.332225 -15.830035 -0.35748437 7
10.236274 9.7708282 0.21371703 8
10.237461 9.7701759 0.70903522 9
10.236167 9.7671728 1.2058395 10
10.239852 9.7688608 1.7062378 11
10.253148 9.7796125 2.2132125 12
10.241256 9.7665567 2.7202847 13
10.252723 9.7755337 3.2403274 14
10.558315 9.7904196 0.2171762 8
10.560505 9.7906752 0.7212618 9
10.548935 9.7782946 1.2256539 10
10.553537 9.7807455 1.7345353 11
10.570271 9.7943144 2.2506554 12
10.577038 9.7987156 2.7713499 13
10.57507 9.7950773 3.2969294 14
10.880794 9.8007879 0.22058453 8
10.892612 9.8095922 0.73391515 9
10.885447 9.8014584 1.2479086 10
10.890453 9.8041677 1.7661953 11
10.903461 9.8139944 2.2909355 12
10.903541 9.8122768 2.8192449 13
10.90353 9.8104534 3.3545907 14
11.222669 9.8202991 -0.29709333 7
11.401525 9.8291111 0.22633979 8
11.229968 9.8231859 0.74673373 9
11.242115 9.8319855 1.2721196 10
11.414758 9.8352404 1.8157921 11
11.243566 9.8297472 2.3320792 12
11.240956 9.8257141 2.8692648 13
11.248555 9.8305006 3.4164767 14
11.743187 -15.445073 -0.36955997 7
11.963076 9.8687143 0.77565777 9
11.959116 9.8637791 1.3199266 10
11.96363 9.8640356 2.4208133 12
11.974098 9.8708458 2.9818709 13
11.607768 9.8522234 3.4817638 14
12.333893 9.8802338 0.23693 8
12.351366 9.8924265 0.79122484 9
12.338394 9.8804455 1.3456392 10
12.339842 9.879899 1.9043568 11
12.35855 9.8930359 2.4713006 12
12.357909 9.8907976 3.0413165 13
12.367046 9.8962946 3.6217542 14
12.734396 9.9022169 0.24158929 8
12.748074 9.9110956 0.80712354 9
12.750521 9.9113083 1.3745738 10
12.757038 9.9146481 1.9461813 11
12.757231 9.9130983 2.5218811 12
12.757112 9.9112873 3.1037633 13
12.750185 9.904212 3.6914563 14
13.178754 -14.968922 -0.38254589 7
13.193449 -3.706661 -0.27749458 7
13.154101 9.9283991 -0.32976314 7
13.195454 -3.8100474 0.20334074 8
13.17627 -3.3966911 0.20096704 8
13.16189 9.9325705 0.24669956 8
13.173569 -3.294764 0.67683643 9
13.191984 -3.4006014 1.1587778 10
13.159336 9.9290037 0.82374012 9
13.170117 9.9354095 1.4039382 10
13.184016 -3.2972312 1.6371133 11
13.161841 9.9275465 1.9856064 11
13.199741 -3.3011019 2.1249974 12
13.18521 -3.2973707 2.6133745 13
13.180692 9.9399576 2.5766892 12
13.179179 9.9371204 3.1709499 13
13.190328 9.9437246 3.7766461 14
13.254871 -4.7764721 -0.2838546 7
13.262069 -4.9956636 0.21134485 8
13.260672 -4.6711364 0.20924494 8
13.211175 -4.1254086 0.20529051 8
13.592682 9.9525528 0.2518006 8
13.266933 -4.9972792 0.70868301 9
13.250682 -4.6674747 0.7018832 9
13.224309 -4.129374 0.69149053 9
13.211917 -3.8147078 0.6860289 9
13.207245 -3.5060019 0.68132228 9
13.246632 -4.5586038 1.1928772 10
13.242268 -4.2398524 1.1836308 10
13.210426 -3.8141322 1.1700124 10
13.588337 9.947753 0.84126049 9
13.291878 -5.0064692 1.2099526 10
13.265362 -4.7796516 1.2008909 10
13.598516 9.9534931 1.4338801 10
13.276134 -5.0003066 1.7108365 11
13.274349 -4.6754193 1.6968949 11
13.2283 -4.2353468 1.6742575 11
13.212637 -3.8146994 1.6572359 11
13.20863 -3.5061784 1.6464759 11
13.266192 -4.6722589 2.1980994 12
13.252313 -4.2428608 2.1742132 12
13.217807 -3.8160284 2.14921 12
13.203818 -3.5047991 2.1337576 12
13.597956 9.9514256 2.0292523 11
13.279794 -5.0012355 2.730247 13
13.274031 -4.674921 2.7074499 13
13.234779 -4.1320524 2.6667738 13
13.225857 -3.8183105 2.6475289 13
13.200808 -3.5038981 2.6263819 13
13.244601 -4.2400451 3.1838591 14
13.224674 -3.8177874 3.1509571 14
13.214984 -3.4062829 3.1236115 14
13.27562 -4.6752081 3.2227306 14
13.278697 -4.6760893 3.7468379 15
13.260543 -4.2450247 3.705327 15
13.241017 -3.8223872 3.6672366 15
13.206452 -3.4039061 3.6286688 15
13.963757 -3.0691485 0.2108041 8
13.980412 -3.0727823 0.7131421 9
13.973279 -3.0711589 1.2163574 10
13.972169 -3.0708663 1.7227999 11
13.96054 -3.0682485 2.2317569 12
13.970507 -3.0704029 2.7496917 13
13.608667 9.9575243 2.6317174 12
13.963489 -3.0688026 3.2713594 14
13.613545 9.9593687 3.2402632 13
13.955042 -3.0668864 3.8005176 15
13.617362 9.9604187 3.8570802 14
14.056785 9.9833803 0.25745711 8
14.060088 9.9840698 0.86120433 9
14.055785 9.9793949 1.4664956 10
14.059512 9.9803686 2.0761516 11
14.068335 9.9849129 2.6921868 12
14.068709 9.9834919 3.3136816 13
14.062033 9.9770803 3.9415607 14
14.081035 9.988719 4.5872355 15
14.639961 -14.398798 -0.39656472 7
14.776896 -3.0266159 -0.30601281 7
14.770655 -3.0252986 0.22231223 8
14.515692 9.99687 0.26294482 8
14.790732 -3.0294049 0.75208873 9
14.528028 10.00367 0.88068026 9
14.776169 -3.0263734 1.282143 10
14.540469 10.010534 1.5015763 10
14.761619 -3.023345 1.8143147 11
14.783154 -3.02775 2.3556774 12
14.540752 10.009082 2.1253958 11
14.546824 10.01157 2.7555416 12
14.770628 -3.0251377 2.8978386 13
14.760697 -3.0230606 3.4470184 14
14.543944 10.007926 3.3909626 13
14.768548 -3.0246446 4.0091276 15
14.558571 10.016209 4.039494 14
14.56397 10.018165 4.6966705 15
15.022644 10.028906 0.26924562 8
15.037223 10.036941 0.90242857 9
15.036047 10.034534 1.5373838 10
15.035071 10.032249 2.1759963 11
15.047323 10.038709 2.8223369 12
15.043492 10.034501 3.4730237 13
15.058899 10.043006 4.1373777 14
15.067964 10.04728 4.8116322 15
