# .PCD v0.7 - Point Cloud Data file format
VERSION 0.7
FIELDS x y z intensity
SIZE 4 4 4 4
TYPE F F F F
COUNT 1 1 1 1
WIDTH 139
HEIGHT 1
VIEWPOINT 0 0 0 1 0 0 0
POINTS 139
DATA ascii
-39.473503 -0.5644961 0.6892997 8
-39.570457 2.8337042 0.6910066 8
-39.41547 -2.2566469 2.0700383 9
-39.53096 1.6967146 2.0727625 9
-39.470081 0.56446719 3.4532163 10
-39.476597 1.1292562 4.848516 11
-39.400257 -1.6910983 6.2468128 12
-39.514385 3.3982747 6.2799006 12
-39.403198 -0.56350589 7.6601729 13
-39.516525 3.3984842 7.7079358 13
-39.111149 -13.34426 0.72641689 8
-39.135845 -12.115487 2.1516705 9
-39.095787 -12.718461 3.6015544 10
-39.036701 -14.578069 5.1214643 11
-39.038933 -13.946555 6.5706744 12
-39.082047 -12.09952 7.9567738 13
-38.928669 -19.859905 0.76936001 8
-38.968719 -17.818537 2.2516322 9
-38.91613 -19.158182 3.8010178 10
-38.899506 -19.846107 5.3680153 11
-38.882393 -19.837742 6.9195037 12
-38.937141 -17.136629 8.2745705 13
-31.400011 -4.9791455 0.55704725 8
-31.356396 -6.3611569 1.6793368 9
-31.348101 -6.3595495 2.8009393 10
-31.338917 -6.3577628 3.9287188 11
-31.326408 -6.3553023 5.0650263 12
-31.337072 -5.4297895 6.1840596 13
-16.821894 23.224056 0.4881531 8
-14.81915 9.5429306 0.30265525 8
-14.810766 9.5375032 0.91839135 9
-14.802164 9.8342848 1.5499657 10
-14.91534 8.7230806 2.117512 11
-14.822152 10.47074 2.2232285 11
-14.793097 9.5260382 2.7824082 12
-8.6877651 1.8930502 0.15440142 8
-8.7018366 1.8961238 0.46602678 9
-8.7115917 1.898258 0.7794143 10
-8.7262316 1.9014555 1.0960326 11
-8.7334299 1.9030323 1.4152207 12
-8.7401123 1.9044969 1.7383715 13
-8.5982094 3.0736921 0.79776192 10
-6.8698812 15.128469 0.28305215 8
-6.8816595 12.245126 0.73060811 9
-6.5597816 2.3454726 1.3538414 13
-5.1905017 -2.8357291 1.364688 14
-4.2168374 -2.796365 1.3543551 15
-3.6708107 9.1167145 1.2035241 11
-3.4871585 -4.1399436 1.050457 13
-2.8457196 -3.7966185 1.0931698 14
-2.5023048 -3.438067 1.1367792 15
0.38622245 -6.8740516 0.5975576 10
0.33353505 -5.9804668 0.73100686 11
0.29293749 -5.2919097 0.83525169 12
0.25824907 -4.7037463 0.91171449 13
0.23299713 -4.2753472 0.9846645 14
0.20963605 -3.8792319 1.0372322 15
0.55857444 -9.7970953 0.16528127 8
0.4574146 -8.0814505 0.41892493 9
2.0484376 9.2496357 1.1662557 11
2.2402239 15.007106 0.2718643 8
2.2184811 12.460239 0.66807175 9
2.5997138 -3.1983364 1.1011794 15
2.8035734 -9.5523176 0.16498612 8
3.0593364 -3.4459629 1.0596024 14
3.0899448 4.4911418 1.2598916 14
3.1893716 7.1828241 1.2450647 12
3.2617714 -6.4153352 0.62174153 10
3.2068927 9.2778234 0.85906637 10
3.3225508 3.297992 1.2567908 15
3.2513845 5.5278339 1.2469127 13
3.3390269 9.2266607 1.2055887 11
3.4884667 9.2302914 0.17021771 8
3.5411239 -5.3539057 0.78069627 11
3.558738 -4.4942288 0.90138191 12
3.4888642 -3.814219 0.99929601 13
3.6881919 -9.4738607 0.16745904 8
3.6318471 -7.6693869 0.43560696 9
3.6464841 9.2418461 0.5192104 9
4.60638 9.2488842 0.53818578 9
4.9505014 9.2603388 0.91573793 10
5.8606281 9.2852602 1.7367351 12
6.0502458 9.2903242 0.9650861 10
6.4448109 9.3013363 0.5863331 9
6.8602147 9.3101625 2.245136 13
7.0635424 9.3060713 1.4290345 11
7.0706234 9.3137932 1.8477713 12
7.2828979 9.3182726 0.19700606 8
7.9793901 9.3467999 0.63460928 9
7.9697862 9.3341656 1.0655879 10
8.4585772 9.3453312 1.9898095 12
8.4657688 9.3517799 2.4466109 13
9.5132608 9.3723822 0.21963239 8
9.522253 9.3784676 1.1584115 10
9.5175152 9.3724422 1.6304872 11
9.8013973 9.3809929 0.69836241 9
9.8166714 9.3886213 3.1296279 14
10.428047 9.4158783 2.7224171 13
11.0466 9.4138165 2.2878156 12
11.377313 9.4194651 1.2781945 10
11.732211 9.4310722 1.8349046 11
11.736632 9.4305506 3.466361 14
11.743228 9.4344387 4.0278907 15
12.097836 9.4459763 0.24993214 8
12.095411 9.4427814 0.78757828 9
12.545228 -24.5289 0.45373327 8
12.560023 -3.6571431 2.524658 13
12.559588 -4.0506592 3.029218 14
12.571619 -4.0546341 3.5227532 15
12.780323 -3.5226521 0.20781109 8
12.791111 -3.5257514 0.67286825 9
12.795164 -3.5272768 2.0827403 12
12.609323 -5.5128622 2.655973 13
12.625647 -5.5200009 3.1629539 14
12.61446 -5.5151544 3.6713812 15
12.80137 -3.5287054 1.1403165 10
12.805886 -3.5300832 1.6106031 11
34.127754 16.966784 4.6324234 11
34.435291 16.511694 3.2920225 10
34.746323 16.055611 1.9548792 9
35.062939 15.599087 0.6166411 8
35.122623 15.616545 6.0393658 12
35.472935 15.163514 8.8586206 14
35.796135 14.701777 7.4727111 13
36.429729 13.763743 3.353287 10
37.089603 12.816525 0.62709427 8
37.433254 12.336439 2.0082815 9
37.456688 12.340205 4.7872114 11
38.182884 11.37511 7.6893892 13
38.491264 10.875525 3.4409373 10
38.903706 10.389544 6.3203111 12
39.187263 9.8739853 0.64290899 8
39.610046 9.3779802 2.0712197 9
40.725189 7.8113585 3.5646701 10
40.735397 7.8116546 5.0305243 11
41.15303 7.2812319 6.5568995 12
41.160664 7.2809191 8.0633631 13
41.483749 6.7355294 0.6662901 8
41.8866 6.185544 2.1521497 9
