# .PCD v0.7 - Point Cloud Data file format
VERSION 0.7
FIELDS x y z intensity
SIZE 4 4 4 4
TYPE F F F F
COUNT 1 1 1 1
WIDTH 1343
HEIGHT 1
VIEWPOINT 0 0 0 1 0 0 0
POINTS 1343
DATA ascii
-2.3449204 -1.6579632 -0.30414107 0
-2.2482197 -1.6382428 -0.30538508 0
-2.1396105 -1.655019 -0.30543315 0
-2.0187647 -1.6319571 -0.30683342 0
-1.943092 -1.6410145 -0.30821684 0
-1.8591523 -1.6636046 -0.30730313 0
-1.7426301 -1.6515118 -0.30913335 0
-1.6349064 -1.6407765 -0.31037638 0
-1.5441523 -1.6411043 -0.31068546 0
-1.4454032 -1.6506882 -0.31185767 0
-1.342376 -1.6727053 -0.31162623 0
-1.2411159 -1.6404701 -0.31180465 0
-1.1326504 -1.6440576 -0.31347162 0
-1.0583782 -1.6551648 -0.31379569 0
-0.94625407 -1.6409466 -0.3157182 0
-0.85883242 -1.6663235 -0.31611818 0
-0.76212227 -1.6425298 -0.31697899 0
-0.65801805 -1.6681575 -0.31734693 0
-0.55833083 -1.6404163 -0.31823635 0
-0.44455042 -1.6630613 -0.31885883 0
-0.34163833 -1.6354257 -0.32045925 0
-0.23688963 -1.6294249 -0.32090688 0
-0.14690079 -1.637762 -0.32254273 0
-0.053141847 -1.6486826 -0.32304969 0
0.045653801 -1.6437932 -0.32291219 0
0.15183301 -1.6548432 -0.32555941 0
0.25411478 -1.6381197 -0.3251673 0
0.3458277 -1.6318256 -0.32513589 0
0.45017257 -1.6320181 -0.32738292 0
0.52846158 -1.6422863 -0.32753217 0
0.65054548 -1.6489716 -0.3288112 0
0.75216174 -1.6399387 -0.32865497 0
0.85001624 -1.6494224 -0.32952195 0
0.95002764 -1.6529007 -0.32984576 0
1.046957 -1.637442 -0.33094698 0
1.1379861 -1.6720867 -0.33147088 0
1.2557956 -1.660038 -0.3331784 0
1.3489591 -1.6264884 -0.33321112 0
1.4564428 -1.6395248 -0.33384371 0
1.551157 -1.672092 -0.33413824 0
1.6435044 -1.6494389 -0.33533692 0
1.7442762 -1.6294602 -0.33723751 0
1.8452599 -1.6510584 -0.33756042 0
1.9562428 -1.6521273 -0.33764902 0
2.0585949 -1.6641394 -0.33898982 0
2.1481752 -1.6536102 -0.34042194 0
2.2251842 -1.6460843 -0.34023219 0
-2.9470897 -1.5591972 -0.30109403 0
-2.84674 -1.5321894 -0.301296 0
-2.7327664 -1.547572 -0.30133542 0
-2.631882 -1.5404345 -0.30234864 0
-2.5184965 -1.5477517 -0.30340981 0
-2.4248476 -1.5383573 -0.30450568 0
-2.3492937 -1.5462427 -0.30523336 0
-2.2378845 -1.5503725 -0.30594817 0
-2.1528182 -1.5456767 -0.30726486 0
-2.0453835 -1.5358113 -0.3069075 0
-1.9533552 -1.5561225 -0.30740958 0
-1.8461851 -1.5591795 -0.30881312 0
-1.7382697 -1.555432 -0.3089523 0
-1.6504446 -1.5494939 -0.3111271 0
-1.5655726 -1.5561243 -0.31147966 0
-1.4577677 -1.5493033 -0.31207958 0
-1.3621501 -1.5555701 -0.313225 0
-1.2477477 -1.5355283 -0.31321532 0
-1.1572701 -1.5762303 -0.3124924 0
-1.0519578 -1.5457026 -0.31476986 0
-0.96035385 -1.5308238 -0.31615841 0
-0.8418842 -1.5583255 -0.31706434 0
-0.74282545 -1.5486832 -0.31796873 0
-0.64809555 -1.535323 -0.31874299 0
-0.54660696 -1.5358919 -0.31871367 0
-0.44750923 -1.5668323 -0.31970713 0
-0.35634643 -1.5673968 -0.32025763 0
-0.25259578 -1.5551262 -0.32160026 0
-0.14877455 -1.5348879 -0.32238421 0
-0.050041884 -1.5542666 -0.32423905 0
0.049771804 -1.546111 -0.32338953 0
0.15042825 -1.5521965 -0.32616442 0
0.24953112 -1.5361826 -0.32541934 0
0.35159928 -1.5555093 -0.32646888 0
0.43905872 -1.553131 -0.32774806 0
0.56218898 -1.567989 -0.32746619 0
0.6504032 -1.5505251 -0.33017376 0
0.75043809 -1.5327725 -0.33005205 0
0.84698534 -1.5602149 -0.32948166 0
0.9524684 -1.5521796 -0.33179909 0
1.0485237 -1.5406308 -0.33142424 0
1.138268 -1.5690588 -0.33311945 0
1.2502718 -1.5486267 -0.3328523 0
1.3650278 -1.5439858 -0.33390749 0
1.4465799 -1.5371181 -0.33435437 0
1.5561146 -1.5617089 -0.33563548 0
1.6496989 -1.5561854 -0.33651283 0
1.7444112 -1.5385512 -0.33759403 0
1.8286359 -1.5443969 -0.33803204 0
1.93648 -1.5426039 -0.33869222 0
2.0457842 -1.5590391 -0.33991298 0
2.1648016 -1.5539614 -0.34085807 0
2.2647796 -1.5770762 -0.34206271 0
2.3221362 -1.5361476 -0.3432411 0
-2.9505644 -1.4280643 -0.30064842 0
-2.8418388 -1.4518418 -0.30107889 0
-2.7480855 -1.4539115 -0.30352968 0
-2.6678677 -1.4607191 -0.3021563 0
-2.5576131 -1.4483697 -0.30359286 0
-2.443954 -1.4463242 -0.30474615 0
-2.3649323 -1.4533834 -0.30510184 0
-2.262996 -1.4585112 -0.30654177 0
-2.1648977 -1.4395342 -0.30718127 0
-2.0489192 -1.4432371 -0.30866355 0
-1.9472382 -1.4533837 -0.30821946 0
-1.8450159 -1.4556423 -0.30972147 0
-1.7437484 -1.4514043 -0.31006965 0
-1.6529975 -1.4511153 -0.31042671 0
-1.5553057 -1.4571021 -0.31197202 0
-1.4349104 -1.4400539 -0.31351802 0
-1.3414938 -1.4463131 -0.31379539 0
-1.2537541 -1.452683 -0.31458986 0
-1.1483051 -1.452037 -0.31455308 0
-1.0488482 -1.4503253 -0.31555569 0
-0.94453257 -1.4314568 -0.31730866 0
-0.84141022 -1.4359801 -0.31689477 0
-0.75360233 -1.4440012 -0.31880805 0
-0.6650579 -1.4659276 -0.31837824 0
-0.56022447 -1.4402195 -0.31963989 0
-0.44226539 -1.4572531 -0.32042271 0
-0.35405889 -1.4484327 -0.32085297 0
-0.25397006 -1.4527836 -0.32109019 0
-0.14018482 -1.4435363 -0.32352501 0
-0.046553988 -1.4416627 -0.32601091 0
0.038972422 -1.4377042 -0.32441992 0
0.1451861 -1.4331192 -0.32700068 0
0.24840987 -1.462954 -0.32585084 0
0.34448287 -1.4540036 -0.32792187 0
0.45690343 -1.44487 -0.32813469 0
0.55070168 -1.456883 -0.32860458 0
0.66053236 -1.4505568 -0.33001286 0
0.75564075 -1.459873 -0.3300246 0
0.85200614 -1.4609188 -0.33138177 0
0.94675559 -1.4349413 -0.33112431 0
1.0516227 -1.4538194 -0.33323115 0
1.1495029 -1.4535869 -0.33389819 0
1.2486477 -1.4466615 -0.33362606 0
1.3463142 -1.4307175 -0.3348327 0
1.4618324 -1.4599594 -0.33503082 0
1.5605973 -1.437065 -0.3371613 0
1.6655493 -1.4689862 -0.3380504 0
1.7527739 -1.4446551 -0.33740568 0
1.8499107 -1.4666467 -0.33834502 0
1.9217525 -1.4429204 -0.33991677 0
2.0401273 -1.4644711 -0.34039268 0
2.1410685 -1.4458512 -0.34225079 0
2.2375805 -1.4647728 -0.34261057 0
2.3641791 -1.4528612 -0.34221926 0
-3.0435126 -1.3410736 -0.3003225 0
-2.935147 -1.3438849 -0.30120918 0
-2.8373077 -1.3486186 -0.30200252 0
-2.7390471 -1.350307 -0.30282688 0
-2.6448669 -1.3512311 -0.30429325 0
-2.540107 -1.3437961 -0.30484366 0
-2.4413061 -1.3366257 -0.30569068 0
-2.3360803 -1.3450326 -0.30674398 0
-2.2407641 -1.3550081 -0.30665615 0
-2.1190467 -1.3401346 -0.30849794 0
-2.073343 -1.361838 -0.30881503 0
-1.9616824 -1.3453766 -0.30980423 0
-1.8704978 -1.3630568 -0.31020266 0
-1.761075 -1.346179 -0.31098348 0
-1.6592366 -1.3610114 -0.31158921 0
-1.5540411 -1.3510554 -0.31204063 0
-1.4400601 -1.3453825 -0.31359208 0
-1.34436 -1.3567928 -0.31422871 0
-1.2501562 -1.3576608 -0.31525362 0
-1.1637652 -1.3485085 -0.31495854 0
-1.0507332 -1.3484535 -0.31627426 0
-0.93589288 -1.3372612 -0.31856376 0
-0.85576224 -1.3715911 -0.31773746 0
-0.75453001 -1.3436912 -0.31858215 0
-0.64703864 -1.3554825 -0.3193568 0
-0.53802639 -1.3355223 -0.32121062 0
-0.44840935 -1.3366106 -0.32107142 0
-0.34323123 -1.34082 -0.32162124 0
-0.24955998 -1.3522505 -0.32192352 0
-0.15851052 -1.367838 -0.32322547 0
-0.062626898 -1.3666712 -0.32371953 0
0.052933589 -1.3673328 -0.3234891 0
0.14809777 -1.3592288 -0.32577789 0
0.24956025 -1.3711795 -0.32656726 0
0.34741172 -1.3622186 -0.32857904 0
0.44346651 -1.3503209 -0.32847902 0
0.54198056 -1.3389428 -0.32952103 0
0.63788766 -1.3434123 -0.33120015 0
0.74849373 -1.3427073 -0.33055711 0
0.85634726 -1.3543717 -0.33167061 0
0.958211 -1.3622168 -0.33247223 0
1.0498307 -1.3472289 -0.33458513 0
1.1631731 -1.3673998 -0.33352125 0
1.245517 -1.3506266 -0.33495802 0
1.3432895 -1.3441464 -0.33529681 0
1.452282 -1.337365 -0.33715299 0
1.5517445 -1.3490454 -0.33785349 0
1.6458333 -1.3567554 -0.33787495 0
1.7440385 -1.3690143 -0.33785507 0
1.8456373 -1.3652941 -0.33989716 0
1.9555663 -1.361755 -0.34065917 0
2.0610495 -1.3635126 -0.34222806 0
2.1596487 -1.3486042 -0.34202141 0
2.2554367 -1.3422393 -0.34258044 0
2.3289144 -1.3408669 -0.34353861 0
2.4345841 -1.3557714 -0.34387219 0
-3.1569376 -1.2673681 -0.30074334 0
-3.0507836 -1.2413613 -0.30246139 0
-2.9498453 -1.2497908 -0.30189791 0
-2.8733268 -1.2661772 -0.30214322 0
-2.7816246 -1.2496119 -0.30294538 0
-2.6797309 -1.2502196 -0.30363071 0
-2.558059 -1.2457899 -0.30528173 0
-2.4413495 -1.2472394 -0.30636165 0
-2.3505914 -1.2580819 -0.30740783 0
-2.2699523 -1.2641091 -0.30700582 0
-2.1652284 -1.2522492 -0.3080126 0
-2.0574381 -1.2441574 -0.30930638 0
-1.9481549 -1.2555212 -0.3104209 0
-1.8507788 -1.2498952 -0.31133759 0
-1.7432339 -1.2513281 -0.31166765 0
-1.6413488 -1.2510911 -0.31262645 0
-1.5340668 -1.2400403 -0.31377879 0
-1.4602302 -1.2644202 -0.31347421 0
-1.3519948 -1.2595152 -0.31469899 0
-1.2552332 -1.2453086 -0.3153863 0
-1.1518956 -1.2596591 -0.31608033 0
-1.0425361 -1.2436022 -0.31679657 0
-0.95998728 -1.2641661 -0.31755409 0
-0.84314644 -1.2582181 -0.31973809 0
-0.73678172 -1.2392929 -0.32045633 0
-0.6555084 -1.2364787 -0.32062641 0
-0.54947937 -1.2523516 -0.3194057 0
-0.44859433 -1.2402105 -0.32216799 0
-0.3525013 -1.2469556 -0.3221193 0
-0.24938026 -1.2502753 -0.32339051 0
-0.14625536 -1.2401074 -0.32479903 0
-0.049144007 -1.2481642 -0.32579222 0
0.045235109 -1.2501584 -0.32547173 0
0.14745696 -1.2426511 -0.32651407 0
0.25302315 -1.2414556 -0.32872677 0
0.35714331 -1.2515093 -0.32843569 0
0.45025897 -1.2452654 -0.32837087 0
0.56308687 -1.257067 -0.33082357 0
0.65096062 -1.2569249 -0.33098832 0
0.74565578 -1.2407324 -0.33235133 0
0.84051907 -1.2540838 -0.33170527 0
0.94502556 -1.2544155 -0.33393022 0
1.0576326 -1.2432859 -0.33394477 0
1.1484599 -1.2657698 -0.33472168 0
1.2349008 -1.2393489 -0.33491197 0
1.345219 -1.2424695 -0.3372612 0
1.4312264 -1.2442732 -0.33774638 0
1.5468626 -1.25044 -0.33758369 0
1.6662173 -1.2574427 -0.33864439 0
1.7428609 -1.2510874 -0.34025753 0
1.8421772 -1.2632108 -0.34042606 0
1.9451555 -1.2497735 -0.34188399 0
2.0598972 -1.2658792 -0.34207651 0
2.1635208 -1.2456505 -0.34385458 0
2.2747002 -1.2454785 -0.34365967 0
2.3513505 -1.236936 -0.34447822 0
2.4626861 -1.2583772 -0.34591496 0
2.5209501 -1.2353426 -0.34627318 0
-3.2391825 -1.1325132 -0.30044216 0
-3.1342323 -1.1464142 -0.301171 0
-3.03269 -1.1587603 -0.30165231 0
-2.9409628 -1.1479063 -0.30310437 0
-2.8417025 -1.1562943 -0.30400544 0
-2.7366431 -1.1593651 -0.30478087 0
-2.6315176 -1.1595153 -0.30507743 0
-2.5253592 -1.1562555 -0.3053585 0
-2.430526 -1.1552819 -0.30652103 0
-2.3353517 -1.1513062 -0.30769196 0
-2.2400935 -1.1394252 -0.30947438 0
-2.148725 -1.156562 -0.30905488 0
-2.0330613 -1.1513036 -0.31009769 0
-1.9423176 -1.1620682 -0.31050763 0
-1.8441477 -1.1515591 -0.31215152 0
-1.7337744 -1.1528373 -0.31220499 0
-1.6400878 -1.1457508 -0.31406039 0
-1.5675282 -1.1577653 -0.31323376 0
-1.466411 -1.1511284 -0.31507206 0
-1.3566731 -1.1458398 -0.31574351 0
-1.2569147 -1.1574304 -0.31626016 0
-1.1530533 -1.1441122 -0.31712779 0
-1.064249 -1.163983 -0.31660962 0
-0.95239687 -1.152565 -0.31911638 0
-0.84067667 -1.1349591 -0.31927511 0
-0.7526018 -1.1597857 -0.32131797 0
-0.64429224 -1.1520615 -0.32078761 0
-0.55243522 -1.1486615 -0.32089239 0
-0.44665781 -1.1423795 -0.32181865 0
-0.34353688 -1.1520615 -0.32222161 0
-0.24528782 -1.1854051 -0.32445323 0
-0.15022558 -1.193292 -0.32226491 0
0.090144485 -1.1973987 -0.32174942 0
0.1948406 -1.1995884 -0.3256405 0
0.22951819 -1.195729 -0.32624304 0
0.34957665 -1.1723989 -0.3279447 0
0.45075113 -1.1426103 -0.32919043 0
0.5407719 -1.1487825 -0.33138388 0
0.65340972 -1.1442422 -0.33268294 0
0.76064765 -1.1744347 -0.3318643 0
0.84509987 -1.1557298 -0.33367652 0
0.93622363 -1.1391699 -0.33442554 0
1.0443394 -1.14215 -0.33499372 0
1.1526598 -1.1450996 -0.33608395 0
1.2558835 -1.1666045 -0.33728361 0
1.3361669 -1.1406828 -0.33766454 0
1.4512154 -1.1460279 -0.33767337 0
1.5465827 -1.1440371 -0.33937889 0
1.6459776 -1.1462272 -0.33968937 0
1.7578207 -1.1629921 -0.34071246 0
1.8327637 -1.1407983 -0.34213284 0
1.9347191 -1.1509299 -0.34284613 0
2.0352702 -1.1525779 -0.34324598 0
2.1342642 -1.1487404 -0.34359428 0
2.2294354 -1.1590767 -0.34425867 0
2.3457596 -1.1355612 -0.34575412 0
2.4388845 -1.1378933 -0.3462213 0
2.5576782 -1.148975 -0.34722698 0
-3.2747192 -1.0407577 -0.30081424 0
-3.1704893 -1.0578078 -0.30165392 0
-3.0763283 -1.050903 -0.30258873 0
-2.9820743 -1.0426208 -0.30347833 0
-2.8552148 -1.0367947 -0.30461255 0
-2.7548296 -1.0452226 -0.30527607 0
-2.6569951 -1.0518489 -0.30649361 0
-2.5591059 -1.055715 -0.30772802 0
-2.4558086 -1.0544108 -0.30802342 0
-2.3705444 -1.0649388 -0.3071816 0
-2.2745323 -1.0414257 -0.30791962 0
-2.1676989 -1.0493729 -0.30977735 0
-2.0666676 -1.055766 -0.31120732 0
-1.9651661 -1.0576985 -0.31121767 0
-1.8756577 -1.04453 -0.31190094 0
-1.7548481 -1.0386271 -0.31351766 0
-1.6629504 -1.054932 -0.31401137 0
-1.5554519 -1.0537728 -0.31457826 0
-1.4449722 -1.053036 -0.31569824 0
-1.3528659 -1.0463717 -0.31653166 0
-1.2416521 -1.0510522 -0.31782407 0
-1.1519752 -1.0556775 -0.31779996 0
-1.0528669 -1.0566239 -0.31849873 0
-0.94320512 -1.0423096 -0.31980765 0
-0.86074907 -1.0569547 -0.32097882 0
-0.7566362 -1.0532278 -0.32115963 0
-0.64762664 -1.0567832 -0.32054323 0
-0.55543178 -1.0592206 -0.320602 0
-0.49734652 -1.0965847 -0.32263651 0
0.59113818 -1.0888855 -0.3319965 0
0.65600306 -1.0590026 -0.33388969 0
0.7435658 -1.054343 -0.33369204 0
0.84526575 -1.0446438 -0.3342455 0
0.95015967 -1.0543088 -0.33469447 0
1.0459648 -1.0347172 -0.33698273 0
1.1544209 -1.0479712 -0.3385883 0
1.2453622 -1.0517441 -0.33715788 0
1.3602805 -1.0521183 -0.33788383 0
1.4596699 -1.0477824 -0.34004995 0
1.5560095 -1.0444632 -0.33979273 0
1.6583049 -1.0455718 -0.34121671 0
1.7565271 -1.0565904 -0.34165147 0
1.8755486 -1.0476204 -0.34344423 0
1.9488639 -1.0404841 -0.34322149 0
2.0495009 -1.0470436 -0.34438246 0
2.158865 -1.0579853 -0.34496844 0
2.2626309 -1.0556567 -0.34540033 0
2.3610055 -1.0338069 -0.3462832 0
2.4583378 -1.0347811 -0.34632158 0
2.5772552 -1.048676 -0.34722817 0
2.6305838 -1.0375888 -0.34849551 0
-3.3083808 -0.9481039 -0.3011041 0
-3.2635365 -0.94355536 -0.3015576 0
-3.1396139 -0.95691013 -0.30267558 0
-3.0155225 -0.95838749 -0.30392507 0
-2.9214497 -0.95153695 -0.30482146 0
-2.8288867 -0.9438324 -0.30576462 0
-2.7270851 -0.95346868 -0.3064895 0
-2.6343937 -0.94225812 -0.30735806 0
-2.5356944 -0.94811773 -0.30821589 0
-2.4378831 -0.95154494 -0.30926943 0
-2.3341734 -0.94497573 -0.3104822 0
-2.2445185 -0.93849707 -0.31111479 0
-2.1431098 -0.94441789 -0.31048271 0
-2.0433335 -0.95701551 -0.31136161 0
-1.9339772 -0.95337218 -0.31291613 0
-1.833262 -0.95309991 -0.31315279 0
-1.7368305 -0.93480575 -0.31350365 0
-1.6446631 -0.95627463 -0.31491858 0
-1.5381495 -0.94829291 -0.31631798 0
-1.4402859 -0.94596827 -0.31587514 0
-1.332217 -0.94199049 -0.31746536 0
-1.2554586 -0.96070099 -0.31787485 0
-1.1536754 -0.95441043 -0.31871912 0
-1.043056 -0.94689113 -0.31955263 0
-0.95925444 -0.96070898 -0.32013544 0
-0.84582555 -0.95204401 -0.32126424 0
-0.74991053 -0.94851434 -0.32188147 0
-0.67243767 -0.98806578 -0.32026792 0
0.77440912 -0.9793222 -0.33457997 0
0.85471636 -0.94841611 -0.33535343 0
0.95120847 -0.94497097 -0.33638832 0
1.0623039 -0.95163351 -0.33669245 0
1.1385573 -0.95020658 -0.33793065 0
1.252305 -0.94641316 -0.33840081 0
1.3488281 -0.94518614 -0.33965832 0
1.4515078 -0.95019156 -0.33984306 0
1.5706271 -0.9497413 -0.34153265 0
1.665436 -0.94319904 -0.34169903 0
1.7474327 -0.95684338 -0.34214547 0
1.8489349 -0.94438773 -0.34288687 0
1.9494951 -0.95056856 -0.34413132 0
2.0459268 -0.95456809 -0.3442578 0
2.1468701 -0.94600981 -0.34493268 0
2.2402856 -0.94910842 -0.34549356 0
2.3500907 -0.93658119 -0.34704044 0
2.4409409 -0.95263135 -0.34811425 0
2.5273302 -0.96561861 -0.34889796 0
2.653657 -0.94920588 -0.34900823 0
-3.3401897 -0.84602642 -0.30198255 0
-3.2332745 -0.85180825 -0.30245677 0
-3.135694 -0.85019362 -0.30276823 0
-3.0427458 -0.84843034 -0.30382034 0
-2.9467769 -0.84450269 -0.30473852 0
-2.8537893 -0.86222827 -0.30592364 0
-2.7625272 -0.85628909 -0.30693248 0
-2.6723065 -0.84930831 -0.30804455 0
-2.5790246 -0.84000468 -0.30890664 0
-2.4799671 -0.84717339 -0.30972558 0
-2.3698473 -0.84765011 -0.31048191 0
-2.257211 -0.84392923 -0.31131089 0
-2.1629651 -0.84419751 -0.31179616 0
-2.0700891 -0.8423261 -0.31225607 0
-1.9613371 -0.84439528 -0.31283769 0
-1.8539841 -0.84889805 -0.3143273 0
-1.7712533 -0.85742539 -0.31515795 0
-1.6627125 -0.84946328 -0.31533587 0
-1.5535451 -0.8361991 -0.31622097 0
-1.4381146 -0.84185058 -0.31854206 0
-1.3597269 -0.8545416 -0.31784636 0
-1.2458204 -0.84134954 -0.31840256 0
-1.144377 -0.84651303 -0.32009953 0
-1.0641825 -0.85502797 -0.32011533 0
-0.95540792 -0.85131252 -0.32024008 0
-0.85801476 -0.85833818 -0.32135609 0
-0.79532915 -0.89525926 -0.32087219 0
0.88359612 -0.88683891 -0.33545062 0
0.95103174 -0.85095048 -0.33766642 0
1.0517771 -0.85028839 -0.33749712 0
1.16524 -0.86540335 -0.33871219 0
1.2402439 -0.8349784 -0.34021074 0
1.3480526 -0.84179211 -0.33930552 0
1.4473022 -0.84440154 -0.34065723 0
1.5303669 -0.85232484 -0.34056678 0
1.6391554 -0.85213488 -0.34150782 0
1.746985 -0.85363078 -0.34343445 0
1.8485529 -0.85590541 -0.34351674 0
1.9674014 -0.85877365 -0.34389037 0
2.0304756 -0.83494532 -0.34464258 0
2.1386929 -0.84070015 -0.34624544 0
2.254178 -0.84292054 -0.34792078 0
2.3608234 -0.83818889 -0.34750435 0
2.4587083 -0.84996057 -0.34807009 0
2.5717556 -0.85804826 -0.34863245 0
2.6717482 -0.85979986 -0.3496263 0
2.7337437 -0.84734213 -0.35142428 0
-3.362325 -0.75842011 -0.30272931 0
-3.2624736 -0.73591089 -0.30364457 0
-3.17029 -0.76294398 -0.3046425 0
-3.0826011 -0.74184191 -0.30553591 0
-2.9569404 -0.74912912 -0.30626962 0
-2.8500061 -0.76558715 -0.30609709 0
-2.7444019 -0.74442494 -0.30714718 0
-2.6584129 -0.75515372 -0.30751607 0
-2.5327358 -0.74552172 -0.30920854 0
-2.4158976 -0.74349052 -0.31088156 0
-2.3642094 -0.74526709 -0.31175691 0
-2.2609255 -0.74848527 -0.31205359 0
-2.1450417 -0.76020557 -0.31259423 0
-2.0202074 -0.75530601 -0.31346726 0
-1.9345515 -0.73908466 -0.31399834 0
-1.8301144 -0.75999916 -0.31390142 0
-1.707202 -0.78167206 -0.31672579 0
-1.6190726 -0.76948529 -0.3168081 0
-1.5421716 -0.74649084 -0.31728524 0
-1.4450353 -0.74193627 -0.3177928 0
-1.339871 -0.7587865 -0.31884632 0
-1.2535712 -0.74585611 -0.31972846 0
-1.1520805 -0.7513054 -0.32023495 0
-1.0532671 -0.74474031 -0.32115647 0
-0.95536816 -0.75369471 -0.32028905 0
-0.89468372 -0.7891717 -0.31967127 0
0.99008989 -0.77721477 -0.33729172 0
1.0522144 -0.7490198 -0.3385441 0
1.1500545 -0.75288242 -0.33921188 0
1.2585737 -0.74352157 -0.33905932 0
1.3523703 -0.7530058 -0.34047306 0
1.4474219 -0.7570281 -0.34047654 0
1.5542948 -0.76618093 -0.34255341 0
1.6354972 -0.74266511 -0.3426109 0
1.7585005 -0.74211752 -0.34343585 0
1.8586137 -0.75619364 -0.34445634 0
1.9518594 -0.74574637 -0.34537145 0
2.0518806 -0.75054026 -0.34682345 0
2.1475711 -0.75078088 -0.34691349 0
2.2428284 -0.748317 -0.34757295 0
2.3337932 -0.74176282 -0.34806207 0
2.4282317 -0.73359776 -0.34908757 0
2.5310667 -0.76467586 -0.34976298 0
2.6437459 -0.7441346 -0.35111001 0
2.7516229 -0.74609047 -0.35206407 0
-3.3808529 -0.66154486 -0.30258921 0
-3.2801502 -0.64186299 -0.30349112 0
-3.1663737 -0.64312267 -0.30460492 0
-3.0528693 -0.6431188 -0.30574441 0
-2.9543221 -0.66640562 -0.30647239 0
-2.8204973 -0.65750057 -0.3079178 0
-2.7318451 -0.65743363 -0.30910951 0
-2.6382029 -0.65488219 -0.30973265 0
-2.5468631 -0.65157694 -0.31072539 0
-2.4389606 -0.6425299 -0.31108493 0
-2.3267918 -0.64881009 -0.3115938 0
-2.2390497 -0.65913278 -0.31254384 0
-2.1519098 -0.65018892 -0.31345487 0
-2.0613499 -0.65502018 -0.31430936 0
-1.9756769 -0.64338166 -0.3149983 0
-1.8775694 -0.65648282 -0.31507111 0
-1.4718822 -0.68654573 -0.31871083 0
-1.3513529 -0.6614815 -0.31947011 0
-1.2358748 -0.65185791 -0.31983235 0
-1.1620016 -0.65383446 -0.32084852 0
-1.0504678 -0.64795995 -0.3218464 0
-0.98573923 -0.66929263 -0.31930748 0
1.0771339 -0.66200507 -0.33883852 0
1.1460105 -0.6437282 -0.33901641 0
1.255801 -0.66569459 -0.33988303 0
1.3350415 -0.64477509 -0.34166539 0
1.4450165 -0.6561321 -0.34223637 0
1.5545326 -0.6419726 -0.3427237 0
1.640942 -0.65150332 -0.34328172 0
1.7325164 -0.64772511 -0.34434909 0
1.840963 -0.65347934 -0.34472966 0
1.9547713 -0.65222067 -0.34609529 0
2.0720789 -0.65866971 -0.34654048 0
2.1511011 -0.63675225 -0.34743193 0
2.2736015 -0.65148646 -0.34827542 0
2.371397 -0.64298797 -0.34942803 0
2.4606872 -0.64833796 -0.35014156 0
2.5508654 -0.65259331 -0.35099459 0
2.6489537 -0.63739699 -0.35164499 0
2.7494619 -0.66160023 -0.35239416 0
2.8004973 -0.63166863 -0.35249576 0
-3.4143703 -0.55873495 -0.30345532 0
-3.3502507 -0.55673468 -0.3037616 0
-3.2421601 -0.54655701 -0.30444637 0
-3.1151118 -0.54035181 -0.30494544 0
-3.0450981 -0.55830628 -0.30523273 0
-2.9296448 -0.55152649 -0.3066403 0
-2.8372478 -0.55520606 -0.30747098 0
-2.7438457 -0.55731434 -0.30820373 0
-2.6555254 -0.5591203 -0.3094092 0
-2.5643103 -0.559138 -0.31036291 0
-2.4670961 -0.5425142 -0.31119433 0
-2.3556025 -0.54907376 -0.31238207 0
-2.2650518 -0.56230354 -0.31335607 0
-2.1637521 -0.53714782 -0.31439433 0
-2.0526915 -0.54110968 -0.3149952 0
-1.9402114 -0.54863399 -0.31582394 0
-1.8871671 -0.51163852 -0.31610548 0
-1.7997031 -0.50184304 -0.31576562 0
-1.2406291 -0.58966583 -0.32150808 0
-1.1480653 -0.57411397 -0.32224083 0
-1.072733 -0.55785531 -0.32407764 0
1.1494216 -0.55067116 -0.33908704 0
1.2501312 -0.55670589 -0.34130108 0
1.3619496 -0.54600906 -0.34136441 0
1.4501474 -0.55412287 -0.34197193 0
1.5432799 -0.55449831 -0.34235638 0
1.658293 -0.55064547 -0.34341744 0
1.7481934 -0.53731602 -0.34540835 0
1.8595424 -0.5472939 -0.34606728 0
1.9460963 -0.54266727 -0.34665281 0
2.0432186 -0.56206471 -0.34735718 0
2.1257296 -0.54381305 -0.34808767 0
2.2358508 -0.55843115 -0.34909484 0
2.342823 -0.55209035 -0.35029542 0
2.4543247 -0.54641283 -0.35064968 0
2.5817053 -0.54362446 -0.35217345 0
2.6679876 -0.5418154 -0.3532528 0
2.7603226 -0.54000419 -0.35412923 0
2.8358097 -0.55480057 -0.35481834 0
-3.425746 -0.46869817 -0.30364719 0
-3.3246167 -0.45491067 -0.30460179 0
-3.2352028 -0.44267848 -0.30545658 0
-3.1439846 -0.45314646 -0.30645987 0
-3.0560727 -0.46275601 -0.30741841 0
-2.9669127 -0.44925445 -0.30836368 0
-2.8679559 -0.45519558 -0.30866715 0
-2.778877 -0.4410533 -0.3095682 0
-2.6564825 -0.45111981 -0.31005973 0
-2.5739751 -0.46545178 -0.30933362 0
-2.4765899 -0.45568758 -0.31043059 0
-2.3641431 -0.44505864 -0.31219596 0
-2.2434473 -0.46244591 -0.3138997 0
-2.1236968 -0.44704324 -0.31510147 0
-2.0344198 -0.44353962 -0.31563231 0
-1.9311962 -0.45014751 -0.31645757 0
-1.824838 -0.45304894 -0.31750375 0
-1.7432183 -0.44597298 -0.31790271 0
-1.6659616 -0.43889391 -0.31895679 0
-1.5766448 -0.42744371 -0.31980237 0
-1.4786199 -0.41230971 -0.31940368 0
1.1844305 -0.45743906 -0.34028935 0
1.2534841 -0.44581118 -0.34275669 0
1.3678972 -0.45867878 -0.34124136 0
1.4368103 -0.4424524 -0.34302399 0
1.5507631 -0.44100523 -0.34401542 0
1.6506851 -0.44758767 -0.34561926 0
1.7315317 -0.45354018 -0.34659559 0
1.83969 -0.44274187 -0.34671021 0
1.9564821 -0.44852167 -0.3479476 0
2.0570176 -0.44857219 -0.34820688 0
2.1487749 -0.45245764 -0.34878659 0
2.2462654 -0.43942115 -0.34948692 0
2.3319416 -0.45618498 -0.35026062 0
2.4374542 -0.44065991 -0.35282621 0
2.5232916 -0.45618454 -0.35347199 0
2.6553545 -0.45064095 -0.35381567 0
2.7516568 -0.43660381 -0.35488084 0
2.8406689 -0.45787761 -0.35581395 0
-3.445317 -0.37130392 -0.30472237 0
-3.3394341 -0.35993159 -0.30562568 0
-3.2496157 -0.35025346 -0.30639881 0
-3.1597972 -0.34057537 -0.307172 0
-3.0639355 -0.35236916 -0.30767104 0
-2.9752526 -0.36368614 -0.30858839 0
-2.8600776 -0.34283444 -0.3099916 0
-2.7354822 -0.35430816 -0.31086317 0
-2.635407 -0.34135187 -0.31144613 0
-2.5187457 -0.3630462 -0.31248 0
-2.4596152 -0.34564114 -0.31267765 0
-2.3518524 -0.33918291 -0.31379011 0
-2.2502732 -0.3640002 -0.31367046 0
-2.1347971 -0.33890948 -0.31454593 0
-2.0527687 -0.35620567 -0.31576034 0
-1.9540058 -0.35340023 -0.31687927 0
-1.8398714 -0.35993999 -0.3178322 0
-1.7628918 -0.34487426 -0.31812584 0
-1.6427059 -0.33992633 -0.31835973 0
-1.5723156 -0.35483864 -0.3189711 0
-1.4488499 -0.35684645 -0.32109058 0
-1.3525175 -0.34599879 -0.32234964 0
1.2457799 -0.35983738 -0.34250623 0
1.3459132 -0.34438303 -0.3430807 0
1.4457471 -0.347855 -0.34380081 0
1.5531412 -0.35342717 -0.34441343 0
1.6650474 -0.34058449 -0.34531772 0
1.7417259 -0.35229462 -0.34554851 0
1.8422604 -0.35527328 -0.34657007 0
1.9571285 -0.34553298 -0.34807938 0
2.0738838 -0.3444486 -0.34952435 0
2.167717 -0.360048 -0.35007069 0
2.2479923 -0.35338464 -0.3524918 0
2.3644454 -0.35812989 -0.35228527 0
2.4457884 -0.35244548 -0.35181981 0
2.5282781 -0.34597933 -0.35205594 0
2.6347821 -0.35072488 -0.35303962 0
2.7627163 -0.36448073 -0.35465491 0
2.8611774 -0.34165144 -0.35549241 0
-3.4640355 -0.25820476 -0.30523998 0
-3.3493798 -0.26426378 -0.30590528 0
-3.2592983 -0.25715834 -0.30665833 0
-3.1692166 -0.25005287 -0.30741143 0
-3.0791349 -0.24294743 -0.30816448 0
-2.9637108 -0.25512904 -0.30902615 0
-2.8482614 -0.23509791 -0.3096737 0
-2.7396314 -0.26229286 -0.31040546 0
-2.623456 -0.24470699 -0.31168556 0
-2.5356827 -0.25491562 -0.312933 0
-2.2392743 -0.29005823 -0.31461251 0
-2.1558657 -0.27925414 -0.31563026 0
-2.0651412 -0.28250456 -0.31606346 0
-1.9814744 -0.27105522 -0.31676507 0
-1.8697984 -0.29683766 -0.31727257 0
-1.7384998 -0.28433791 -0.32014787 0
-1.6316333 -0.27496746 -0.32163632 0
-1.5429077 -0.27903855 -0.3198086 0
-1.4369119 -0.27053392 -0.32038876 0
-1.347104 -0.26358745 -0.32135519 0
-1.2384249 -0.23690712 -0.3233777 0
-1.1779032 -0.23922558 -0.32208312 0
1.2563969 -0.25507352 -0.34362045 0
1.3524551 -0.25256029 -0.34374955 0
1.4644498 -0.24032517 -0.34425423 0
1.5428576 -0.25618786 -0.34452835 0
1.645682 -0.26126501 -0.34547511 0
1.7554783 -0.24723577 -0.34708223 0
1.8533739 -0.23997268 -0.34799802 0
1.9334168 -0.25034288 -0.34837419 0
2.0490613 -0.25660846 -0.3488014 0
2.1773694 -0.2518993 -0.34930983 0
2.2513459 -0.24254891 -0.35083264 0
2.366596 -0.25493532 -0.35094833 0
2.45344 -0.26429486 -0.35174513 0
2.5578611 -0.23859324 -0.35395393 0
2.644654 -0.24669059 -0.35452184 0
2.7314472 -0.25478795 -0.35508975 0
2.8421552 -0.25155342 -0.35600865 0
2.9008865 -0.22882673 -0.35728997 0
-3.5102429 -0.15082291 -0.30738935 0
-3.4613781 -0.17354728 -0.30709583 0
-3.371068 -0.1690198 -0.30783814 0
-3.2807581 -0.16449234 -0.30858052 0
-3.1606348 -0.15105639 -0.30968842 0
-3.0396416 -0.15981837 -0.31044194 0
-2.919518 -0.14638242 -0.31154987 0
-2.8292081 -0.14185494 -0.31229222 0
-2.7302008 -0.15637641 -0.31216943 0
-2.6399231 -0.15120238 -0.31288025 0
-2.5496454 -0.14602834 -0.31359103 0
1.2745857 -0.14648728 -0.34387437 0
1.3455465 -0.14496872 -0.34493989 0
1.4602327 -0.15118782 -0.34575057 0
1.551643 -0.14472672 -0.34785578 0
1.6431757 -0.1532515 -0.3475458 0
1.7656579 -0.15496309 -0.34847355 0
1.8672651 -0.14725599 -0.34896907 0
1.9480566 -0.15362786 -0.34958139 0
2.0311973 -0.14554696 -0.35039282 0
2.1478906 -0.14715882 -0.35152537 0
2.2208049 -0.14327785 -0.35249576 0
2.3513939 -0.15169923 -0.35340938 0
2.4819827 -0.16012061 -0.35432303 0
2.5668526 -0.14710444 -0.35463479 0
2.6540117 -0.15210003 -0.35531455 0
2.7411714 -0.15709561 -0.35599434 0
2.8463671 -0.13231339 -0.35629526 0
2.9049118 -0.16649449 -0.35727227 0
-3.5161073 -0.050336998 -0.3076506 0
-3.4681149 -0.082791686 -0.30649626 0
-3.3659716 -0.072255529 -0.30759478 0
-3.2755005 -0.070313253 -0.30823904 0
-3.1850295 -0.068370976 -0.30888328 0
-3.0493228 -0.06545756 -0.30984968 0
-2.9136164 -0.062544145 -0.31081605 0
-2.8231454 -0.060601871 -0.31146032 0
-2.7326741 -0.058659598 -0.31210455 0
-2.6422033 -0.056717321 -0.31274879 0
-2.5517321 -0.054775044 -0.31339306 0
1.2823966 -0.045951128 -0.34390745 0
1.3514091 -0.04841774 -0.3451381 0
1.4623345 -0.045219723 -0.34684744 0
1.5324159 -0.058244646 -0.34851989 0
1.6561172 -0.047440037 -0.34910241 0
1.7635998 -0.050509013 -0.34951556 0
1.8420336 -0.052762497 -0.35054034 0
1.9614124 -0.056176808 -0.35070881 0
2.0434265 -0.043922275 -0.35104272 0
2.1240981 -0.045653705 -0.35130253 0
2.2144778 -0.047582652 -0.35159558 0
2.3504586 -0.050492559 -0.35283709 0
2.4815855 -0.053303707 -0.35406196 0
2.5690033 -0.055177808 -0.35487854 0
2.6564212 -0.057051908 -0.35569513 0
2.7438393 -0.058926005 -0.35651171 0
2.8317714 -0.040544041 -0.35814023 0
2.9226608 -0.034828998 -0.35947195 0
-3.5110493 0.02513524 -0.30719227 0
-3.4623358 0.049529195 -0.30740914 0
-3.3718617 0.048233792 -0.3080768 0
-3.2813873 0.046938378 -0.30874452 0
-3.1560721 0.036276449 -0.30977124 0
-3.0308981 0.05443646 -0.31046569 0
-2.9194908 0.041756749 -0.31141531 0
-2.8290167 0.040461347 -0.31208304 0
-2.7385426 0.039165936 -0.31275073 0
-2.6480682 0.03787053 -0.31341842 0
-2.5575941 0.036575124 -0.31408611 0
1.2806555 0.045866095 -0.34344029 0
1.3495076 0.048326779 -0.34457731 0
1.4653765 0.058597289 -0.34621486 0
1.5348088 0.041821688 -0.34780154 0
1.6524909 0.047336563 -0.3481116 0
1.7651203 0.053164672 -0.34836626 0
1.8504728 0.048713252 -0.34986368 0
1.9560522 0.056054004 -0.35045508 0
2.0361254 0.043735672 -0.35079011 0
2.1481717 0.046143662 -0.35174111 0
2.2226219 0.047724839 -0.35258922 0
2.3471248 0.050397851 -0.35357752 0
2.4662755 0.052955765 -0.35477754 0
2.574893 0.055287629 -0.35566911 0
2.6622994 0.057164092 -0.35644826 0
2.7497056 0.059040558 -0.35722736 0
2.8382511 0.040636994 -0.35815847 0
2.9228091 0.041834667 -0.35892126 0
-3.5158892 0.12594739 -0.30780515 0
-3.481288 0.17454089 -0.30919033 0
-3.3614585 0.16063952 -0.31022406 0
-3.2397377 0.17032306 -0.31125009 0
-3.1199083 0.15642169 -0.31228381 0
-3.0295634 0.15189189 -0.31305718 0
-2.9392185 0.14736208 -0.31383055 0
-2.8488736 0.14283229 -0.31460392 0
-2.7546704 0.15784241 -0.31517494 0
-2.6643016 0.15266198 -0.31587684 0
-2.5739329 0.14748152 -0.31657872 0
1.2813538 0.14737527 -0.34570387 0
1.3497446 0.14543772 -0.34616238 0
1.4595037 0.15009356 -0.3468509 0
1.5414103 0.14868048 -0.34851921 0
1.6463757 0.14173269 -0.34894562 0
1.7623264 0.14454259 -0.35036448 0
1.827191 0.16146877 -0.35156462 0
1.9613867 0.15475337 -0.35233662 0
2.042079 0.14644137 -0.35299689 0
2.1232562 0.15225817 -0.35381433 0
2.2255087 0.14353575 -0.35481218 0
2.3233836 0.14983493 -0.35564578 0
2.4447122 0.16484353 -0.35667366 0
2.5585124 0.1406429 -0.35769311 0
2.6741228 0.15325283 -0.35883269 0
2.7614803 0.15826117 -0.35960943 0
2.8441696 0.14267202 -0.35949162 0
2.93138 0.15762779 -0.3608543 0
-3.5286751 0.22763702 -0.30936825 0
-3.4683599 0.27359945 -0.30974752 0
-3.3780553 0.26647627 -0.31036949 0
-3.2877507 0.2593531 -0.31099147 0
-3.1522937 0.24866834 -0.31192437 0
-3.0168366 0.23798355 -0.3128573 0
-2.9284184 0.25216129 -0.31387252 0
-2.838176 0.2443928 -0.31451213 0
-2.7484236 0.25647527 -0.31534243 0
-2.6582685 0.24806336 -0.31602237 0
-2.5640075 0.25774452 -0.31642827 0
-2.2550256 0.29209855 -0.31874397 0
-2.1707211 0.28117841 -0.31908005 0
-2.0339508 0.27324742 -0.32044706 0
-1.8168558 0.28843284 -0.32481536 0
-1.7281337 0.28696716 -0.32447714 0
-1.6470104 0.27753684 -0.32466686 0
-1.5594295 0.28201234 -0.32329753 0
-1.4547266 0.27389434 -0.32450742 0
-1.3650666 0.26791728 -0.32549906 0
-1.2437941 0.25528595 -0.32743651 0
-1.1929657 0.25124916 -0.3267079 0
1.2713248 0.24863145 -0.34717432 0
1.339581 0.25209215 -0.3475281 0
1.46619 0.24877007 -0.34822473 0
1.5637072 0.24829777 -0.34916496 0
1.6403348 0.24840128 -0.35025054 0
1.76328 0.2600351 -0.35207438 0
1.8401859 0.23838076 -0.35306507 0
1.9602592 0.25394571 -0.35367978 0
2.0418794 0.24966405 -0.35398546 0
2.1223116 0.25949657 -0.35443795 0
2.2207587 0.23932341 -0.35505807 0
2.3158958 0.24957322 -0.35573527 0
2.4376578 0.25548226 -0.35646138 0
2.5785611 0.24058075 -0.35722503 0
2.6654675 0.24868961 -0.35780534 0
2.7523739 0.25679842 -0.35838559 0
2.8410931 0.24457893 -0.35864097 0
2.913671 0.25079703 -0.35908538 0
-3.5222831 0.32869697 -0.30950621 0
-3.4654469 0.37340373 -0.31127298 0
-3.375278 0.36368623 -0.31180763 0
-3.2575874 0.34329274 -0.31243965 0
-3.1498814 0.33972156 -0.31321436 0
-3.0350063 0.34904742 -0.31390637 0
-2.920269 0.35708421 -0.31459004 0
-2.8302379 0.34607756 -0.31511635 0
-2.7371893 0.35457882 -0.31561297 0
-2.6472311 0.34292665 -0.31612566 0
-2.5375321 0.35502905 -0.31725594 0
-2.4263465 0.34971878 -0.3181743 0
-2.3424671 0.3376317 -0.31877467 0
-2.2567551 0.35824737 -0.31987175 0
-2.1730311 0.34495273 -0.32046509 0
-2.0514548 0.34827226 -0.32256335 0
-1.9650449 0.35036609 -0.32194301 0
-1.8712157 0.33826458 -0.32270077 0
-1.7468655 0.35458872 -0.32325426 0
-1.6296266 0.3432458 -0.3237586 0
-1.5475039 0.35538575 -0.32482278 0
-1.439759 0.35741359 -0.32571787 0
-1.3585716 0.34147432 -0.32616585 0
-1.2635021 0.32648411 -0.32608262 0
-1.1657245 0.3071481 -0.32301486 0
1.2536385 0.34947768 -0.34882298 0
1.3540624 0.35776293 -0.34977448 0
1.4648099 0.35388288 -0.34988326 0
1.5498424 0.3496626 -0.35022444 0
1.6478809 0.35934758 -0.35071668 0
1.7614313 0.35575089 -0.35171035 0
1.8555857 0.34928903 -0.35215819 0
1.9397316 0.35081562 -0.35323715 0
2.0383692 0.35665613 -0.35411829 0
2.155632 0.35179514 -0.35502118 0
2.2131774 0.34598023 -0.3551521 0
2.348372 0.35562882 -0.35675374 0
2.4829788 0.33971658 -0.35798132 0
2.5697982 0.35159716 -0.35886988 0
2.657146 0.34416044 -0.35876983 0
2.7438781 0.35539484 -0.35950065 0
2.8322916 0.34627414 -0.36002627 0
2.915885 0.35651231 -0.36071584 0
-3.5289457 0.43141365 -0.31104878 0
-3.456284 0.47284931 -0.31129903 0
-3.3664565 0.46055904 -0.31187087 0
-3.2766294 0.44826877 -0.31244272 0
-3.15905 0.42465544 -0.31319669 0
-3.046952 0.46142083 -0.3142328 0
-2.9124177 0.44104919 -0.31502366 0
-2.8244457 0.44848821 -0.31593657 0
-2.7368145 0.45461977 -0.3170484 0
-2.6462867 0.45908645 -0.31802043 0
-2.5447736 0.44611043 -0.31886768 0
-2.417259 0.45502183 -0.31980336 0
-2.3338263 0.43931636 -0.32031646 0
-2.2476454 0.45644638 -0.32110658 0
-2.1645565 0.4395698 -0.32173574 0
-2.0690193 0.45118144 -0.32154265 0
-1.9710014 0.44859669 -0.32253751 0
-1.8543607 0.44624016 -0.32351559 0
-1.7735019 0.45380563 -0.32413682 0
-1.6448625 0.43346521 -0.32537577 0
-1.5490912 0.4239006 -0.32636359 0
1.2472856 0.44846502 -0.34875289 0
1.348291 0.45589653 -0.35073003 0
1.4440999 0.45889089 -0.35083425 0
1.5284944 0.44985616 -0.35140225 0
1.647998 0.44662282 -0.35240555 0
1.753629 0.46355009 -0.35269725 0
1.840071 0.4567861 -0.35341898 0
1.9370453 0.45456249 -0.3536194 0
2.0453479 0.44601777 -0.35395446 0
2.1611965 0.46072593 -0.35524145 0
2.2380819 0.44888711 -0.35724056 0
2.3572369 0.4494746 -0.35818651 0
2.4712889 0.4469758 -0.35855052 0
2.5553918 0.44323647 -0.35905015 0
2.64639 0.43952194 -0.36058319 0
2.7329967 0.45390642 -0.36162245 0
2.8248425 0.4484359 -0.36268508 0
2.9192166 0.46336785 -0.36378333 0
-3.5197325 0.53299141 -0.31145483 0
-3.4517813 0.57336962 -0.31162763 0
-3.3624105 0.55852592 -0.31230521 0
-3.2730398 0.54368216 -0.3129828 0
-3.1820438 0.55202007 -0.31412175 0
-3.0479534 0.55120689 -0.31533912 0
-2.9142199 0.52702117 -0.31637433 0
-2.8439438 0.56363338 -0.31682149 0
-2.7226315 0.55295467 -0.31765977 0
-2.6286731 0.55350721 -0.31809777 0
-2.5396783 0.55383343 -0.3191832 0
-2.4648955 0.53749669 -0.31952155 0
-2.3465362 0.55420876 -0.32034823 0
-2.2240257 0.55209148 -0.3212215 0
-2.136802 0.5466814 -0.32152697 0
-2.0518911 0.54059762 -0.32211602 0
-1.952635 0.53598899 -0.32284871 0
-1.8461933 0.51480675 -0.32380891 0
-1.3012391 0.59579492 -0.33040687 0
-1.2167336 0.57830828 -0.32550639 0
-1.1351687 0.56958282 -0.33126816 0
-1.0891824 0.55672228 -0.32789361 0
1.1804345 0.55070341 -0.34909478 0
1.2514716 0.53730267 -0.35000238 0
1.3561556 0.57098377 -0.35002598 0
1.4292178 0.55516374 -0.35201928 0
1.5493695 0.54175913 -0.35194731 0
1.6548212 0.55208868 -0.35319573 0
1.7341534 0.56098253 -0.35459623 0
1.8500372 0.55895758 -0.35474578 0
1.9585512 0.54293585 -0.35592204 0
2.0690312 0.54516554 -0.35593063 0
2.1735506 0.55613714 -0.35698614 0
2.2676246 0.54578757 -0.35646379 0
2.3611228 0.53254837 -0.35745642 0
2.4466498 0.55183929 -0.35837945 0
2.5434639 0.5354349 -0.35949323 0
2.6291676 0.55348444 -0.36031386 0
2.7257733 0.55358255 -0.36109686 0
2.8435922 0.54782599 -0.36227593 0
2.9174674 0.52759355 -0.36402971 0
-3.5137496 0.66143626 -0.312812 0
-3.4594879 0.65097958 -0.31215999 0
-3.3502433 0.65550023 -0.31346011 0
-3.2612543 0.63808858 -0.31407154 0
-3.1609926 0.66559589 -0.31440365 0
-3.0722728 0.64691442 -0.31501937 0
-2.9825609 0.65040416 -0.3160232 0
-2.8471477 0.64224094 -0.31719595 0
-2.7484956 0.66170704 -0.31796753 0
-2.6337848 0.65379554 -0.31867027 0
-2.5154769 0.65511549 -0.3191821 0
-2.4622691 0.64873123 -0.3194164 0
-2.3746459 0.6622414 -0.32026994 0
-2.2594156 0.63693893 -0.32112995 0
-2.135428 0.66187209 -0.32261661 0
-2.0319741 0.64578825 -0.32366318 0
-1.9428416 0.64833927 -0.32443845 0
-1.5423125 0.67964458 -0.32761219 0
-1.437072 0.67648405 -0.32907873 0
-1.3477564 0.65248299 -0.32892716 0
-1.2561817 0.647928 -0.33035988 0
-1.142292 0.65764463 -0.33064157 0
-1.0467283 0.65363377 -0.33079746 0
1.1468991 0.66023576 -0.34946066 0
1.2562482 0.64576745 -0.35056284 0
1.358452 0.65073317 -0.34959707 0
1.4515412 0.65200531 -0.35099074 0
1.5485722 0.65875703 -0.35218483 0
1.6597275 0.66953802 -0.35370263 0
1.7345052 0.64490211 -0.35416985 0
1.8547623 0.64119846 -0.35538402 0
1.9659424 0.64019573 -0.3567397 0
2.0517066 0.65199697 -0.35792097 0
2.155158 0.65116495 -0.35822511 0
2.2580884 0.64713699 -0.35885051 0
2.3464706 0.63625455 -0.35879549 0
2.4309227 0.65915394 -0.35950792 0
2.5231049 0.64557266 -0.35990229 0
2.6599355 0.64806992 -0.3606874 0
2.7809196 0.6482507 -0.36203587 0
2.8795929 0.64948946 -0.36306927 0
-3.4564428 0.75348687 -0.31259593 0
-3.333591 0.75196195 -0.31371081 0
-3.2374947 0.75462645 -0.31458077 0
-3.1455832 0.75693506 -0.31547064 0
-3.0573473 0.73570049 -0.31601176 0
-2.9592633 0.75716281 -0.31693318 0
-2.8712749 0.7346518 -0.31740785 0
-2.7852893 0.73387522 -0.31862339 0
-2.697494 0.71074271 -0.31915507 0
-2.461781 0.75524676 -0.32010278 0
-2.3484137 0.7649619 -0.32130644 0
-2.2676458 0.73865587 -0.32183316 0
-2.1827126 0.74569935 -0.32314089 0
-2.0616403 0.74395406 -0.32466254 0
-1.9331193 0.75450552 -0.32525104 0
-1.7593505 0.7752859 -0.32706392 0
-1.6537435 0.75165951 -0.32806334 0
-1.5376301 0.7443341 -0.32895955 0
-1.4612098 0.75334823 -0.32793757 0
-1.3527011 0.74796885 -0.32990313 0
-1.2351902 0.74698585 -0.32939747 0
-1.1546488 0.75901181 -0.33019549 0
-1.0524733 0.74669373 -0.33197695 0
-0.97738928 0.76726502 -0.33298835 0
1.0616571 0.75068426 -0.34850356 0
1.153428 0.75511271 -0.34878802 0
1.2498212 0.75577497 -0.35022235 0
1.3277762 0.75034964 -0.35164279 0
1.4483792 0.75289619 -0.35204655 0
1.5581725 0.73791933 -0.35253152 0
1.6534902 0.75708979 -0.35387066 0
1.7501423 0.74149692 -0.35450971 0
1.8373197 0.7475304 -0.35566655 0
1.9377327 0.75962418 -0.35674441 0
2.0521362 0.75068736 -0.35783038 0
2.1353829 0.74177104 -0.35874039 0
2.2296441 0.74388504 -0.35911062 0
2.3260713 0.73924714 -0.36007571 0
2.4403274 0.76290423 -0.36069301 0
2.5469453 0.74969476 -0.36103845 0
2.6558838 0.73387951 -0.36178923 0
2.7687321 0.75075167 -0.36235765 0
2.8577888 0.75299597 -0.36287731 0
-3.4828439 0.83817762 -0.3134166 0
-3.3552113 0.85846257 -0.31479719 0
-3.2242656 0.84953785 -0.31596497 0
-3.1364703 0.82640535 -0.31649664 0
-3.0486751 0.80327284 -0.31702834 0
-2.7421451 0.89315414 -0.31929901 0
-2.6557212 0.86500472 -0.31973988 0
-2.5692973 0.83685529 -0.32018074 0
-2.4513144 0.85200876 -0.32127184 0
-2.3313551 0.8527528 -0.32288128 0
-2.2442491 0.83912688 -0.32369289 0
-2.1517754 0.83984709 -0.32420716 0
-2.0625203 0.83929509 -0.32499322 0
-1.9549183 0.84161532 -0.32603583 0
-1.8550392 0.85575545 -0.32733241 0
-1.7361505 0.8404361 -0.32797819 0
-1.6503251 0.86115724 -0.32814449 0
-1.5517435 0.84969473 -0.32859913 0
-1.4526263 0.85017598 -0.32955867 0
-1.3437642 0.86215717 -0.32979017 0
-1.2426511 0.85225803 -0.33109957 0
-1.1505702 0.84953737 -0.3322016 0
-1.0453364 0.85025853 -0.3329916 0
-0.95097429 0.84771532 -0.3336997 0
-0.88457412 0.87521231 -0.33347118 0
0.97034228 0.86827487 -0.34894088 0
1.0516433 0.84177679 -0.34942538 0
1.1574428 0.84174693 -0.35098237 0
1.2513648 0.84999955 -0.3503592 0
1.3465348 0.8543064 -0.35198987 0
1.4468364 0.86076188 -0.35310647 0
1.5639093 0.85627937 -0.3534044 0
1.6432337 0.84461284 -0.35439655 0
1.7478349 0.84640014 -0.35511383 0
1.8542498 0.84901673 -0.35635781 0
1.9691366 0.85095811 -0.35710588 0
2.0795135 0.86353755 -0.35849205 0
2.1540158 0.83201176 -0.35914391 0
2.2723281 0.83118117 -0.35994431 0
2.3857305 0.83413833 -0.36062872 0
2.468277 0.86299771 -0.36124945 0
2.5615935 0.85464054 -0.36177501 0
2.6592929 0.84515363 -0.36241508 0
2.748693 0.85195202 -0.36268401 0
2.834331 0.84527296 -0.36331657 0
-3.4754956 0.91573256 -0.31444353 0
-3.0014167 0.97760248 -0.31797642 0
-2.9149928 0.94945306 -0.31841728 0
-2.8285689 0.92130363 -0.31885815 0
-2.7229133 0.97393775 -0.32006392 0
-2.6373765 0.9433428 -0.32057986 0
-2.5518398 0.9127478 -0.32109582 0
-2.4482718 0.9556067 -0.32271883 0
-2.3577425 0.93339062 -0.32345203 0
-2.2551012 0.93650162 -0.32414997 0
-2.1485386 0.95428073 -0.3252492 0
-2.0256255 0.94508463 -0.32630962 0
-1.9335185 0.95312148 -0.32747915 0
-1.8371958 0.95717472 -0.32817024 0
-1.7691677 0.95243061 -0.32872179 0
-1.6681805 0.94458574 -0.32972407 0
-1.5675294 0.94793206 -0.32947063 0
-1.4414353 0.94839925 -0.33035243 0
-1.3635229 0.96413261 -0.33186749 0
-1.2565788 0.94356197 -0.33205292 0
-1.152746 0.94557583 -0.33391204 0
-1.0601387 0.95261461 -0.33212727 0
-0.95378029 0.94796646 -0.33463421 0
-0.84777623 0.95034838 -0.33624977 0
-0.76877069 0.98172861 -0.33416283 0
0.86658102 0.97547776 -0.34966597 0
0.94521332 0.94862646 -0.35002241 0
1.0471289 0.95055264 -0.35042819 0
1.1588186 0.95762557 -0.35126969 0
1.2393556 0.93933463 -0.35326737 0
1.3593544 0.94668287 -0.35227922 0
1.4596181 0.95550078 -0.35402822 0
1.5580812 0.94807917 -0.35526985 0
1.6494845 0.94973755 -0.35486257 0
1.7402631 0.95278764 -0.35550308 0
1.8320842 0.9525668 -0.35634074 0
1.9391377 0.95946234 -0.35743409 0
2.0418828 0.95267934 -0.35860896 0
2.1525176 0.94851631 -0.35956389 0
2.2442629 0.95079654 -0.36008602 0
2.3491623 0.9363575 -0.36108017 0
2.4347281 0.95027798 -0.36123604 0
2.5248871 0.96468276 -0.36190176 0
2.6198542 0.95829982 -0.36204121 0
2.7474625 0.96059912 -0.36332375 0
2.8140433 0.93889093 -0.36431897 0
-3.3471122 1.0902002 -0.31621298 0
-3.2606883 1.0620508 -0.31665382 0
-3.1742644 1.0339013 -0.31709468 0
-3.0764503 1.0510347 -0.31776786 0
-2.9795234 1.0657227 -0.31851608 0
-2.8512182 1.0198302 -0.31929001 0
-2.4201348 1.0458449 -0.3237226 0
-2.3543684 1.0374703 -0.32428458 0
-2.2573459 1.0531958 -0.32516763 0
-2.1490731 1.0500765 -0.32644305 0
-2.070797 1.0580209 -0.32632378 0
-1.966429 1.0403757 -0.32792485 0
-1.8527758 1.0492107 -0.32899457 0
-1.7649715 1.0542458 -0.33004132 0
-1.645553 1.0474141 -0.33047432 0
-1.5354564 1.0530938 -0.33117762 0
-1.4441531 1.0524219 -0.3318007 0
-1.3490592 1.0435705 -0.33241174 0
-1.2578439 1.0469259 -0.33290833 0
-1.1558336 1.0492581 -0.33289462 0
-1.0429368 1.0415725 -0.33481154 0
-0.96263909 1.0604254 -0.33607402 0
-0.85054022 1.0443816 -0.33666709 0
-0.75306422 1.0456787 -0.33764291 0
-0.66169047 1.0681379 -0.33674234 0
0.6874038 1.0921351 -0.34577677 0
0.75279987 1.0567142 -0.34778979 0
0.84703976 1.0511656 -0.34921905 0
0.94834566 1.0522641 -0.35073465 0
1.0594232 1.0632365 -0.35122904 0
1.1289586 1.0362319 -0.35205477 0
1.2484177 1.0476803 -0.35247782 0
1.3573843 1.0594124 -0.35407281 0
1.464581 1.0512624 -0.35348666 0
1.5405955 1.0352477 -0.35588881 0
1.6515884 1.0478535 -0.35716212 0
1.7609251 1.0477498 -0.35640225 0
1.8563085 1.0337083 -0.35657898 0
1.9761931 1.0741751 -0.35846582 0
2.0384684 1.0414342 -0.35827479 0
2.1649148 1.0609177 -0.36034283 0
2.2701445 1.0458723 -0.3611151 0
2.3642006 1.0352231 -0.36120629 0
2.450002 1.0383086 -0.36267096 0
2.55848 1.0480431 -0.36387381 0
2.6792681 1.0457302 -0.3632682 0
2.7622001 1.055419 -0.36367235 0
-3.4319327 1.1178274 -0.31578028 0
-3.3216705 1.1881025 -0.31645229 0
-3.2361336 1.1575075 -0.31696823 0
-3.1505971 1.1269126 -0.3174842 0
-2.4034061 1.1004412 -0.32456285 0
-2.3419671 1.1460177 -0.32501224 0
-2.2184446 1.1534722 -0.3255505 0
-2.1207855 1.1611886 -0.32766879 0
-2.0317917 1.1506 -0.32856724 0
-1.9364829 1.1522161 -0.32933685 0
-1.8428365 1.1507629 -0.33025545 0
-1.749648 1.1455508 -0.33127204 0
-1.6491439 1.1450214 -0.33151588 0
-1.564153 1.1570863 -0.33118746 0
-1.470681 1.1545315 -0.33207095 0
-1.35211 1.1307515 -0.33228254 0
-1.2532523 1.154093 -0.33371127 0
-1.1528207 1.1569606 -0.33416727 0
-1.0444412 1.1475855 -0.33542514 0
-0.93909889 1.1421486 -0.33744404 0
-0.85497409 1.1569129 -0.33694655 0
-0.74343616 1.149385 -0.33805135 0
-0.64637536 1.1513031 -0.33834758 0
-0.55919194 1.1495485 -0.33867419 0
-0.44788662 1.1848339 -0.33950177 0
0.49251959 1.1981282 -0.34710351 0
0.56141043 1.1706114 -0.34794185 0
0.65668422 1.1502271 -0.34829283 0
0.75800431 1.146024 -0.34817249 0
0.85223836 1.1459467 -0.35074142 0
0.96053427 1.1623461 -0.35055268 0
1.0357399 1.1366233 -0.35171959 0
1.1457653 1.1498771 -0.35280922 0
1.2499464 1.151039 -0.35390174 0
1.3674031 1.1631241 -0.35422 0
1.4448886 1.1376244 -0.35456568 0
1.5489836 1.1459035 -0.35572332 0
1.643079 1.1441493 -0.35616532 0
1.7374548 1.1374434 -0.35809195 0
1.8416439 1.1538198 -0.35853779 0
1.9325994 1.1498919 -0.35750258 0
2.0507059 1.1418499 -0.35893178 0
2.148145 1.1562345 -0.36058846 0
2.2506695 1.1498287 -0.36163598 0
2.3548076 1.1398826 -0.36248955 0
2.4500341 1.1431293 -0.3633081 0
2.5436563 1.1427497 -0.36360785 0
2.6407402 1.1411015 -0.36456621 0
2.7428615 1.1481763 -0.36555514 0
-3.4006393 1.2163483 -0.31597596 0
-2.3442628 1.2404257 -0.32567236 0
-2.2705977 1.2432208 -0.32706806 0
-2.1729069 1.2511532 -0.32818928 0
-2.0579948 1.2444987 -0.32901242 0
-1.9540535 1.2594218 -0.32991317 0
-1.8421578 1.2440823 -0.33118403 0
-1.7341347 1.2356635 -0.33036137 0
-1.6637522 1.249216 -0.33094311 0
-1.5580064 1.2483873 -0.33174819 0
-1.4413197 1.2457291 -0.3330867 0
-1.3401114 1.2413523 -0.33360225 0
-1.2453189 1.2497817 -0.33381307 0
-1.1521733 1.2601312 -0.33416197 0
-1.0566972 1.242228 -0.33614501 0
-0.95463973 1.2619623 -0.33718482 0
-0.83680469 1.2408947 -0.33740467 0
-0.75588804 1.2542102 -0.33860293 0
-0.67053533 1.2491906 -0.33806852 0
-0.55025154 1.2608665 -0.33901712 0
-0.45434967 1.2560205 -0.34050396 0
-0.35236347 1.2427816 -0.340599 0
-0.24942911 1.2512318 -0.34193277 0
-0.15121186 1.2744005 -0.34397233 0
-0.05043748 1.2815974 -0.34373873 0
0.055391882 1.2867093 -0.34522188 0
0.15213889 1.2830833 -0.34627992 0
0.25207236 1.2637072 -0.34538245 0
0.35330394 1.2497644 -0.34806809 0
0.44817913 1.2516239 -0.34837157 0
0.5436191 1.2490494 -0.3499845 0
0.64631355 1.2539148 -0.34989145 0
0.76368445 1.2528075 -0.34871191 0
0.84927148 1.2542046 -0.350972 0
0.93956983 1.2352194 -0.35259777 0
1.0584695 1.251259 -0.35209891 0
1.1552489 1.2527851 -0.3536101 0
1.2551466 1.2622831 -0.35438177 0
1.3367485 1.2458402 -0.35546902 0
1.4397336 1.2517351 -0.3559792 0
1.5447711 1.2487513 -0.35641092 0
1.6445081 1.2533076 -0.35705262 0
1.753736 1.2399652 -0.35817835 0
1.8648332 1.2591618 -0.35920012 0
1.9608212 1.244005 -0.36008701 0
2.0480747 1.2388029 -0.35992417 0
2.139092 1.2521479 -0.36064285 0
2.2473104 1.2656385 -0.36144796 0
2.3521028 1.2444232 -0.36339578 0
2.457803 1.2484332 -0.36369237 0
2.5593812 1.2542056 -0.36535835 0
2.675751 1.2484106 -0.36576238 0
2.7158482 1.2200563 -0.36556703 0
-2.3120992 1.3312054 -0.3275899 0
-2.2375779 1.353098 -0.3281945 0
-2.1240435 1.3475664 -0.32911617 0
-2.0450363 1.3598806 -0.32958978 0
-1.9269979 1.3418374 -0.3306677 0
-1.8451871 1.344684 -0.33059853 0
-1.7351547 1.3421568 -0.33053765 0
-1.6307844 1.3377861 -0.33214429 0
-1.555132 1.3520454 -0.33298165 0
-1.4479452 1.3526748 -0.33412442 0
-1.3385082 1.3433009 -0.33429509 0
-1.2521498 1.3499733 -0.33477271 0
-1.1371963 1.3503064 -0.33663759 0
-1.0458863 1.3544137 -0.33666828 0
-0.94256222 1.3513155 -0.33670729 0
-0.84461147 1.3634504 -0.33980274 0
-0.75924557 1.352131 -0.33866951 0
-0.6514014 1.3275586 -0.33871874 0
-0.54753 1.3635113 -0.34075218 0
-0.46612877 1.3585434 -0.34219274 0
-0.34354067 1.3423826 -0.34306282 0
-0.25379351 1.3508996 -0.34273818 0
-0.14967132 1.3434515 -0.34452826 0
-0.053133447 1.3499379 -0.34450662 0
