# .PCD v0.7 - Point Cloud Data file format
VERSION 0.7
FIELDS x y z intensity
SIZE 4 4 4 4
TYPE F F F F
COUNT 1 1 1 1
WIDTH 138
HEIGHT 1
VIEWPOINT 0 0 0 1 0 0 0
POINTS 138
DATA ascii
-40.334167 2.3188035 0.70506245 8
-40.286926 1.7362604 2.1132061 9
-40.21524 0.57747722 3.5186727 10
-40.224396 1.1553594 4.940897 11
-40.243752 1.7344295 6.379827 12
-40.135868 -2.307349 0.70172167 8
-40.140678 -1.7299234 2.1056039 9
-40.084404 -2.3044176 4.9298034 11
-40.096535 -1.72804 6.3564849 12
-39.615097 -13.576309 0.73066688 8
-39.618114 -12.945152 5.1170049 11
-39.558277 -14.838856 2.2137203 9
-39.489906 -16.120876 3.7309763 10
-39.543667 -14.189555 6.6533079 12
-39.302639 -20.865026 0.77582222 8
-39.317753 -20.155218 2.3145397 9
-39.295162 -20.143753 3.8621318 10
-39.349518 -18.765619 5.3516545 11
-39.378445 -18.090431 6.8623672 12
-31.953053 -6.9889007 0.57084131 8
-31.944368 -6.9870343 1.7135538 9
-31.986206 -6.0397277 2.8477018 10
-31.936287 -6.9853339 4.0136862 11
-31.927021 -6.9833412 5.1759205 12
-18.201773 15.444203 1.2494969 9
-18.187592 15.432122 0.41473368 8
-15.641984 9.4980488 0.31867597 8
-15.642765 9.4985609 0.95844406 9
-15.63235 9.4922781 1.5994756 10
-15.597018 8.5740585 2.1849976 11
-9.3260183 1.7619312 0.16565561 8
-9.315937 1.7600359 0.49690223 9
-9.3091927 1.7587706 0.82894242 10
-9.3083582 1.7586211 1.163275 11
-9.3313446 1.7629694 1.5042664 12
-7.5192752 10.161217 1.1049433 10
-7.2247133 15.499672 0.29637557 8
-7.382288 4.6320009 1.380509 12
-7.1765566 12.469281 0.75247836 9
-6.400753 -2.940752 1.3681256 13
-5.1186576 -2.9086876 1.3576959 14
-5.0191154 9.0238562 1.2668897 11
-3.4912987 -2.9590683 1.2239738 15
-3.1346011 -4.9251175 0.92226231 12
-2.7748163 -4.3588481 1.0017494 13
-2.4178467 -3.919929 1.0603614 14
-0.08262866 15.498787 0.26799592 8
0.37101355 -5.8662453 0.71875256 11
0.32748696 -5.2034101 0.8227011 12
0.29265714 -4.6730108 0.90692145 13
0.26327941 -4.2256417 0.97410566 14
0.5059346 -7.9208446 0.41301575 9
0.42868263 -6.7444377 0.58832937 10
0.61249584 -9.5435829 0.16386041 8
2.1954288 9.3518934 0.17090042 8
2.195384 9.3512335 0.50764662 9
2.3182623 9.2723112 0.8414253 10
2.3214858 9.2845669 1.1814038 11
2.3190825 6.1788712 1.2899512 13
2.2952778 7.7570415 1.2878779 12
2.4673748 4.0640693 1.2829443 15
2.4507277 4.9531903 1.2837851 14
2.7819593 -4.6882014 0.86085856 12
2.6603396 -3.1185875 1.0971117 15
2.9910364 -5.3811665 0.75310254 11
2.8814125 -3.4740837 1.0404329 14
3.0820055 -9.2347183 0.16633578 8
3.0142283 -7.5666609 0.42352137 9
3.0513115 -6.3106685 0.61016762 10
4.4961944 9.3806372 0.91522264 10
4.6701407 9.3930731 1.2943329 11
5.2054896 9.424305 0.56808126 9
5.5769715 9.4429502 0.19399875 8
5.5769343 9.4415569 1.7443213 12
5.9604292 9.4565334 2.1816423 13
5.9700818 9.471447 2.5949535 14
6.1699519 9.4835615 1.3954005 11
6.3705149 9.4902592 0.60270423 9
7.2313299 9.5345812 1.0517576 10
7.4512572 9.5355434 1.4919491 11
7.4620533 9.548996 1.9268082 12
7.464469 9.5514116 2.8087008 14
7.4663019 9.5534096 3.2603221 15
7.690742 9.5557985 0.21632197 8
7.6979132 9.5643654 0.64690864 9
8.1752005 9.5771484 2.4562376 13
9.5387735 9.6701183 0.23901588 8
9.5324192 9.6626978 1.6723695 11
9.5261631 9.6560297 2.1554472 12
9.816926 9.6687841 1.2099224 10
9.8248177 9.6751909 3.1932042 14
9.824255 9.6742868 3.7056377 15
10.127739 9.691803 0.73774493 9
11.115636 9.7516527 2.8824656 13
11.450995 9.759407 0.26424143 8
11.46071 9.7666464 1.8543267 11
11.909472 -3.3257074 0.21193621 8
11.97341 -4.0979643 0.6597333 9
11.954503 -3.9008288 1.0973656 10
11.824041 9.7862644 1.3469419 10
11.960103 -3.7136323 1.5356168 11
11.929979 -3.3319993 1.9606477 12
11.942966 -3.3357584 2.4098127 13
11.976139 -3.9084523 2.9081643 14
11.947868 -3.3374324 3.3248148 15
11.820533 9.7819471 3.551662 14
11.817882 9.7793903 4.1210074 15
12.191854 9.7976732 2.4839225 12
12.040977 -5.1134753 3.5046842 15
12.205407 9.8096132 0.82342386 9
12.660569 -24.251602 0.46878952 8
12.670621 -24.270912 1.4261109 9
32.442562 18.518492 4.5928741 11
32.734383 18.068773 0.65478981 8
32.756268 18.079369 3.2779508 10
32.783215 18.091972 7.2868438 13
33.107937 17.656231 5.9497128 12
33.1231 17.662785 8.6758385 14
33.741581 16.769541 1.9772338 9
34.750591 15.442085 0.66431856 8
34.773941 15.450309 4.676331 11
35.488689 14.560537 7.4623632 13
35.799103 14.09268 3.3680687 10
35.80125 14.094233 2.0173564 9
35.817436 14.098472 6.1010728 12
36.552265 13.186634 8.9774122 14
37.598839 11.762139 4.8390226 11
37.938766 11.274891 0.68902159 8
37.943699 11.275672 2.0737844 9
37.980663 11.28458 6.2781291 12
37.989197 11.286413 7.7071843 13
38.326771 10.792193 3.4836888 10
39.871578 8.7909002 5.0132427 11
40.273571 8.274189 6.5127492 12
40.630966 7.743906 0.7182644 8
40.645767 7.7460566 2.1658263 9
40.691593 7.7520633 8.0534506 13
41.072021 7.2169604 3.646476 10
