# .PCD v0.7 - Point Cloud Data file format
VERSION 0.7
FIELDS x y z intensity
SIZE 4 4 4 4
TYPE F F F F
COUNT 1 1 1 1
WIDTH 1408
HEIGHT 1
VIEWPOINT 0 0 0 1 0 0 0
POINTS 1408
DATA ascii
-32.13628 -5.5696692 1.7092973 9
-32.153603 -5.1002097 1.706171 9
-32.096138 -6.513207 2.865186 10
-32.124767 -5.5676994 2.8523853 10
-32.146126 -5.0990467 2.8475282 10
-32.114037 -5.0939808 3.9922922 11
-32.091469 -6.0358453 4.0092735 11
-32.105549 -5.5643945 4.0007019 11
-32.093594 -6.036273 5.17203 12
-32.091972 -5.562067 5.1584477 12
-32.112331 -5.0937324 5.149508 12
-20.362278 8.6219301 0.38524929 8
-20.344177 8.6142998 1.1571931 9
-20.343481 8.6140394 1.9322436 10
-20.374809 8.627327 2.7162576 11
-20.373453 8.6267843 3.5037885 12
-19.608118 8.635602 0.37325269 8
-19.613838 8.6381512 1.122543 9
-19.61186 8.6373119 1.8742815 10
-19.63006 8.6453514 2.6331797 11
-19.621918 8.6418018 3.3954513 12
-18.907412 8.6521902 0.36220673 8
-18.908236 8.6525974 1.0891119 9
-18.912069 8.6543827 1.8190343 10
-18.925304 8.6604671 2.5549929 11
-18.924555 8.6601534 3.2958739 12
-18.474169 22.661879 0.5072397 8
-18.484425 22.674494 1.5300429 9
-18.250139 8.6694498 0.35192931 8
-18.060488 15.689412 0.41574526 8
-18.014664 22.755346 0.50345188 8
-18.249153 8.6690121 1.0581638 9
-18.05908 15.68823 1.2519033 9
-18.014318 22.754953 1.5178603 9
-18.251024 8.6699314 1.7671871 10
-18.271563 8.6797142 2.4832354 11
-18.27038 8.6791821 3.2032363 12
-17.629656 8.6861372 0.34229973 8
-17.692984 15.820009 0.41240683 8
-17.682022 23.003786 0.5032385 8
-17.614347 8.6786299 1.0284296 9
-17.698425 15.824912 1.2424226 9
-17.680405 23.001722 1.5172273 9
-17.628925 8.6858377 1.7187929 10
-17.639349 8.6910009 2.4139552 11
-17.631994 8.6874094 3.1127808 12
-17.369457 16.215179 0.41282144 8
-17.460436 23.400669 0.50634038 8
-17.361219 16.207525 1.2428503 9
-17.461098 23.40159 1.5269028 9
-17.042141 8.7020149 0.33325067 8
-17.050558 8.7063398 1.0026619 9
-17.038748 8.7003441 1.673202 10
-17.056065 8.7092104 2.3509343 11
-17.063366 8.7129698 3.0340862 12
-16.489792 8.7197886 0.32483143 8
-16.493471 8.7217617 0.97712094 9
-16.469324 8.709033 1.6293405 10
-16.5047 8.7277565 2.2919047 11
-16.499336 8.7249517 2.9556839 12
-15.955051 8.7315464 0.31670213 8
-15.952901 8.7303982 0.95237994 9
-15.960084 8.7343569 1.5911455 10
-15.963786 8.7364111 2.2339113 11
-15.967086 8.738245 2.8824348 12
-15.511583 8.7797041 0.31033626 8
-15.533011 9.0876503 0.31329784 8
-15.554514 9.4014521 0.31637493 8
-15.556079 9.7089119 0.31916171 8
-15.530441 8.7903976 0.9345507 9
-15.521595 9.0810041 0.9417035 9
-15.536222 9.3904343 0.95060581 9
-15.54646 9.7029438 0.95958835 9
-15.502504 8.7746258 1.557868 10
-15.521467 9.0809603 1.5726295 10
-15.530293 9.3868847 1.5869284 10
-15.529212 9.6922169 1.6007824 10
-15.510756 8.7793226 2.1878576 11
-15.507695 9.0729389 2.2054706 11
-15.513653 9.3768644 2.2251277 11
-15.519067 9.6859226 2.2455077 11
-15.494875 8.7703714 2.8195474 12
-15.495206 9.0656672 2.8428767 12
-15.513525 9.3768167 2.8705127 12
-15.522093 9.6878405 2.8974025 12
-15.525267 10.001238 2.9243567 12
-11.278769 -2.4578559 -0.20148899 7
-11.351529 -1.6350482 -0.20017514 7
-11.415679 -0.81799263 -0.19976702 7
-11.404358 3.0026218e-05 -0.19907863 7
-11.397076 0.81675911 -0.19949509 7
-11.327933 1.6320492 -0.19986546 7
-10.818033 -4.9487166 -0.20776753 7
-11.014902 -4.1153054 -0.20530759 7
-11.164348 -3.2837884 -0.20315009 7
-10.803472 1.8735988 1.346387 11
-10.805867 1.874022 1.7371639 12
-10.592319 -5.7935038 -0.21093249 7
-10.745743 4.9194522 -0.20668142 7
-10.504609 5.7508364 -0.20953071 7
-10.77599 1.8688126 0.1908448 8
-10.764045 1.8667506 0.57253075 9
-10.769249 1.8676606 0.9562903 10
-10.31586 -6.6407032 -0.2144364 7
-10.21046 6.5799847 -0.21262883 7
-10.036081 1.8889331 0.178203 8
-10.024863 1.8868316 0.53460479 9
-10.024332 1.8867397 0.89246577 10
-10.04365 1.89038 1.2549609 11
-10.043373 1.8903365 1.6187997 12
-9.6168022 -8.3473854 -0.22281809 7
-9.9915047 -7.4922037 -0.21839222 7
-9.9024181 7.434742 -0.21686493 7
-9.2102432 -9.2266273 -0.22825912 7
-9.3509045 2.0388241 -0.16716833 7
-9.3698425 2.7577899 -0.1706576 7
-9.3896427 3.5108559 -0.17521772 7
-9.5190611 8.2745523 -0.22100462 7
-9.3526535 2.21558 0.16771755 8
-9.3590078 2.574096 0.16935517 8
-9.3818913 2.9817502 0.17172395 8
-9.3865499 3.3959181 0.17410082 8
-9.3881483 3.7421715 0.17623572 8
-9.3442125 2.2134292 0.50329489 9
-9.3574476 2.573426 0.50862944 9
-9.3664351 3.0141766 0.51566041 9
-9.3762455 3.4298024 0.5231753 9
-9.39499 3.744993 0.52996415 9
-9.3393908 2.212465 1.0091343 10.5
-9.3526831 2.5723062 1.0199165 10.5
-9.3541365 2.9730194 0.85877919 10
-9.3696737 3.3897324 0.87180912 10
-9.3904047 3.7431679 0.88442791 10
-9.3360405 2.2114768 1.5198923 12
-9.3392487 2.5686123 1.5344135 12
-9.3583813 3.0302629 1.3830646 11.5
-9.3697872 3.4275274 1.4026711 11.5
-9.3797703 3.7129526 1.3582951 11.333333
-9.3704128 3.8128912 1.6024338 12
-9.1037178 9.1351423 -0.2260998 7
-8.7483282 -10.114861 -0.23431504 7
-8.6317997 9.9992933 -0.23170196 7
-8.2308502 -11.01679 -0.24113557 7
-8.1022348 10.868647 -0.23790264 7
-7.644815 -11.920882 -0.24852218 7
-7.655211 15.655774 0.30198413 8
-7.5101223 11.740947 -0.24470893 7
-7.3785782 15.653814 0.29985192 8
-7.4262786 12.577582 0.76383621 9
-7.3465247 10.310534 1.1064258 10
-7.2566257 4.9784045 1.3938185 12
-6.9946489 -12.839891 -0.25681549 7
-6.8685894 12.646422 -0.25279492 7
-6.8326278 15.641206 0.29569107 8
-6.8590612 12.628927 0.75145364 9
-7.0548792 10.365581 1.0957289 10
-6.8407488 -2.0658555 1.3883017 13
-6.9286456 -1.7719764 1.3896922 13
-7.0141358 -1.4067189 1.3902452 13
-7.0917096 -0.96998596 1.3911877 13
-7.1374059 -0.56296384 1.3916808 13
-7.1712885 -0.17967133 1.3944311 13
-7.1719913 0.15403236 1.3946214 13
-7.1418867 0.5635345 1.3928593 13
-7.0879459 0.96978176 1.3909762 13
-7.016232 1.4079382 1.3914406 13
-6.9287286 1.7732075 1.3907067 13
-6.8300524 2.0642841 1.3873143 13
-7.1445284 5.1305933 1.3931407 12
-6.9392109 5.3698649 1.3897269 12
-6.5682273 15.642396 0.29388162 8
-6.5336857 12.670307 0.74538016 9
-6.5825524 10.456913 1.0797386 10
-6.6183224 -2.6546009 1.3853174 13
-6.7798872 -2.2609847 1.388422 13
-6.7770739 2.2620435 1.3891577 13
-6.6174197 2.65711 1.3867249 13
-6.460228 2.9874701 1.3839564 13
-6.7780499 5.5626411 1.3886524 12
-6.5666041 5.7945046 1.3870623 12
-6.1474781 13.545512 -0.2614072 7
-6.173511 15.633391 0.29112944 8
-6.2009444 12.687306 0.73830396 9
-6.2020354 10.508291 1.0661957 10
-6.3639016 3.13901 1.3796531 13
-6.2303081 3.4133778 1.3814409 13
-6.0387144 3.7135668 1.3783071 13
-6.1696324 6.1655049 1.3813164 12
-5.8985834 -12.94973 -0.25018561 7
-5.7915001 15.641468 0.28885362 8
-5.8754525 12.705161 0.73181361 9
-5.8340936 10.564738 1.0544674 10
-5.6055956 -2.004153 1.3733226 14
-5.6758718 -1.8031397 1.3741592 14
-5.7925572 -1.4155165 1.3762548 14
-5.8790674 -0.99800068 1.3765235 14
-5.9307785 -0.61764449 1.376639 14
-5.9648857 -0.21360466 1.3780638 14
-5.9644561 0.19220321 1.378065 14
-5.9316869 0.61806971 1.3773421 14
-5.8797779 0.99862629 1.3774887 14
-5.7861652 1.4151329 1.3758988 14
-5.6751757 1.8049849 1.3755243 14
-5.600852 2.0048115 1.3738791 14
-5.9302325 3.885263 1.378363 13
-5.7548137 4.1342368 1.3777694 13
-5.9602747 6.3381562 1.377628 12
-5.7897243 6.4744453 1.3753204 12
-5.2174077 -0.37410066 -0.27411962 6
-5.2197208 0.18727289 -0.27392426 6
-5.3516617 14.45665 -0.27100554 7
-5.4115825 15.637122 0.28653875 8
-5.4526033 12.735252 0.72420186 9
-5.4286294 10.624521 1.0424255 10
-5.3569579 -2.5756195 1.3710744 14
-5.5113072 -2.2183218 1.3706688 14
-5.508975 2.2204323 1.3720453 14
-5.3506985 2.5766907 1.3718195 14
-5.2036247 2.8519564 1.370424 14
-5.5889549 4.3268352 1.3740374 13
-5.3872814 4.5537949 1.3714758 13
-5.4446669 6.7396231 1.3718002 12
-5.2604079 6.8563013 1.368108 12
-5.2726636 9.0853119 1.2885903 11
-4.8457828 -2.2173228 -0.27923015 6
-4.9677968 -1.8567011 -0.27788499 6
-5.0638127 -1.4900818 -0.2765801 6
-5.1340203 -1.1193749 -0.27533725 6
-5.1783032 -0.74630928 -0.27415437 6
-5.178236 0.74669772 -0.27424431 6
-5.1046929 1.1138911 -0.27390558 6
-5.0279937 1.4811777 -0.27481455 6
-4.9258504 1.8436192 -0.27578175 6
-4.815167 2.2071195 -0.27776593 6
-4.8656735 -9.9177942 0.19100888 8
-5.0399442 15.642759 0.28455269 8
-5.0401731 12.77008 0.71762741 9
-4.9437366 10.695273 1.0293143 10
-4.8179646 -1.6454407 1.363032 15
-4.896452 -1.4028906 1.3642443 15
-4.9998207 -0.99691594 1.3657095 15
-5.0677824 -0.6196968 1.3680499 15
-5.0980349 -0.2008608 1.3672348 15
-5.0964622 0.18259171 1.3669623 15
-5.0636277 0.60105693 1.3668804 15
-5.0032525 0.97960305 1.3668984 15
-4.8926172 1.4033434 1.3647784 15
-4.813272 1.6846077 1.3670456 15
-5.0879436 3.0305157 1.367847 14
-4.880765 3.3512495 1.3674371 14
-5.180932 4.7760015 1.3696796 13
-4.9613996 4.9845333 1.3671857 13
-5.0424242 7.0120792 1.367402 12
-4.9456205 9.1133242 1.2718728 11
-4.7395911 -12.744477 -0.2393205 7
-4.5539541 -2.9318027 -0.28383017 6
-4.703877 -2.5732832 -0.2809599 6
-4.6678352 2.5588722 -0.27916825 6
-4.5153155 2.9140613 -0.28185269 6
-4.4734726 15.379771 -0.28168106 7
-4.6003509 -9.9071712 0.1888016 8
-4.6684899 15.630444 0.28241989 8
-4.7283459 12.777497 0.71210927 9
-4.5339808 12.812575 0.71034807 9
-4.5937576 10.734989 1.0199871 10
-4.4370027 -2.4688177 1.3586752 15
-4.5853596 -2.1914804 1.3604481 15
-4.751483 -1.8342317 1.363699 15
-4.734334 1.8499659 1.3627661 15
-4.5813727 2.1935704 1.3619864 15
-4.4351106 2.4731727 1.3613096 15
-4.7419696 3.5123072 1.3627471 14
-4.5374379 3.7634375 1.3615524 14
-4.7205157 5.1689367 1.3604891 13
-4.5367875 5.3395691 1.3619015 13
-4.7445297 7.1968474 1.3644705 12
-4.5518703 7.2960548 1.3612487 12
-4.5999184 9.168108 1.2582077 11
-4.2534614 -3.4341149 -0.2867189 6
-4.2206569 3.4181473 -0.28505731 6
-4.2550511 -9.8933992 0.18605565 8
-4.1806607 15.61327 0.2797955 8
-4.2252836 12.807395 0.70485151 9
-4.2502208 10.774735 1.0117208 10
-4.3419352 -2.6230674 1.357373 15
-4.3215761 2.6382394 1.3575791 15
-4.073473 2.9958758 1.3556684 15
-4.3500943 3.9547853 1.3575071 14
-4.1439056 4.1653233 1.3567773 14
-4.226378 5.5529647 1.3561381 13
-4.0445638 5.6853418 1.3557631 13
-4.2181635 7.4558454 1.3558737 12
-4.2240043 9.2287416 1.2448769 11
-3.68433 -12.590489 -0.23114944 7
-3.6720912 -4.2436109 -0.29427749 6
-3.9229999 -3.9287682 -0.29108092 6
-3.8729863 3.8939142 -0.28807938 6
-3.6271586 4.2108574 -0.29152295 6
-3.7928619 -9.8671484 0.1825072 8
-3.8209605 15.603528 0.27805278 8
-3.8173988 -6.657268 0.66931027 10
-3.8270059 12.822073 0.69929314 9
-3.7983563 -4.7543302 0.9614566 12
-3.8263228 10.818232 1.0022695 10
-3.9551735 3.1564832 1.3563443 15
-3.7527273 3.3644135 1.3512454 15
-3.9266684 4.3643866 1.3553747 14
-3.7543488 4.4861012 1.3505799 14
-3.8140495 5.8195539 1.3520453 13
-3.9725678 7.5818033 1.3545957 12
-3.7749722 7.6657519 1.3522928 12
-3.8193786 9.2958097 1.2324958 11
-3.4038048 -4.5526667 -0.29815865 6
-3.2523263 -0.95746022 -0.2964595 5
-3.3431473 -0.60501796 -0.29733181 5
-3.3811731 -0.24259786 -0.2965388 5
-3.3719375 0.12086537 -0.29540834 5
-3.3200743 0.60147423 -0.29547891 5
-3.2713909 0.96469337 -0.29852796 5
-3.3532965 4.5091305 -0.29475281 6
-3.5008771 16.298733 -0.29325521 7
-3.42643 -9.8478889 0.17991009 8
-3.3483837 15.591722 0.27598926 8
-3.5858314 15.606398 0.2771444 8
-3.2509978 -8.0248814 0.45157859 9
-3.384923 -6.7116594 0.6553992 10
-3.4331656 12.831772 0.69412684 9
-3.3174803 -5.6904707 0.80634975 11
-3.3952081 -4.8577285 0.93627232 12
-3.4086399 10.858879 0.99396408 10
-3.5469081 3.5672638 1.3481272 15
-3.3594437 3.7361474 1.3467684 15
-3.4153526 4.731854 1.3471104 14
-3.239532 4.8450336 1.3451427 14
-3.5258291 5.9845567 1.3494301 13
-3.3001871 6.0899138 1.3456173 13
-3.3980293 7.7952962 1.3456382 12
-3.4166954 9.3453712 1.2202396 11
-3.1029177 -4.8336992 -0.30136454 6
-2.9696884 -1.7659339 -0.30221048 5
-3.1147034 -1.4256172 -0.2994639 5
-3.1908481 -1.1930076 -0.29784453 5
-3.1831889 1.1927323 -0.29755321 5
-3.1132703 1.4287614 -0.29985446 5
-2.9452939 1.7572672 -0.30041844 5
-3.0597239 4.7965441 -0.29841435 6
-2.9915302 -9.8227177 0.17705582 8
-2.8850811 15.594958 0.27444267 8
-3.1183805 15.604752 0.27538615 8
-3.027524 -8.0432005 0.44818687 9
-3.0165949 -6.7407217 0.64378768 10
-3.0131147 -5.749608 0.79454339 11
-3.0447631 12.841252 0.68959379 9
-2.9575856 -4.9617138 0.91229182 12
-3.0348225 10.881761 0.9865756 10
-3.1061802 3.937983 1.3439062 15
-2.9043348 4.0881147 1.3436019 15
-2.987 4.9914751 1.3425536 14
-3.0107756 6.212822 1.3411138 13
-2.9953783 7.9342308 1.3419335 12
-3.0226831 9.3993053 1.2106855 11
-2.6954348 -12.443265 -0.22459111 7
-2.4444277 -5.356926 -0.30914193 6
-2.7852769 -5.1059055 -0.30525139 6
-2.4869595 -2.4898455 -0.30759734 5
-2.7122779 -2.1896782 -0.30487737 5
-2.424211 -0.62098432 -0.30723324 4
-2.4817052 -0.2675764 -0.30658534 4
-2.4696808 0.22173132 -0.30506849 4
-2.414377 0.61989361 -0.30642608 4
-2.6833971 2.1770546 -0.30264616 5
-2.4619291 2.4800255 -0.30582312 5
-2.741483 5.0635953 -0.302001 6
-2.4290364 17.222813 -0.30604038 7
-2.6427679 -9.7966862 0.17485763 8
-2.5394576 15.589039 0.27330354 8
-2.6400609 -8.0417452 0.44127786 9
-2.6080918 -6.7788582 0.63299406 10
-2.6026902 -5.8137217 0.77948803 11
-2.6620719 12.854669 0.68589658 9
-2.6117041 -5.0403681 0.89629579 12
-2.5876973 -3.875464 1.0726724 14
-2.5238669 9.448328 1.1989968 11
-2.5835178 10.905515 0.97861314 10
-2.6350052 4.2445064 1.3385705 15
-2.6920862 5.1466999 1.3402019 14
-2.4983923 5.223825 1.3359196 14
-2.6378615 6.3665767 1.3384197 13
-2.4729702 6.418963 1.3357952 13
-2.6155138 8.0413818 1.3377837 12
-2.7366118 9.4283552 1.2036691 11
-2.0890973 -5.6044869 -0.31413731 6
-2.1374555 -2.8568392 -0.3119092 5
-2.3085148 -2.6664786 -0.30829507 5
-2.1310141 -1.3727734 -0.31125659 4
-2.3179355 -0.9632045 -0.30803007 4
-2.315259 0.9647544 -0.30837542 4
-2.091594 1.4086913 -0.31035459 4
-2.291795 2.6663575 -0.30765218 5
-2.1104145 2.8447309 -0.30988398 5
-2.2247157 5.4347901 -0.30815417 6
-2.2280407 -9.766861 0.17252164 8
-2.195164 15.574654 0.27213722 8
-2.2024448 -8.0426617 0.43461061 9
-2.2585933 -6.7931581 0.62379688 10
-2.2298968 -5.8546395 0.76650268 11
-2.2796538 12.84914 0.68179697 9
-2.2207539 -5.103755 0.87865746 12
-2.1183889 -4.0158005 1.0446029 14
-2.3086762 -3.9571233 1.0541978 14
-2.2066951 9.4736652 1.1925435 11
-2.2203856 10.928632 0.97374493 10
-2.3693349 4.3798585 1.3335673 15
-2.194155 4.4677348 1.3330877 15
-2.2092307 5.3374777 1.3327374 14
-2.212657 6.4937682 1.3323374 13
-2.2000525 8.1268005 1.3318083 12
-1.7019901 -5.7980905 -0.31749752 6
-1.8403237 -3.1015716 -0.31554219 5
-1.8162047 -1.8176283 -0.31538367 4
-1.6078862 -1.2055581 -0.31743959 3
-1.7491335 -0.95786995 -0.31571576 3
-1.8921965 -0.59463269 -0.31429493 3
-1.9460732 -0.28097597 -0.3112469 3
-1.9540043 0.28251579 -0.31284779 3
-1.8746796 0.59086293 -0.31211662 3
-1.7386559 0.9570778 -0.31514266 3
-1.7981678 1.8160777 -0.31437925 4
-1.8136032 3.090656 -0.31360066 5
-1.6665941 5.7621794 -0.31449479 6
-1.8586181 -9.7362099 0.17059436 8
-1.8527561 15.551532 0.27096722 8
-1.8081638 -8.0488729 0.4298597 9
-1.8754597 -6.8111582 0.61545318 10
-1.7988548 -5.8937292 0.75381368 11
-1.7628093 12.856914 0.67797703 9
-1.8212949 -5.1621447 0.86394966 12
-1.8295835 -4.0814795 1.0291017 14
-1.8025254 -3.6641498 1.0903577 15
-1.7878233 9.5040989 1.1854994 11
-1.7765964 10.933055 0.96703023 10
-1.8119236 4.6147146 1.3275476 15
-1.8168287 5.4671783 1.3288685 14
-1.7591103 6.6019773 1.3265215 13
-1.7740066 8.197753 1.3266628 12
-1.3091024 -6.0168748 -0.32367304 6
-1.4035077 -3.3844728 -0.32070363 5
-1.3733368 -2.2224436 -0.32067189 4
-1.2223047 -1.631318 -0.3217687 3
-1.4249717 -1.4269229 -0.31894007 3
-1.3055385 -1.0153468 -0.32088104 2
-1.3472509 -0.70419151 -0.32020715 1.5
-1.4730308 -0.32191902 -0.31787357 1.5
-1.4721646 0.32263455 -0.31843841 1.5
-1.3074187 0.66112316 -0.31896594 1.3333334
-1.2971039 1.0195569 -0.32148448 2
-1.4576918 1.3728335 -0.31824866 3
-1.2052294 1.6325576 -0.32120347 3
-1.3871261 2.1876817 -0.31836244 4
-1.3753281 3.3722298 -0.31853393 5
-1.2713232 5.9636569 -0.3196505 6
-1.2487658 18.16077 -0.32035297 7
-1.4263177 -9.7116089 0.16881463 8
-1.4017192 15.537817 0.26989925 8
-1.4152738 -8.0234413 0.42439151 9
-1.4312477 -6.817277 0.60671079 10
-1.4209132 -5.9172382 0.74423563 11
-1.3429757 12.857539 0.67530537 9
-1.3908502 -5.2119417 0.8510772 12
-1.564888 -5.1907315 0.85539275 12
-1.4435097 -4.6238885 0.93819869 13
-1.4028742 -4.1586652 1.0096563 14
-1.4183614 -3.7550466 1.0716211 15
-1.406484 9.5267735 1.1803426 11
-1.4192735 10.947949 0.96378529 10
-1.404364 4.736598 1.3225031 15
-1.415548 5.5611696 1.3233268 14
-1.3742528 6.6708002 1.3221346 13
-1.4262036 8.2402668 1.3225486 12
-0.80258137 -3.6688964 -0.32876328 5
-1.052268 -3.5718536 -0.32585493 5
-1.0173738 -2.4478722 -0.32510519 4
-0.9870981 -1.8033462 -0.32505301 3
-0.98411196 -1.3629587 -0.32584053 2
-1.0146397 -0.99747735 -0.32380465 1
-1.056144 -0.69323874 -0.32470304 0.25
-1.1703095 -0.25597867 -0.32046935 0
-1.1732864 0.25753132 -0.32223648 0
-1.0425093 0.67910403 -0.32136452 0.25
-0.99409968 0.99680668 -0.32292315 1
-0.98476183 1.3374648 -0.32315445 2
-0.96527421 1.8012003 -0.3237052 3
-0.99365401 2.4458339 -0.32377443 4
-1.0222498 3.5543747 -0.32311353 5
-0.85665786 6.1436143 -0.32511535 6
-1.0359814 -9.6830387 0.16736355 8
-0.95429772 15.529726 0.26915777 8
-1.033446 -8.0138235 0.42078334 9
-1.0303454 -6.8212519 0.60073036 10
-1.0045813 -5.9226151 0.73458749 11
-0.97132784 12.844983 0.67287487 9
-1.0238699 -5.2331815 0.84136659 12
-1.0362816 -4.6705356 0.92634636 13
-1.0345814 -4.2074556 0.99640173 14
-1.0461503 -3.8180959 1.0565951 15
-1.0262282 9.5315752 1.1749719 11
-0.98358703 10.952077 0.95987403 10
-1.1286613 4.7998199 1.3192623 15
-0.95436245 4.8280892 1.3167508 15
-1.0597075 5.6289215 1.320598 14
-0.98803586 6.7216353 1.3186017 13
-0.97954428 8.28053 1.3185667 12
-0.66924989 -2.6020606 -0.32965663 4
-0.52766049 -2.0419142 -0.33328471 3
-0.60656339 -1.7259177 -0.32949388 2.3333333
-0.61560839 -1.3627722 -0.32948399 1.25
-0.65813261 -1.047066 -0.33096156 0
-0.65782559 1.0697151 -0.32449326 0.25
-0.61609489 1.4253772 -0.32755357 1.5
-0.57731014 1.8535606 -0.32684734 2.6666667
-0.42682281 2.0489831 -0.33013362 3
-0.63939834 2.5829806 -0.3260088 4
-0.64228404 3.684443 -0.32676396 5
-0.42051968 6.2609401 -0.32881218 6
-0.61910492 15.502141 0.26837111 8
-0.79944533 -7.9904714 0.41809255 9
-0.73289555 -6.8142929 0.59666324 10
-0.66102314 -5.9318428 0.72966826 11
-0.60225421 12.840374 0.67142195 9
-0.64213628 -5.239625 0.8326605 12
-0.64456326 -4.6920633 0.91702116 13
-0.62849998 -4.2315574 0.98382962 14
-0.63066262 -3.8601708 1.043862 15
-0.61430693 9.5348282 1.1709281 11
-0.62956488 10.95479 0.95782244 10
-0.56998503 4.8704648 1.3117729 15
-0.60370827 5.6624422 1.3125218 14
-0.59925568 6.7364874 1.3123953 13
-0.59142959 8.2852221 1.313279 12
-0.37473103 -1.6855959 -0.33423537 2
-0.31775442 -1.3163304 -0.33391333 0.5
-0.3316741 1.1881597 -0.32867873 0
-0.17279036 1.3381935 -0.33285698 0.5
-0.19473723 1.7017804 -0.33147034 2
-0.206185 2.0961046 -0.3320609 3
-0.18698296 2.6960375 -0.33301353 4
-0.13137841 3.7912562 -0.33314583 5
-0.17541826 15.496156 0.26805997 8
-0.23446965 12.832953 0.67037743 9
-0.39410871 -3.8719318 1.0382158 15
-0.20447677 9.5362663 1.1688402 11
-0.19788201 10.950162 0.95588171 10
-0.20223266 4.8835239 1.3069562 15
-0.19685312 5.6736736 1.3081564 14
-0.21281087 6.750412 1.3103547 13
-0.17538276 8.270462 1.3077388 12
0.37027481 -6.5259438 -0.34419942 6
0.24200392 -3.8925722 -0.34195992 5
0.23994316 -2.7650266 -0.34121391 4
0.20924988 -2.1349726 -0.33976346 3
0.19814956 -1.7358447 -0.33960921 2
0.18156108 -1.3547696 -0.33892012 0.5
0.27952603 1.1899304 -0.34032375 0
0.17073777 1.3513635 -0.33826882 0.75
0.15554184 1.6862866 -0.33878273 2
0.16343099 2.0861678 -0.33893228 3
0.27415949 2.7087793 -0.33989573 4
0.26343685 3.8248818 -0.33877209 5
0.0071921218 6.3378239 -0.33256993 6
0.11264557 19.043163 -0.32424057 7
0.1935686 15.437853 0.2766802 8
0.15255256 12.775365 0.67642003 9
0.36638129 -5.20296 0.82248926 12
0.32709661 -4.6692824 0.90594852 13
0.32448617 -4.2234287 0.97377068 14
0.32100353 -3.8404086 1.0282049 15
0.20371179 9.4724493 1.1707646 11
0.240281 10.874576 0.95862091 10
0.16901414 4.8238811 1.3035725 15
0.2839753 5.5944648 1.3023447 14
0.082531519 5.6157188 1.3055608 14
0.15444838 6.6736264 1.3059694 13
0.19977739 8.1978827 1.3068312 12
0.69485629 -12.002711 -0.2130046 7
0.46463344 -6.5388045 -0.34522632 6
0.54967892 -3.8906541 -0.34469575 5
0.68053073 -2.7202048 -0.34514776 4
0.56199539 -2.1058421 -0.34606472 3
0.57011116 -1.6672064 -0.34326482 2
0.63159019 -1.3451543 -0.34548798 1
0.5753541 -1.1436651 -0.34523752 0
0.5581224 1.0909504 -0.34394372 0
0.65195811 1.3584734 -0.34491143 1.25
0.52448797 1.6242744 -0.34174633 2
0.54409337 2.0367961 -0.34233934 3
0.66829199 2.6595483 -0.34292629 4
0.5417676 3.8125238 -0.34053686 5
0.47380748 6.4558363 -0.33988547 6
0.68363518 -9.5127935 0.16344219 8
0.63582355 15.417803 0.27637896 8
0.62084752 -7.8908305 0.41175857 9
0.57500285 -6.7265453 0.58752233 10
0.56251806 -5.8650074 0.72019333 11
0.65594423 12.7501 0.67583793 9
0.47839162 -5.2033663 0.82400876 12
0.66313648 -5.182158 0.82390934 12
0.5589155 -4.6441116 0.90564823 13
0.57950586 -4.1975036 0.97455275 14
0.58054709 -3.8161559 1.0303569 15
0.61103463 9.4471092 1.1698389 11
0.5921014 10.872117 0.95951462 10
0.60663974 4.7729716 1.3000104 15
0.56420326 5.5606976 1.2999507 14
0.6072337 6.6179752 1.3005915 13
0.57975823 8.1431961 1.3010725 12
0.86570305 -11.986148 -0.21295524 7
0.94359887 -6.5886073 -0.35069615 6
0.97436261 -3.8586981 -0.34962261 5
1.0742869 -2.6339302 -0.3505986 4
1.0403956 -1.9429632 -0.35085642 3
1.036222 -1.4538655 -0.34971493 2
0.99317408 -1.0449344 -0.34827635 0.75
1.1144385 -0.63588274 -0.35032207 0
1.1353478 0.52873689 -0.35029379 0
0.98821306 0.99843282 -0.34966186 0.75
1.0292068 1.4063224 -0.35039455 2
0.98984873 1.898361 -0.3482731 3
1.0649559 2.5768137 -0.34906343 4
0.96957183 3.7965961 -0.34705552 5
0.95124638 6.4986 -0.34509623 6
0.98853731 -9.4852276 0.163366 8
1.1876172 15.380402 0.27608544 8
0.95765072 -7.8568954 0.41172352 9
1.0059048 -6.681345 0.58794516 10
1.0007719 -5.8154955 0.72125936 11
1.0671759 12.723483 0.6757648 9
0.97521639 -5.1311388 0.82382649 12
0.92197084 -4.593442 0.90714002 13
0.98166186 -4.1320939 0.97687316 14
0.98806757 -3.748683 1.0350902 15
1.0191442 9.4248753 1.1714535 11
1.0205759 10.837369 0.9592486 10
0.98942465 4.6827197 1.2937814 15
0.97936749 5.4806919 1.2953362 14
0.97639436 6.5548458 1.2970461 13
1.0142999 8.0741758 1.2970936 12
1.4353298 -6.617919 -0.35698342 6
1.400982 -3.7915134 -0.35515711 5
1.4570893 -2.4890754 -0.35599354 4
1.4444052 -1.6975545 -0.35584772 3
1.2504642 -1.2822475 -0.35075003 2
1.4192439 -1.0128484 -0.35468221 1.8
1.3227764 -0.55610055 -0.35417917 0.66666669
1.3767653 -0.22723976 -0.35509881 0.5
1.3650565 0.17322166 -0.35262984 0.5
1.3730321 0.54220712 -0.35323277 1
1.4110744 0.95788842 -0.35398152 1.8
1.4002836 1.3844244 -0.35320565 2.5
1.3705872 1.6883916 -0.35356736 3
1.5321407 2.3697243 -0.35341766 4
1.3569171 2.4768777 -0.35354546 4
1.3948491 3.7218814 -0.35210219 5
1.4406712 6.5208006 -0.35111842 6
1.5098507 19.412827 -0.33206889 7
1.3963799 -9.45327 0.16359985 8
1.408095 15.362296 0.27601141 8
1.3796598 -7.8122611 0.41256598 9
1.4214917 -6.6291933 0.58992523 10
1.3766967 -5.761013 0.72396046 11
1.4331434 12.698319 0.67623347 9
1.3631822 -5.070013 0.82825071 12
1.3497889 -4.5119743 0.91208076 13
1.4085701 -4.0418811 0.98482424 14
1.4131093 -3.6380842 1.0425835 15
1.4257061 9.3812847 1.1725819 11
1.3732277 10.822332 0.96124625 10
1.3841078 4.5576839 1.288025 15
1.4108487 5.3614707 1.2902395 14
1.3761852 6.4484968 1.2907119 13
1.4703922 7.9676242 1.291401 12
1.2996501 8.0060873 1.2927301 12
1.7176942 -11.890305 -0.21312168 7
1.9342433 -6.6041198 -0.36295071 6
1.8221321 -3.6683176 -0.36042845 5
1.8067371 -2.2710207 -0.35875553 4
1.7546644 -1.3900394 -0.35844719 3
1.971889 -1.1005539 -0.36184514 3
1.7212657 -0.5494628 -0.35817239 2
1.7796359 -0.20897552 -0.35572931 2
1.7842736 0.21947254 -0.35867855 2
1.6855221 0.56321377 -0.35565704 2
1.9672658 1.0430759 -0.36130795 3
1.7501128 1.3343906 -0.35808858 3
1.7984862 2.2092745 -0.35710892 4
1.9543662 3.5481608 -0.35916409 5
1.6778028 3.6484575 -0.35590535 5
1.9340171 6.4923272 -0.35641798 6
1.7692176 -9.4073305 0.16379534 8
1.7393464 15.337297 0.27605101 8
1.7454458 -7.7628016 0.41375235 9
1.7733163 -6.5724211 0.59231341 10
1.7753489 -5.6926804 0.72893119 11
1.7993487 12.668203 0.67699397 9
1.7884263 -4.9824271 0.83517796 12
1.6464529 -4.4446068 0.91787428 13
1.843241 -4.389854 0.92212999 13
1.7658032 -3.9326587 0.99225646 14
1.754472 -3.5353484 1.054528 15
1.7669117 9.3505459 1.1758957 11
1.8016332 10.772424 0.96234876 10
1.8768234 4.3557358 1.2825963 15
1.6757244 4.4532604 1.2865697 15
1.9464021 5.1600108 1.2834482 14
1.7609153 5.2324419 1.2849067 14
1.7521183 6.3246322 1.2849429 13
1.8061328 7.8692737 1.2870716 12
2.2412593 -3.5138259 -0.36683294 5
2.0671377 -2.0940323 -0.36394948 4
2.2823794 -1.8638597 -0.36516908 4
2.0406971 -0.95438957 -0.36139533 3
2.1651714 -0.61299372 -0.36252034 3
2.2594512 -0.25837725 -0.3667708 3
2.2383425 0.19776386 -0.36343268 3
2.1643641 0.59750646 -0.36425754 3
2.0499396 0.90259951 -0.3632201 3
2.2771571 1.8018477 -0.36398271 4
2.0546591 2.0267484 -0.36155072 4
2.2295043 3.4336145 -0.36310861 5
2.1450508 -9.3654919 0.16432752 8
2.1831498 15.313536 0.27646467 8
2.172709 -7.7102919 0.41647965 9
2.1609032 -6.5079117 0.59664756 10
2.0459006 -5.6289387 0.73203003 11
2.2573092 -5.5818701 0.7359907 11
2.1671567 12.63973 0.67840403 9
2.1775029 -4.8823957 0.843656 12
2.2185254 -4.2769723 0.93381393 13
2.1496432 -3.8114393 1.0074338 14
2.175669 9.2965717 1.1797692 11
2.1919668 10.723663 0.96432012 10
2.203337 4.1800938 1.278303 15
2.2427328 5.0112457 1.2782084 14
2.2517416 6.1332316 1.2793188 13
2.1660295 7.7549257 1.2834923 12
2.5786645 -11.816763 -0.21478194 7
2.4434781 -6.565732 -0.36967784 6
2.4970424 -3.3601935 -0.36869711 5
2.7452729 -3.1911223 -0.37095127 5
2.4965487 -1.6268568 -0.36948091 4
2.6514723 -1.3475775 -0.3694987 4
2.7926803 -1.0598429 -0.3712967 4
2.744185 1.0943854 -0.36991614 4
2.5332952 1.4655155 -0.36670938 4
2.7429638 3.1232698 -0.3688882 5
2.4850764 3.2806473 -0.36515915 5
2.4415097 6.4547973 -0.36331114 6
2.7493012 9.1822233 -0.1659735 7
2.4230239 10.857017 -0.19174705 7
2.5591547 -9.3198681 0.16521797 8
2.6793799 9.1877041 0.16988072 8
2.4271424 10.874508 0.19832686 8
2.5812581 -7.640069 0.41925061 9
2.5489519 -6.4248657 0.60142112 10
2.5550742 -5.509284 0.74244988 11
2.6795831 9.1877031 0.50587982 9
2.4346492 10.906959 0.59095669 9
2.5863912 -4.7570038 0.85465711 12
2.6292856 -4.1339822 0.94978642 13
2.553606 -3.64554 1.025278 14
2.6434228 9.1858683 1.0111632 10.5
2.4824362 9.2485895 1.1831182 11
2.4535639 4.0222716 1.2743134 15
2.4451292 4.914217 1.2775353 14
2.4056544 7.6485028 1.2780216 12
2.9519715 -6.4768314 -0.37577683 6
2.9964578 -3.0177908 -0.37497959 5
2.8611126 -0.85685664 -0.37155268 4
2.9365685 -0.544406 -0.37221518 4
2.9817703 -0.22507001 -0.37283516 4
2.9767251 0.2694979 -0.37346068 4
2.8955126 0.69240326 -0.37241387 4
2.9805267 2.9355619 -0.37133142 5
2.9451187 6.3597856 -0.36919954 6
3.1405551 20.859882 -0.36020669 7
3.0072706 9.192852 0.17157803 8
3.006104 9.1886234 0.51094133 9
2.9881098 9.1891794 1.0223625 10.5
3.190098 9.1888819 1.3753868 11.5
3.4616127 -6.3510203 -0.38204175 6
3.229136 -2.8179481 -0.37811339 5
3.4302459 -2.5864203 -0.37924266 5
3.3250678 2.6299005 -0.37658852 5
3.4465413 6.2237716 -0.37499571 6
3.490278 9.1929655 -0.17055619 7
3.4908919 9.1941423 0.17426711 8
3.3436444 9.2031002 0.17356396 8
3.3422337 9.1988192 0.51709425 9
3.499686 9.2166786 0.52082121 9
3.419951 9.2049189 0.86483485 10
3.4384983 9.1866207 1.4453684 11.666667
3.3438184 9.2022657 1.2094461 11
3.9594476 -6.1714091 -0.38745767 6
3.7190232 -2.223026 -0.38304541 5
3.9652789 -1.825287 -0.38597342 5
3.9609129 1.7528976 -0.38449767 5
3.7180376 2.1524439 -0.381643 5
3.9515607 6.0607591 -0.38157499 6
3.764569 9.2076035 0.17618266 8
3.6444757 9.1972237 0.52257407 9
3.879878 9.2054405 0.52760756 9
3.8772407 9.1988792 0.87901092 10
3.6485226 9.2069349 0.87210977 10
3.6449852 9.1972361 1.5757629 12
3.8043938 9.2091494 1.349895 11.333333
3.9574199 9.2028341 1.957698 13
4.156549 -1.3953055 -0.38821533 5
4.2947173 -0.94408607 -0.38936916 5
4.3492494 -0.63346422 -0.38935292 5
4.3853354 -0.31993565 -0.38967061 5
4.3695941 0.24722873 -0.38811922 5
4.3404984 0.56066185 -0.38822427 5
4.2435985 1.0225142 -0.38758492 5
4.08708 1.4666027 -0.38541937 5
4.2833223 9.2225485 -0.17665295 7
4.2048693 9.225832 0.17940597 8
4.1995301 9.2136946 0.53466541 9
4.2010512 9.2167501 0.8917743 10
4.1977901 9.2092781 1.249896 11
4.1985984 9.2103968 1.7950293 12.5
4.465703 -5.9746194 -0.39432108 6
4.4575038 5.8660498 -0.38875139 6
4.5701594 9.2229767 0.18200707 8
4.5697355 9.2215033 0.54331195 9
4.5298243 9.2250566 0.90468097 10
4.5690956 9.2194767 1.2706174 11
4.5732465 9.227499 1.6400268 12
4.5699692 9.2206659 2.0109537 13
4.9356079 -5.7040868 -0.39891765 6
4.9369669 5.6086884 -0.39447376 6
5.1245451 9.2323866 -0.18372303 7
5.0385127 9.2322903 0.1857966 8
5.0432596 9.2405672 0.55553132 9
5.0404649 9.2350073 0.92591423 10
5.1319103 9.244133 1.3052567 11
5.0389705 9.2315807 1.674528 12
5.1325669 9.2445612 2.0657272 13
5.0374913 9.2281466 2.4394205 14
5.4084258 -5.4153228 -0.40491232 6
5.4138317 5.3240504 -0.40105334 6
5.3962398 9.2450104 0.18897118 8
5.4000554 9.250989 0.56512123 9
5.3981214 9.24751 0.94218349 10
5.3978796 9.246686 1.3216734 11
5.3914342 9.2353058 1.7024391 12
5.401865 9.2526751 2.0930214 13
5.3924603 9.2362432 2.4813149 14
5.8677006 -5.0900278 -0.41109079 6
5.859477 4.9866014 -0.406578 6
5.8561563 9.2527533 0.1931351 8
5.7596674 9.2457561 0.57453138 9
5.7653689 9.254694 0.95924103 10
5.7621636 9.2490654 1.3449577 11
5.8522186 9.2451391 1.7415737 12
5.7653952 9.2534103 2.1295917 13
5.7647572 9.2521219 2.5288146 14
6.306097 -4.7250013 -0.41714525 6
6.2673831 4.6001735 -0.41100714 6
6.0423293 9.2502165 -0.19252402 7
6.1440239 9.2586746 0.19588707 8
6.0488114 9.2594099 0.58320653 9
6.146729 9.2620106 0.97774529 10
6.1468973 9.2620106 1.3717755 11
6.1398778 9.2511139 1.7671427 12
6.235702 9.250802 2.1787591 13
6.1485176 9.2632933 2.5788596 14
6.2410927 9.2580433 3.0054443 15
6.6656952 -4.2869515 -0.41966707 6
6.6753607 4.1970224 -0.41701567 6
6.5443611 9.2718945 0.19992696 8
6.5486069 9.2776365 0.5986166 9
6.4380283 9.2618713 0.99196196 10
6.5420246 9.2674599 1.3996503 11
6.5428061 9.2682676 1.8053617 12
6.5395331 9.2633276 2.2143023 13
6.5386662 9.2615337 2.6293392 14
6.5420408 9.2660379 3.0530295 15
6.8669076 -23.25746 -0.43024978 7
7.0320439 -3.8415349 -0.42440394 6
7.0279908 3.7433293 -0.4212769 6
7.0657015 9.2846212 -0.20358233 7
6.9566274 9.2777195 0.20413916 8
6.957077 9.2780485 0.61112773 9
6.9601626 9.2818232 1.0200341 10
6.9555559 9.275383 1.430222 11
6.9543438 9.2734575 1.8442911 12
6.9557643 9.2748613 2.2636397 13
6.8486004 9.2705441 2.6727929 14
6.9584136 9.27775 3.1211419 15
7.3647199 -3.3635771 -0.42890403 6
7.3303847 3.2521634 -0.42442599 6
7.3904176 9.2876778 0.20879944 8
7.2800088 9.2855301 0.62164414 9
7.3924832 9.289628 1.0435972 10
7.3879137 9.2835026 1.4633689 11
7.2812195 9.2860451 1.8772597 12
7.5023036 9.2895489 2.3309739 13
7.38694 9.2812185 2.7503436 14
7.2692571 9.269763 3.1699772 15
7.5021448 9.2886438 3.2127461 15
7.6332216 -2.8457294 -0.43161535 6
7.8681827 -2.3072889 -0.43447039 6
7.8623452 2.209506 -0.43245968 6
7.6222725 2.7456858 -0.42890054 6
7.96738 9.3068638 0.21532668 8
7.8491459 9.3020391 0.64102054 9
7.7294455 9.2953644 1.062482 10
7.9597111 9.2969103 1.509165 11
7.8411245 9.2914705 1.9338098 12
7.8460202 9.2969675 2.3745995 13
7.7225871 9.2857533 2.7999084 14
7.9634094 9.3001814 2.8382547 14
7.8428817 9.2925406 3.2716784 15
8.0518818 -1.7467365 -0.43659693 6
8.1655369 -1.1672825 -0.43710649 6
8.2579451 -0.58168054 -0.43867099 6
8.2438946 0.48462334 -0.43753397 6
8.1807537 1.0732313 -0.43707997 6
8.0439548 1.6489273 -0.43490332 6
8.2159195 9.322999 -0.21711016 7
8.2053404 9.3106785 0.21804237 8
8.2013845 9.3058605 0.65312397 9
8.2039356 9.3084154 1.0902339 10
8.1995678 9.3031273 1.5289959 11
8.2006006 9.3039532 1.9723561 12
8.2010088 9.3040714 2.4205627 13
8.2031298 9.3061237 2.8755243 14
8.1928902 9.2941723 3.3330874 15
8.5780983 9.3198929 0.22243288 8
8.4483891 -24.663061 0.44716033 8
8.5794802 9.3210411 0.66690499 9
8.5769577 9.3180847 1.1126409 10
8.5710793 9.3112936 1.560217 11
8.4445877 9.3077431 1.9984992 12
8.7062635 9.3234711 2.0283363 12
8.5739031 9.3137856 2.4704447 13
8.6860476 9.3011541 2.9494553 14
8.6971817 9.312706 3.4274337 15
9.0392036 -24.117815 -0.45729595 7
8.9638491 9.3284597 0.22705698 8
8.8460703 -24.66823 0.4494403 8
8.9537582 9.3176365 0.68009919 9
8.9667654 9.3308201 1.1366942 10
8.9622269 9.3257608 1.5942787 11
8.9548378 9.3177395 2.0546813 12
8.9668779 9.3299065 2.5248985 13
8.9612255 9.3236818 2.9968555 14
8.960268 9.3223286 3.4777131 15
9.5064774 9.3411608 -0.23314707 7
9.2264729 9.3298302 0.23020935 8
9.2362213 -24.64204 0.45126179 8
9.3651276 9.3337479 0.69572783 9
9.3621998 9.3304186 1.1608344 10
9.2232542 9.3255653 1.6165634 11
9.3694735 9.3369551 2.1028156 12
9.2253342 9.3269768 2.5594845 13
9.3622513 9.3290787 3.0625787 14
9.3628187 9.3292856 3.554594 15
9.7856846 9.3428583 0.23720048 8
9.6417971 -24.646353 0.45376056 8
9.7871513 9.3439217 0.71181238 9
9.7877884 9.3441896 1.188195 10
9.6351614 -24.629375 1.3776156 9
9.7842703 9.3404922 1.6668422 11
9.7854633 9.3412857 2.1502914 12
9.789752 9.345026 2.6400547 13
9.7803535 9.3357096 3.1325481 14
9.7871723 9.341855 3.6381285 15
10.234982 9.3578701 0.24301401 8
10.045536 -24.634676 0.45608556 8
10.389878 9.3642559 0.73555374 9
10.039968 -24.62101 1.3849874 9
10.087101 9.3568792 1.207953 10
10.221489 9.3445511 1.7063365 11
10.383079 9.3570995 2.2212317 12
10.223451 9.3456459 2.7016814 13
10.376666 9.3506193 3.2356532 14
10.378709 9.3520975 3.7560265 15
10.695499 9.3654022 0.24897814 8
10.447337 -24.608084 0.45825496 8
10.697674 9.3669643 0.74763077 9
10.450929 -24.616489 1.3929501 9
10.687872 9.3580437 1.2469084 10
10.685611 9.3557186 1.7495544 11
10.689487 9.3587618 2.2576001 12
10.694275 9.3626032 2.771884 13
10.700104 9.3673439 3.2939513 14
10.685431 9.3541422 3.817735 15
11.020041 9.3739958 -0.25337878 7
11.012159 9.3669472 0.25310484 8
10.864308 -24.606382 0.4610149 8
11.006831 9.3620749 0.75964862 9
10.869652 -24.618433 1.4016676 9
11.023782 9.3761406 1.2701117 10
11.003032 9.3581514 1.7791687 11
11.006984 9.3611631 2.2958279 12
11.019855 9.3717508 2.8208642 13
11.024235 9.3751144 3.3516784 14
11.00333 9.3569794 3.8826168 15
11.28562 -24.60269 -0.48089939 7
11.348153 9.3754826 0.25761887 8
11.279896 -24.590231 0.46363312 8
11.354309 9.3802204 0.77413672 9
11.283656 -24.598389 1.4095243 9
11.362188 9.3863821 1.2932922 10
11.345666 9.3723898 1.8124447 11
11.275499 -24.580635 2.357007 10
11.343684 9.3703995 2.337543 12
11.347889 9.3735161 2.8698506 13
11.345592 9.3712578 3.4078588 14
11.341401 9.3674316 3.9537315 15
11.815342 -5.3776064 -0.23203129 7
11.793044 -4.3805432 -0.22485699 7
11.816964 -5.4810271 0.22247522 8
11.804405 -5.0705247 0.21945722 8
11.801303 -4.6743612 0.21686955 8
11.790292 -4.3796525 0.21491954 8
11.775735 -3.8086805 0.21157753 8
11.699479 9.3866262 0.26241913 8
11.705813 -24.585175 0.46659455 8
11.818897 -5.4820328 0.67844385 9
11.824538 -5.0792718 0.67023861 9
11.804351 -4.6756697 0.66133076 9
11.811792 -4.1965437 0.65301514 9
11.776947 -3.8092792 0.64495265 9
11.705802 9.3913479 0.78870744 9
11.829142 -5.4869733 1.1370291 10
11.811048 -5.073576 1.1210086 10
11.807909 -4.6771827 1.1076926 10
11.787374 -4.2834849 1.0939611 10
11.788036 -3.7197433 1.0784186 10
11.707917 -24.589582 1.418426 9
11.833373 -5.3862472 1.5931364 11
11.818544 -5.0769401 1.5763066 11
11.809365 -4.677907 1.556777 11
11.803951 -4.1951051 1.5356815 11
11.797306 -3.7227969 1.5166055 11
11.701929 9.3878937 1.3163365 10
11.831819 -5.5909853 1.6034389 11
11.801929 -4.1941423 1.9819163 12
11.798376 -3.8159399 1.9622403 12
11.7012 -24.5755 2.3722839 10
11.829665 -5.4874353 2.062674 12
11.82471 -5.0796528 2.0358586 12
11.81439 -4.6799841 2.0104375 12
11.794151 -3.6292686 2.3977058 13
11.69296 9.3799934 2.3813055 12
11.850665 -5.6000848 2.5454481 13
11.843184 -5.3909326 2.5271628 13
11.832452 -5.0831552 2.5013275 13
11.82042 -4.6824999 2.4697289 13
11.807918 -4.1011395 2.4285042 13
11.801319 -3.8170171 2.4098761 13
11.853295 -5.3956332 3.005055 14
11.837597 -5.0854387 2.9730854 14
11.826752 -4.6851482 2.9358244 14
11.814793 -4.1990523 2.8942893 14
11.808383 -3.6337492 2.852097 14
11.828092 -5.0815001 3.448638 15
11.834623 -4.6883645 3.4104085 15
11.820655 -4.2011242 3.3615751 15
11.807891 -3.8193989 3.3255923 15
11.695889 9.3816214 3.4719796 14
11.697846 9.3828239 4.030293 15
12.278983 -3.5850751 -0.22851641 7
12.262046 -3.5803061 0.21846977 8
12.063654 9.3975973 0.26744381 8
12.280793 -3.5858741 0.66670054 9
12.297937 -3.5909786 1.117789 10
12.074332 9.4055634 0.80423534 9
12.292871 -3.5896487 1.5700543 11
12.071252 9.402812 1.3424037 10
12.054088 9.3890905 1.8813919 11
12.135646 -24.576509 2.3888602 10
12.301111 -3.5921769 2.028029 12
12.293267 -3.590044 2.4884436 13
12.300862 -3.5923884 2.9582784 14
12.064384 9.39639 2.9810686 13
12.298537 -3.5918603 3.4335365 15
12.440639 9.4066544 1.920258 11
12.42672 9.3957701 2.4743247 12
12.424124 9.3934431 3.0360787 13
12.433961 9.4005117 3.6088703 14
12.428931 9.3963356 4.1868329 15
12.820371 9.4093342 -0.2788116 7
12.901859 -3.5662205 0.22902305 8
12.827229 9.414011 0.27807742 8
12.896435 -3.5648787 0.69733715 9
12.918061 -3.5709558 1.1694157 10
12.831673 9.4169159 0.83607215 9
12.827927 9.4138107 1.3955978 10
12.93165 -3.5748298 1.6449313 11
12.806362 9.3976278 1.9555005 11
12.939001 -3.5769944 2.1245015 12
12.922881 -3.5727234 2.6052122 13
12.815956 9.4043045 2.5244622 12
12.935088 -3.5762231 3.098083 14
12.81468 9.4030018 3.097955 13
12.943999 -3.5788221 3.5989363 15
12.816038 9.4036264 3.6799173 14
12.81047 9.3991652 4.2691436 15
13.23451 9.4239721 0.28385088 8
13.236698 9.4251709 0.85343188 9
13.231691 9.4212446 1.4245046 10
13.239015 9.4260969 2.0004952 11
13.216662 9.4098167 2.5762928 12
13.231935 9.4203176 3.1655378 13
13.220997 9.412158 3.7567132 14
13.223876 9.413825 4.3610859 15
13.617775 -3.5537236 0.24089767 8
13.658262 9.433588 0.28990999 8
13.616891 -3.5536494 0.73352784 9
13.653137 9.4296837 0.87133622 9
13.613545 -3.5529382 1.2276725 10
13.661089 9.4348135 1.4558388 10
13.638363 -3.5595217 1.7281616 11
13.641641 -3.560529 2.2312348 12
13.651089 9.4275398 2.041909 11
13.627694 -3.557076 2.7366812 13
13.650135 9.4265108 2.6339052 12
13.651411 -3.5633807 3.2569876 14
13.651086 9.4267941 3.2328427 13
13.640548 -3.5607316 3.7779086 15
13.652218 9.4271955 3.8400867 14
13.646547 9.4228954 4.4550695 15
14.044015 -25.610315 -0.51920408 7
14.104053 9.4457855 0.29636756 8
14.100082 9.4427557 0.8909871 9
14.097408 9.4405985 1.4875777 10
14.093729 9.4377642 2.0874395 11
14.079816 9.4280701 2.6901929 12
14.085253 9.4313354 3.3029923 13
14.093159 9.4362459 3.9253016 14
14.084815 9.4302692 4.5531416 15
16.893522 -26.177008 -0.55406147 7
19.993429 -26.595793 -0.5919373 7
23.372793 -26.857025 -0.63355571 7
23.498358 -33.182632 0.69645464 8
23.478704 -32.170795 0.68211269 8
23.450171 -31.186548 0.66820759 8
23.476572 -30.310616 0.65649509 8
23.474157 -30.307638 1.9963464 9
23.521503 -33.215397 2.1196885 9
23.497553 -32.196705 2.0758219 9
23.470381 -31.213522 2.0337796 9
23.543032 -33.24588 3.5506754 10
23.509874 -32.213692 3.4758909 10
23.488138 -31.23724 3.4063346 10
23.484444 -30.321033 3.3426213 10
23.496683 -31.248718 4.7874703 11
23.491861 -30.330738 4.6977301 11
23.534613 -33.234131 4.9866748 11
23.510475 -32.214645 4.8835492 11
23.523186 -32.232174 6.306623 12
23.50716 -31.262766 6.1819839 12
23.490337 -30.328913 6.0630293 12
23.557018 -33.26585 6.4424214 12
23.516993 -31.275961 7.5930023 13
23.488655 -30.326887 7.4432697 13
23.571302 -33.286118 7.9143319 13
23.544239 -32.261108 7.7497606 13
24.156889 -30.284258 0.66331148 8
24.220541 -47.284409 0.91119373 8
24.156969 -30.284506 2.0173593 9
24.21666 -47.276855 2.7675021 9
24.162481 -30.291553 3.3771198 10
24.211935 -47.267662 4.6298256 10
24.176811 -30.309645 4.7475433 11
24.175226 -30.307808 6.1273255 12
24.175653 -30.308493 7.5228829 13
24.176956 -30.310278 8.9378643 14
24.861689 -30.269478 0.67068303 8
25.064762 -47.255112 0.91734678 8
24.869215 -30.278791 2.040453 9
25.059748 -47.245697 2.7862847 9
24.86244 -30.270708 3.4140918 10
25.064211 -47.254147 4.6630554 10
24.886492 -30.30011 4.8013253 11
24.879774 -30.292101 6.1954837 12
25.069607 -47.264351 6.5522046 11
24.891609 -30.306656 7.6100545 13
24.884125 -30.29772 9.0382338 14
25.595884 -30.270115 0.67871892 8
25.588058 -30.261036 2.0637014 9
25.596531 -30.271212 3.4550941 10
25.593691 -30.268023 4.8537664 11
25.923626 -47.230495 0.92387855 8
25.927946 -47.238415 2.8073523 9
25.919054 -47.222282 4.6959338 10
25.601484 -30.277395 6.266757 12
25.928267 -47.239105 6.5993671 11
25.609646 -30.287207 7.6964011 13
25.606735 -30.283941 9.1425009 14
26.317858 -30.236055 0.68630606 8
26.320908 -30.239731 2.0877037 9
26.318094 -30.236677 3.4937661 10
26.352812 -30.27669 4.9151216 11
26.336262 -30.257881 6.3400683 12
26.342484 -30.265198 7.7858005 13
26.339851 -30.26236 9.2488298 14
26.796619 -47.208054 0.93075073 8
26.799519 -47.213223 2.8282626 9
26.798105 -47.210804 4.7323489 10
26.988554 -26.866287 -0.67774564 7
27.074154 -30.221045 0.69466931 8
27.083052 -30.231148 2.1136377 9
27.080355 -30.228327 3.5372076 10
27.088415 -30.237497 4.9711714 11
26.800959 -47.215897 6.6489272 11
27.10412 -30.255199 6.4201202 12
27.093304 -30.24333 7.8791084 13
27.689238 -47.195786 0.93813336 8
27.685654 -47.189766 2.8502066 9
27.686184 -47.190754 4.7694707 10
27.701197 -47.216404 6.704041 11
28.584452 -47.163456 0.94543588 8
28.588686 -47.170528 2.8733716 9
28.590384 -47.173428 4.8084879 10
28.59215 -47.176445 6.7556782 11
28.601341 -47.191689 8.7221012 12
28.877102 -6.1957264 -0.52483422 7
28.852257 -7.0596023 0.50974113 8
28.858591 -6.6252084 0.50821942 8
28.887732 -6.1983352 0.50721574 8
28.859095 -7.0615997 1.5490901 9
28.853966 -6.6244855 1.5436833 9
28.893229 -6.1998477 1.5409975 9
28.890337 -7.0695477 2.5949206 10
28.874727 -6.6295681 2.5848711 10
28.891264 -6.1997666 2.5782843 10
28.905746 -7.0736394 3.647404 11
28.874678 -6.6298947 3.6313033 11
28.959162 -6.2146168 3.6305282 11
28.89975 -7.0725145 4.7065663 12
28.905998 -6.6373973 4.6918187 12
28.972652 -6.2178445 4.6878929 12
28.92074 -7.0779729 5.7824545 13
28.900835 -6.6365609 5.7591076 13
28.966299 -6.2168345 5.7540355 13
28.945295 -7.0843058 6.8754005 14
28.919458 -6.64117 6.8462262 14
28.966473 -6.2172265 6.8358192 14
28.935244 -7.0822067 7.9783416 15
28.938068 -6.6457815 7.9523416 15
28.978075 -6.2200661 7.938313 15
29.506006 -47.149662 0.95344031 8
29.502897 -47.144802 2.8971393 9
29.501724 -47.143044 4.8478398 10
29.514784 -47.164009 6.8135934 11
29.519297 -47.171326 8.7954206 12
30.443047 -47.134655 0.96176589 8
30.445068 -47.137913 2.9231071 9
30.44298 -47.134804 4.8912067 10
30.451105 -47.147507 6.8733726 11
30.449007 -47.144394 8.8706474 12
30.827843 -26.583323 -0.72448564 7
31.014944 20.136696 0.6466682 8
31.017967 20.137871 1.9408925 9
31.033018 20.146851 3.2413456 10
31.0404 20.150845 4.5498781 11
31.066162 20.166769 5.8737454 12
31.070389 20.168697 7.2094765 13
31.081717 20.175222 8.5657482 14
31.307482 19.69615 -0.64623618 7
31.323524 19.705462 0.64687914 8
31.390694 -47.109982 0.97024995 8
31.329895 19.708689 1.9422727 9
31.38485 -47.101364 2.9483094 9
31.341413 19.715153 3.2434514 10
31.362225 19.727459 4.5548825 11
31.396441 -47.118874 4.9355912 10
31.363638 19.727551 5.8756762 12
31.39353 -47.114662 6.9332843 11
31.38035 19.737257 7.2147679 13
31.383711 19.738556 8.5698833 14
31.40008 -47.12463 8.9504738 12
31.952517 18.846603 0.64791131 8
31.625362 19.269068 0.64707565 8
31.963264 18.852179 1.9467044 9
31.652594 19.284891 1.94468 9
31.971174 18.856079 3.2508214 10
31.663958 19.29104 3.2476234 10
31.976513 18.858454 4.5631833 11
31.671028 19.294571 4.5588431 11
31.994097 18.868044 5.8895116 12
31.676809 19.297304 5.8816724 12
31.693481 19.306662 7.2221451 13
31.703089 19.311707 8.5803766 14
32.24551 18.40243 0.64817321 8
32.261585 18.410852 1.948341 9
32.272156 18.416124 3.2539933 10
32.303101 18.433022 4.5713582 11
32.299652 18.430283 5.8962708 12
32.312092 18.436602 7.2391739 13
32.021122 18.883204 7.2341337 13
32.341602 18.452644 8.6059494 14
32.019424 18.881399 8.5916138 14
32.565948 17.972294 0.64910764 8
32.598171 17.989336 1.952635 9
32.588554 17.983273 3.2593114 10
32.605625 17.991941 4.5769482 11
32.615719 17.99674 5.9060135 12
32.631962 18.004934 7.2520137 13
32.645241 18.011477 8.6169081 14
32.867039 17.530233 -0.65211898 7
33.191528 17.096905 0.65101749 8
32.877804 17.535231 0.64998621 8
32.893162 17.542683 1.9547826 9
32.898186 17.544615 3.2645333 10
32.892773 17.540977 4.5812359 11
32.923157 17.556425 5.9152498 12
32.953022 17.570814 8.6305246 14
33.50338 16.655161 0.65212673 8
33.525047 16.665205 1.962613 9
33.202915 17.102043 1.9581633 9
33.224785 17.11257 3.2720079 10
33.540756 16.671545 4.6024947 11
33.24836 17.123217 5.9287105 12
33.568352 16.683773 7.2930627 13
33.256184 17.126488 7.2780938 13
33.584576 16.691072 8.6664944 14
33.856689 16.229237 3.2865417 10
33.863464 16.231752 4.6141152 11
33.877625 16.237806 5.9549241 12
33.881813 16.239069 7.309577 13
33.911793 16.252684 8.6896496 14
34.146778 15.772752 0.65506613 8
34.162746 15.779415 1.9721333 9
34.171429 15.782707 3.2945368 10
34.195789 15.793238 4.6278124 11
34.183399 15.786779 5.96802 12
34.205574 15.796286 7.3295546 13
34.223007 15.80359 8.710186 14
34.45903 15.323161 -0.66147059 7
34.796314 14.879687 0.65856475 8
34.467049 15.32602 0.65667468 8
34.469452 15.326379 1.9766974 9
34.512615 15.344865 3.3056245 10
34.50631 15.34134 4.6393375 11
34.510792 15.342606 5.9858985 12
34.523621 15.347578 7.3495374 13
34.548958 15.358105 8.7359381 14
34.853401 -25.95376 -0.77332658 7
35.122608 14.428211 0.6605078 8
35.114681 14.424253 1.9886535 9
34.800083 14.880592 1.982967 9
35.14365 14.435455 3.3245368 10
34.811054 14.884577 3.3131759 10
35.157787 14.440558 4.6688118 11
34.823925 14.889369 4.6526051 11
35.159576 14.440575 6.0235987 12
34.836594 14.894065 6.0044937 12
35.169868 14.444083 7.3953576 13
34.872803 14.908088 8.7626085 14
35.438335 13.968569 0.6623621 8
35.458065 13.975657 1.9962955 9
35.469688 13.97954 3.3358209 10
35.475506 13.981131 4.6836438 11
35.498085 13.989328 6.0463448 12
35.504498 13.991138 7.4225078 13
35.522083 13.997346 8.820714 14
35.768688 13.510641 0.66460115 8
35.785866 13.516442 2.0033839 9
35.800716 13.521364 3.3481224 10
35.832878 13.5314 7.449563 13
35.843296 13.534616 8.8511028 14
36.08717 13.044639 -0.67425263 7
36.101562 13.04916 0.66699612 8
36.144379 13.062576 4.7200284 11
36.164989 13.069331 6.0930548 12
36.174068 13.071906 7.4804873 13
36.181919 13.074028 8.8872395 14
36.78434 12.117496 0.6724264 8
36.797302 12.121094 2.0281773 9
36.457832 12.590365 2.0194571 9
36.46669 12.592741 3.3747303 10
36.477932 12.59594 4.7392545 11
36.48859 12.598927 6.1162443 12
36.506191 12.604304 7.5107498 13
36.524994 12.61009 8.9258938 14
37.12059 11.642159 0.67521161 8
37.124557 11.64273 2.0365572 9
37.147282 11.649188 3.4048836 10
36.80154 12.121809 3.3890307 10
37.148594 11.648919 4.7804894 11
36.825691 12.129087 4.7610893 11
37.164963 11.653371 6.1705155 12
36.822292 12.127275 6.1421347 12
37.179623 11.657278 7.5768399 13
36.840424 12.132553 7.5426726 13
36.860756 12.138547 8.9642076 14
37.45932 11.162242 0.6781525 8
37.478859 11.167401 2.046752 9
37.497635 11.172328 3.4217064 10
37.505848 11.174104 4.8050871 11
37.515228 11.176216 6.2011538 12
37.542572 11.183682 7.6170564 13
37.533714 11.180341 9.045579 14
37.793549 10.676155 -0.69122005 7
