# .PCD v0.7 - Point Cloud Data file format
VERSION 0.7
FIELDS x y z intensity
SIZE 4 4 4 4
TYPE F F F F
COUNT 1 1 1 1
WIDTH 1341
HEIGHT 1
VIEWPOINT 0 0 0 1 0 0 0
POINTS 1341
DATA ascii
-0.14967054 -1.2624422 -0.34074068 0
-0.050414771 -1.2821548 -0.34388787 0
0.049330179 -1.2597502 -0.33790854 0
0.1416419 -1.251027 -0.3261804 0
0.2469341 -1.2532134 -0.31403935 0
0.3382633 -1.2517058 -0.30350477 0
-1.7474319 -1.1440405 -0.30129007 0
-1.6512039 -1.1499292 -0.30391058 0
-1.5464679 -1.1467944 -0.30636305 0
-1.4433008 -1.1564249 -0.30789846 0
-1.3439127 -1.1516215 -0.31178042 0
-1.2478321 -1.149134 -0.31365168 0
-1.1431928 -1.1473225 -0.31615537 0
-1.0516505 -1.1502283 -0.31895632 0
-0.94741946 -1.14658 -0.32104132 0
-0.84423292 -1.1450747 -0.32377183 0
-0.75601542 -1.1652262 -0.32639673 0
-0.64986569 -1.144636 -0.3287822 0
-0.54229248 -1.1563017 -0.33156663 0
-0.45520493 -1.1544462 -0.33261028 0
-0.3725096 -1.1869282 -0.33337349 0
0.17492683 -1.183859 -0.32067955 0
0.2612901 -1.1549227 -0.31194788 0
0.33536497 -1.1549668 -0.30373767 0
-1.7341365 -1.0598345 -0.30214226 0
-1.6277164 -1.0350887 -0.30438903 0
-1.5728662 -1.0622089 -0.3053475 0
-1.4513978 -1.057676 -0.30858839 0
-1.3334384 -1.0437148 -0.30982336 0
-1.236861 -1.0423214 -0.31402254 0
-1.1607218 -1.0620469 -0.31566817 0
-1.043323 -1.0517626 -0.31848058 0
-0.93980598 -1.0427797 -0.320746 0
-0.85940224 -1.0630089 -0.32205597 0
-0.7551859 -1.0442561 -0.32510096 0
-0.65131623 -1.0472031 -0.32838476 0
-0.57854652 -1.0841793 -0.32928693 0
0.33930284 -1.0813167 -0.30372888 0
-1.7585875 -0.94130737 -0.30091879 0
-1.6476052 -0.96437138 -0.30316284 0
-1.5617326 -0.94438374 -0.30557591 0
-1.453474 -0.94092721 -0.30851156 0
-1.3316556 -0.94160545 -0.31161562 0
-1.2583373 -0.95055646 -0.31111974 0
-1.1555349 -0.95172679 -0.31536317 0
-1.0383334 -0.94255883 -0.31804276 0
-0.95373493 -0.96348763 -0.32097223 0
-0.84726882 -0.95377231 -0.32333845 0
-0.75296593 -0.95213079 -0.32539129 0
-0.69799215 -0.99473429 -0.32560897 0
-1.7080724 -0.82386607 -0.30098465 0
-1.6663592 -0.85743964 -0.30243993 0
-1.5447581 -0.84589571 -0.30497873 0
-1.4497403 -0.85963309 -0.30781808 0
-1.3450555 -0.84378278 -0.31057152 0
-1.2480545 -0.85597032 -0.31256887 0
-1.1552234 -0.85466146 -0.31441832 0
-1.0582876 -0.85229516 -0.31773451 0
-0.94684601 -0.8595044 -0.31998077 0
-0.85682023 -0.84804595 -0.32319629 0
-1.7431936 -0.75037259 -0.30119988 0
-1.6446139 -0.75299501 -0.30258045 0
-1.561869 -0.75617093 -0.30445328 0
-1.4518983 -0.7361083 -0.30734104 0
-1.3737187 -0.75413412 -0.30985743 0
-1.2424204 -0.75124013 -0.31173915 0
-1.1375701 -0.74499321 -0.31365088 0
-1.052456 -0.75731677 -0.31595224 0
-0.94198102 -0.76150703 -0.3201704 0
-1.7766428 -0.66430455 -0.30041939 0
-1.5373505 -0.68609333 -0.30546153 0
-1.4259366 -0.665223 -0.30742279 0
-1.3385823 -0.6598947 -0.30958194 0
-1.2476549 -0.63733912 -0.311059 0
-1.1642584 -0.65771681 -0.31341201 0
-1.0484195 -0.6409626 -0.31692651 0
-0.97920036 -0.67153084 -0.31821266 0
-1.2334596 -0.58611405 -0.3124139 0
-1.144793 -0.56433195 -0.314419 0
-1.0560412 -0.55399644 -0.31503779 0
-1.7509974 -0.40814227 -0.30024129 0
-1.6624223 -0.46356261 -0.30193946 0
-1.5504187 -0.42627496 -0.30427504 0
-1.4932232 -0.41638184 -0.30656496 0
-1.6416014 -0.35108909 -0.30219236 0
-1.5252813 -0.35402566 -0.30457786 0
-1.4458561 -0.36272642 -0.30588582 0
-1.3370459 -0.33216429 -0.30923948 0
-1.2794769 -0.3372553 -0.31039017 0
-1.1930616 -0.31435096 -0.31231451 0
-1.6396279 -0.27649844 -0.30131489 0
-1.5385461 -0.27068719 -0.30398673 0
-1.4569581 -0.27418953 -0.30493817 0
-1.3462471 -0.26329866 -0.30829492 0
-1.2553519 -0.25207925 -0.30792382 0
-1.153538 -0.2602182 -0.31243131 0
-1.144889 -0.19859411 -0.31135261 0
-1.130887 0.19616531 -0.30754477 0
-1.5201328 0.26363918 -0.30079898 0
-1.440518 0.27112278 -0.30296069 0
-1.3340778 0.25909323 -0.30666405 0
-1.2612332 0.25621936 -0.30761701 0
-1.1580336 0.25391376 -0.30963716 0
-1.5078498 0.34587312 -0.30124524 0
-1.4537746 0.3546752 -0.30261976 0
-1.3561951 0.33663741 -0.30502543 0
-1.2771269 0.31936818 -0.30682343 0
-1.1780927 0.31040689 -0.30831254 0
-1.5555168 0.42565665 -0.30207804 0
-1.2177529 0.57864648 -0.30826631 0
-1.1381863 0.55716062 -0.31035763 0
-1.0500858 0.55561775 -0.31281558 0
-1.4181629 0.66423976 -0.30121738 0
-1.3579693 0.6621049 -0.30339375 0
-1.2471744 0.64843863 -0.30694073 0
-1.1533517 0.64935148 -0.30917713 0
-1.0448054 0.64062315 -0.31263742 0
-0.97277647 0.65696311 -0.31462228 0
-1.5332738 0.78332072 -0.30096102 0
-1.4523431 0.75517762 -0.30153826 0
-1.3643192 0.74690664 -0.30365264 0
-1.2537712 0.73727387 -0.3057507 0
-1.1476905 0.74447763 -0.30876702 0
-1.0698745 0.75008166 -0.31016392 0
-0.95676696 0.74744874 -0.31332386 0
-0.88958067 0.76236749 -0.31395879 0
-1.5053248 0.82420003 -0.30021662 0
-1.4108819 0.82589108 -0.30135229 0
-1.3266546 0.8386417 -0.3032853 0
-1.2535126 0.85392165 -0.30443746 0
-1.156067 0.85525113 -0.3084372 0
-1.0440568 0.84098184 -0.31078437 0
-0.96211302 0.86092746 -0.31186712 0
-0.85528404 0.84603328 -0.31516224 0
-0.78720123 0.88610631 -0.31761387 0
-1.5051804 0.97009492 -0.30086172 0
-1.4247584 0.95727301 -0.30129766 0
-1.3396274 0.94724244 -0.30259091 0
-1.2429644 0.95144069 -0.30546954 0
-1.1409396 0.94963449 -0.30771628 0
-1.055721 0.94461924 -0.30971363 0
-0.949063 0.95258355 -0.31269267 0
-0.84947407 0.95004338 -0.3151302 0
-0.74749798 0.9545024 -0.31863996 0
-0.66790646 0.98141927 -0.31811234 0
-1.569816 1.0117528 -0.30006993 0
-1.4535297 1.0592377 -0.30141151 0
-1.3486314 1.0494134 -0.30275193 0
-1.2446223 1.0408136 -0.30459046 0
-1.1581028 1.0609182 -0.30714217 0
-1.0538073 1.0447909 -0.31021723 0
-0.94489884 1.0520383 -0.31353369 0
-0.84324944 1.0509597 -0.31392124 0
-0.74773049 1.0494785 -0.31835887 0
-0.64347899 1.0555565 -0.32039049 0
-0.54913002 1.065789 -0.32134965 0
-0.49579412 1.0931618 -0.32162946 0
0.33099216 1.0816259 -0.30309448 0
-1.515294 1.1042475 -0.30020422 0
-1.4367608 1.1452398 -0.30044976 0
-1.3601559 1.1487031 -0.30194739 0
-1.2569979 1.1480848 -0.30518287 0
-1.132333 1.1445085 -0.30717289 0
-1.0569953 1.1584589 -0.30970189 0
-0.93814898 1.1521214 -0.31180122 0
-0.84062135 1.1493294 -0.31554496 0
-0.74304354 1.1474233 -0.31821993 0
-0.65230596 1.1662736 -0.3179296 0
-0.55947024 1.1456274 -0.32123646 0
-0.45285282 1.1479704 -0.32354909 0
-0.34819004 1.1672562 -0.32648107 0
-0.27282542 1.1895421 -0.32704562 0
0.18209064 1.1746969 -0.31852585 0
0.26123303 1.154906 -0.31193727 0
0.32353881 1.1446598 -0.30472896 0
-1.4292715 1.2336476 -0.30079418 0
-1.3644042 1.2565367 -0.30205795 0
-1.2473935 1.244632 -0.30320168 0
-1.150938 1.2587143 -0.30736005 0
-1.0399487 1.2403421 -0.31044731 0
-0.95567065 1.2646363 -0.31160709 0
-0.8439123 1.2594252 -0.31411073 0
-0.75287485 1.2350348 -0.31647176 0
-0.64692819 1.2299176 -0.31808719 0
-0.5491209 1.2584792 -0.32132354 0
-0.43909472 1.2497549 -0.32353923 0
-0.35337725 1.2500052 -0.32593125 0
-0.24642178 1.2462888 -0.33025947 0
-0.15367128 1.2598343 -0.33192116 0
-0.049029231 1.244621 -0.33382195 0
0.055992305 1.2559204 -0.33439496 0
0.14956543 1.246845 -0.32571134 0
0.24784186 1.2591743 -0.31338888 0
0.3281481 1.2578485 -0.30412129 0
-1.4434899 1.3680278 -0.3000699 0
-1.3390899 1.35368 -0.3025578 0
-1.2378887 1.3345355 -0.30524373 0
-1.1424866 1.3524692 -0.30746821 0
-1.0433609 1.3506718 -0.30869877 0
-0.94635546 1.3486277 -0.31063226 0
-0.85537928 1.3529985 -0.31246942 0
-0.75472128 1.3440028 -0.31527212 0
-0.64532971 1.3453121 -0.3184827 0
-0.53403527 1.3412966 -0.32097572 0
-0.45280105 1.3416255 -0.32295498 0
-0.3539122 1.3531564 -0.32658073 0
-0.26354834 1.3675605 -0.3279247 0
-0.14471523 1.3569058 -0.33163813 0
-0.052915365 1.34355 -0.33313593 0
0.043626137 1.3532541 -0.33528948 0
0.15803424 1.3532045 -0.32486588 0
0.25020617 1.3413191 -0.31264362 0
0.33084184 1.3542292 -0.30418819 0
-1.3591418 1.4653374 -0.30154139 0
-1.2501295 1.4484957 -0.3042618 0
-1.1517112 1.4394786 -0.30599433 0
-1.051843 1.4453497 -0.30806386 0
-0.94586229 1.4422904 -0.31037003 0
-0.8502081 1.4645767 -0.31323817 0
-0.74694228 1.4356396 -0.31619257 0
-0.6536293 1.4688007 -0.31668237 0
-0.55305541 1.4320248 -0.32003415 0
-0.44507593 1.4648362 -0.32360893 0
-0.35252973 1.442297 -0.32539287 0
-0.2409544 1.4467747 -0.32908428 0
-0.15750042 1.4415849 -0.3299776 0
-0.056637947 1.4391069 -0.33256605 0
0.044860121 1.4478365 -0.33480993 0
0.14336017 1.4380493 -0.32698157 0
0.24256374 1.4556211 -0.31322303 0
0.3338576 1.4465719 -0.30401906 0
-1.4184587 1.5292561 -0.30016232 0
-1.338343 1.5658584 -0.30128431 0
-1.2538345 1.5623654 -0.3027809 0
-1.1471796 1.5393549 -0.30473489 0
-1.0625173 1.5543821 -0.30722785 0
-0.94645172 1.5526905 -0.31085634 0
-0.84764731 1.5617206 -0.31359351 0
-0.75419235 1.5437927 -0.31532463 0
-0.63911337 1.5410547 -0.31748533 0
-0.54785365 1.5393732 -0.31970337 0
-0.45812845 1.5774734 -0.32253343 0
-0.35021231 1.5503573 -0.32389882 0
-0.25187698 1.5512778 -0.32882994 0
-0.14374685 1.5586029 -0.33002588 0
-0.049838405 1.5486774 -0.33253914 0
0.047309261 1.5507741 -0.33364704 0
0.15059444 1.5549273 -0.32579595 0
0.25759202 1.5660031 -0.31194124 0
0.33695745 1.5309082 -0.30369213 0
-1.3457036 1.6525222 -0.30123967 0
-1.2697725 1.6537002 -0.30166122 0
-1.1581295 1.6508424 -0.30491373 0
-1.0375072 1.6413016 -0.30917647 0
-0.95664012 1.6711209 -0.31086451 0
-0.85146332 1.6521431 -0.31330791 0
-0.75355625 1.6486123 -0.31441945 0
-0.65118223 1.6577984 -0.31728756 0
-0.55930167 1.6433882 -0.31898269 0
-0.43869451 1.6564742 -0.32246438 0
-0.34986645 1.6330131 -0.32329223 0
-0.24899347 1.6544303 -0.32867908 0
-0.14984106 1.671142 -0.3291128 0
-0.065997608 1.6717097 -0.3319644 0
0.048497953 1.657856 -0.33476004 0
0.14814061 1.6551596 -0.32564849 0
0.24777901 1.6429253 -0.31332752 0
0.33236483 1.6461582 -0.30399761 0
-1.3335571 1.7112825 -0.3005985 0
-1.2524226 1.7419128 -0.30192333 0
-1.1412365 1.7623475 -0.3060171 0
-1.0348277 1.7537365 -0.30794829 0
-0.93297809 1.7269919 -0.31169429 0
-0.84780955 1.7674713 -0.31242561 0
-0.74801236 1.7481902 -0.3143236 0
-0.6504029 1.7587383 -0.31655946 0
-0.54858285 1.7390476 -0.31953326 0
-0.44423246 1.7628295 -0.32141051 0
-0.35668942 1.7370665 -0.3228305 0
-0.25866422 1.7506993 -0.32821843 0
-0.15823282 1.7647052 -0.32899064 0
-0.048819073 1.7440984 -0.33282655 0
0.03834055 1.7328899 -0.33386287 0
0.14464137 1.7557402 -0.32668552 0
0.23603149 1.7407274 -0.31476739 0
0.32307419 1.7507898 -0.30492902 0
-1.2542568 1.8426541 -0.30235636 0
-1.1587404 1.8704797 -0.30443889 0
-1.054211 1.8464484 -0.30746323 0
-0.96366161 1.8373425 -0.31020379 0
-0.86343688 1.8682956 -0.31164631 0
-0.74622917 1.8301359 -0.31427294 0
-0.65432632 1.8670706 -0.31611833 0
-0.53861183 1.8544995 -0.31935507 0
-0.45047 1.8430529 -0.32067633 0
-0.34628424 1.8513674 -0.32438418 0
-0.24434391 1.8347546 -0.32820579 0
-0.15207019 1.8445889 -0.32906222 0
-0.060121186 1.8677894 -0.33150709 0
0.05503976 1.8515028 -0.33401069 0
0.16032664 1.8460605 -0.32529286 0
0.25756174 1.8358369 -0.31228346 0
0.33960265 1.8725876 -0.30273673 0
-1.3135288 1.9602422 -0.30087137 0
-1.2462738 1.9186471 -0.30287945 0
-1.151323 1.9573256 -0.3041262 0
-1.0437047 1.9559228 -0.30681953 0
-0.94731939 1.9392359 -0.30947834 0
-0.84410954 1.9727486 -0.31107917 0
-0.75910366 1.9247687 -0.31345135 0
-0.64003688 1.956863 -0.31661069 0
-0.54686576 1.9346094 -0.31845894 0
-0.45327312 1.9515775 -0.32038313 0
-0.36328927 1.9688278 -0.32289991 0
-0.25303549 1.9467496 -0.32749662 0
-0.15460968 1.9402268 -0.32924762 0
-0.048883203 1.9501899 -0.3313106 0
0.049069613 1.9558463 -0.33346635 0
0.15225349 1.9474291 -0.3264327 0
0.25356179 1.9481961 -0.31359884 0
0.32223508 1.9394121 -0.3039538 0
-1.2484388 2.0152667 -0.30221516 0
-1.1647135 2.0741708 -0.30287418 0
-1.0548182 2.0466094 -0.30601582 0
-0.95118588 2.0447919 -0.30943194 0
-0.84945607 2.0666118 -0.31076762 0
-0.74951822 2.0266943 -0.31366709 0
-0.65071201 2.073544 -0.31577072 0
-0.55647629 2.0234931 -0.31821141 0
-0.45615304 2.0568457 -0.31976032 0
-0.35006377 2.0361876 -0.32519251 0
-0.24348193 2.0533493 -0.32753849 0
-0.13969921 2.0526521 -0.3293198 0
-0.051748455 2.0655644 -0.33033633 0
0.051823016 2.0661609 -0.33280122 0
0.14994821 2.0479436 -0.32660836 0
0.24186806 2.0392163 -0.31551328 0
0.32280004 2.0819941 -0.3043623 0
-1.3117321 2.1868374 -0.30055755 0
-1.2376444 2.1218984 -0.30182615 0
-1.1395379 2.1726999 -0.30283701 0
-1.0486124 2.146637 -0.3059898 0
-0.95694304 2.1507845 -0.30764762 0
-0.85155189 2.1591578 -0.31047642 0
-0.75578564 2.1371384 -0.31243831 0
-0.64667392 2.1686263 -0.31567785 0
-0.55357242 2.1319542 -0.31723416 0
-0.44551808 2.1546247 -0.32040977 0
-0.35303697 2.1406391 -0.32463059 0
-0.25346386 2.13748 -0.32670456 0
-0.14693832 2.1590836 -0.32878551 0
-0.054330874 2.1691101 -0.32969126 0
0.046987366 2.1424246 -0.33350211 0
0.14608279 2.1499865 -0.32717696 0
0.25472245 2.1490993 -0.31346393 0
0.33552361 2.164042 -0.3028425 0
-1.2620656 2.2102745 -0.30019528 0
-1.1707416 2.2713883 -0.30152392 0
-1.0597061 2.2503643 -0.30624539 0
-0.97393894 2.2667127 -0.30635726 0
-0.8517915 2.2537284 -0.31004927 0
-0.74514627 2.2420104 -0.31197366 0
-0.65483993 2.2548113 -0.31508341 0
-0.54913378 2.2454686 -0.31703416 0
-0.44723359 2.2435596 -0.32019293 0
-0.34323853 2.255125 -0.32448423 0
-0.25813335 2.2433648 -0.32579449 0
-0.1527236 2.2440701 -0.3282845 0
-0.056465227 2.2543101 -0.32919803 0
0.040766008 2.2747595 -0.33272856 0
0.15184061 2.2346385 -0.32644138 0
0.24976949 2.246547 -0.31413364 0
0.31942472 2.2747145 -0.30468982 0
-1.2328742 2.3506274 -0.30117956 0
-1.1354989 2.3524866 -0.30416813 0
-1.0332355 2.3677824 -0.30509683 0
-0.93535852 2.3227584 -0.30777553 0
-0.84862274 2.3639188 -0.30944955 0
-0.75114536 2.3572564 -0.31225634 0
-0.64595979 2.3489308 -0.31487629 0
-0.55114251 2.3513882 -0.31687543 0
-0.45402494 2.3474996 -0.31993657 0
-0.35109186 2.3760502 -0.32397091 0
-0.26209557 2.351038 -0.32468778 0
-0.16830686 2.3460188 -0.32707554 0
-0.05859958 2.3395104 -0.32870486 0
0.042297859 2.3603585 -0.33246925 0
0.15132813 2.3455853 -0.32656974 0
0.25384641 2.3561702 -0.31354445 0
0.33098072 2.3569822 -0.30306464 0
-1.2111528 2.479238 -0.3015548 0
-1.1218482 2.4271679 -0.30353189 0
-1.0348394 2.4672222 -0.30452016 0
-0.93761724 2.4281301 -0.30753252 0
-0.83624142 2.4770596 -0.30897877 0
-0.73936123 2.4338739 -0.3129589 0
-0.64452517 2.4645681 -0.31397593 0
-0.55280066 2.4502306 -0.31677994 0
-0.4526318 2.4513795 -0.31970382 0
-0.34584466 2.4622347 -0.32347474 0
-0.23877479 2.463865 -0.32419503 0
-0.14759074 2.4226124 -0.328448 0
-0.060733933 2.4247105 -0.32821164 0
0.043829709 2.4459574 -0.33220994 0
0.14969134 2.4551001 -0.32668123 0
0.27156788 2.4684038 -0.31108591 0
0.34157121 2.4322579 -0.30158147 0
-1.2333394 2.5711961 -0.30035153 0
-1.1496918 2.5348406 -0.3019309 0
-1.05329 2.5622745 -0.30404538 0
-0.93654364 2.5323234 -0.30729902 0
-0.84744716 2.5707612 -0.30825394 0
-0.75543749 2.5331798 -0.31244424 0
-0.66522002 2.5622957 -0.31315061 0
-0.54948759 2.5385628 -0.31723243 0
-0.43849093 2.556407 -0.31968355 0
-0.36028105 2.5650253 -0.32231817 0
-0.26500803 2.5794468 -0.32214096 0
-0.1447099 2.558754 -0.32764137 0
-0.05630232 2.5444479 -0.3274914 0
0.045361567 2.5315564 -0.33195063 0
0.15586434 2.5555704 -0.32601604 0
0.24617803 2.5413005 -0.31450453 0
0.32154241 2.5552516 -0.30388397 0
-1.1399022 2.6462245 -0.30179349 0
-1.0371839 2.647824 -0.3046504 0
-0.94879365 2.6230278 -0.30635953 0
-0.85896415 2.6701145 -0.30816835 0
-0.76146656 2.621563 -0.31109086 0
-0.65259415 2.6699975 -0.31367314 0
-0.5430938 2.6261382 -0.31725287 0
-0.45107985 2.6581659 -0.3191801 0
-0.34343112 2.650383 -0.32224002 0
-0.25657472 2.6441262 -0.32230091 0
-0.15245342 2.6598082 -0.32714197 0
-0.047578402 2.6607208 -0.32675552 0
0.037577476 2.6354294 -0.33134922 0
0.16040878 2.635154 -0.3254742 0
0.25555685 2.6381578 -0.3132627 0
0.31640542 2.6671357 -0.3051357 0
-1.1216863 2.7286644 -0.30205786 0
-1.0500503 2.7779675 -0.30387399 0
-0.95993662 2.7143967 -0.30541831 0
-0.86932027 2.7698169 -0.30795014 0
-0.75433171 2.7432766 -0.31039143 0
-0.65446734 2.763279 -0.31307942 0
-0.55579138 2.7355213 -0.31589183 0
-0.44816625 2.7599583 -0.31942484 0
-0.35002017 2.7801635 -0.32050422 0
-0.18728518 2.7506385 -0.3266857 0
0.067726322 2.7030454 -0.33200443 0
0.16702576 2.7424197 -0.32539713 0
0.24683575 2.7512765 -0.3147628 0
0.32696539 2.7561507 -0.3038204 0
-1.1381408 2.8263085 -0.30145431 0
-1.0406532 2.8769813 -0.303381 0
-0.95823175 2.8383226 -0.30465645 0
-0.84336215 2.8523285 -0.30859101 0
-0.76487672 2.8604875 -0.30975604 0
-0.65585703 2.860482 -0.31277868 0
-0.54008758 2.813525 -0.31596738 0
-0.44246492 2.8536437 -0.31885171 0
-0.34100503 2.8740749 -0.32009259 0
-0.19345541 2.8412602 -0.32600665 0
0.17253728 2.8329144 -0.32457593 0
0.23578312 2.8605728 -0.31605536 0
0.31917912 2.8669384 -0.30495787 0
-1.1519488 2.9206996 -0.30083114 0
-1.0499907 2.9690425 -0.30249557 0
-0.92323744 2.941596 -0.30580395 0
-0.84068108 2.9735637 -0.30729008 0
-0.73709905 2.9245744 -0.31078139 0
-0.65628624 2.9590645 -0.31245881 0
-0.56565934 2.9467583 -0.31472248 0
-0.45634201 2.9431241 -0.31805658 0
-0.35169527 2.9641917 -0.31947428 0
-0.19962564 2.9318817 -0.32532763 0
0.1780488 2.9234087 -0.3237547 0
0.2432017 2.9505146 -0.31501049 0
0.3291114 2.9561191 -0.30366549 0
-1.1234597 3.0377522 -0.30128184 0
-1.058283 3.062011 -0.30164111 0
-0.96577853 3.0511386 -0.30406317 0
-0.84478623 3.0722799 -0.30711171 0
-0.75918102 3.0121937 -0.30996639 0
-0.65534216 3.0585945 -0.31212521 0
-0.53517395 3.0630414 -0.31518832 0
-0.44978017 3.0436776 -0.31779993 0
-0.36238545 3.0543084 -0.31885597 0
-0.20579588 3.0225031 -0.32464859 0
0.18356033 3.0139031 -0.3229335 0
0.25062025 3.0404563 -0.31396559 0
0.319442 3.0674026 -0.30487177 0
-1.1325128 3.1309345 -0.30040246 0
-1.0447823 3.1693363 -0.30125004 0
-0.9355889 3.1372633 -0.30490035 0
-0.84614301 3.1657538 -0.30664223 0
-0.75191277 3.1406031 -0.30966333 0
-0.65286827 3.1568813 -0.31163704 0
-0.56302369 3.1785901 -0.3140628 0
-0.46300656 3.1331959 -0.31691411 0
-0.37307569 3.1444252 -0.31823766 0
-0.21196611 3.1131248 -0.32396954 0
0.1918276 3.1496449 -0.32170165 0
0.26754323 3.15186 -0.31172273 0
0.32874656 3.1567483 -0.30360234 0
-1.0522109 3.2702124 -0.30059439 0
-0.96132481 3.2235608 -0.30382264 0
-0.84681797 3.2617066 -0.30659148 0
-0.73728436 3.2151217 -0.30956101 0
-0.64778829 3.249233 -0.31130996 0
-0.55663288 3.2786727 -0.31434307 0
-0.45343772 3.2283657 -0.31676698 0
-0.35968447 3.2294159 -0.31699446 0
-0.22122146 3.2490573 -0.32295096 0
0.24635643 3.2719746 -0.3144083 0
0.33805108 3.2460942 -0.30233288 0
-1.0107238 3.3026595 -0.30239654 0
-0.94096184 3.3284185 -0.30340517 0
-0.85763985 3.3687897 -0.30634102 0
-0.74894124 3.3384426 -0.30868688 0
-0.64237463 3.3464594 -0.31098771 0
-0.54282391 3.3406825 -0.31409025 0
-0.4421308 3.3204298 -0.31670338 0
-0.36973292 3.3196354 -0.3164292 0
-0.23047681 3.3849895 -0.32193244 0
0.22837335 3.3559017 -0.31649014 0
0.32501346 3.3549688 -0.3041985 0
-0.83376914 3.4110267 -0.30721152 0
-0.7515381 3.4268949 -0.30813012 0
-0.66341043 3.456373 -0.30997819 0
-0.55206507 3.4506216 -0.31294385 0
-0.46616721 3.4371176 -0.3154802 0
-0.37978137 3.4098551 -0.31586394 0
-0.23664704 3.4756112 -0.32125339 0
0.23451787 3.4461625 -0.31553298 0
0.31165054 3.4746084 -0.30622318 0
-0.57230395 3.5234199 -0.31230676 0
-0.46388409 3.5477409 -0.31528494 0
-0.39407536 3.5381935 -0.31505984 0
-0.24281727 3.5662327 -0.32057434 0
0.24934353 3.5385094 -0.31332421 0
-0.2484308 3.6486781 -0.31995657 0
0.22056121 3.6214261 -0.31742033 0
0.35493049 -3.4081767 -0.29978892 0
0.39502755 -3.3298798 -0.29336911 0
1.1453054 -3.3137808 -0.20044222 0
0.3893306 -3.2818575 -0.29413402 0
0.45443273 -3.2364109 -0.28732252 0
1.1156538 -3.2279875 -0.20431209 0
0.37351403 -3.1485319 -0.29625767 0
0.44020572 -3.1347804 -0.28903946 0
0.53125 -3.1299767 -0.27776054 0
1.086002 -3.1421945 -0.20818195 0
1.1473118 -3.1718068 -0.20100695 0
0.35769746 -3.0152063 -0.29838133 0
0.45181313 -3.0567627 -0.28739771 0
0.56646359 -3.0295238 -0.27317545 0
1.0709854 -3.0288298 -0.21035655 0
1.1164663 -3.0865326 -0.20483412 0
0.37170666 -2.9509511 -0.29708129 0
0.46384719 -2.9442508 -0.28580111 0
0.54210019 -2.9384398 -0.27651167 0
0.63181341 -2.948662 -0.26474035 0
1.0407368 -2.943296 -0.21420506 0
1.1287198 -2.9229832 -0.20193934 0
0.38445878 -2.886961 -0.2957575 0
0.43933702 -2.8335972 -0.2889483 0
0.54880285 -2.8587914 -0.27517012 0
0.65607965 -2.8600621 -0.26265457 0
0.71314114 -2.8295486 -0.25529441 0
0.99704677 -2.8848152 -0.21979155 0
1.052653 -2.8457758 -0.2119996 0
1.1111112 -2.8169341 -0.20448728 0
-2.0646589 -2.7293015 -0.29941666 0
0.36675662 -2.7540326 -0.2978456 0
0.45605171 -2.7457066 -0.28752905 0
0.55374026 -2.743 -0.27389672 0
0.65268373 -2.7551143 -0.26276478 0
0.74616402 -2.7391098 -0.25006387 0
0.96607417 -2.7525623 -0.22377849 0
1.0637678 -2.7547932 -0.21023151 0
1.1406646 -2.7748389 -0.20104453 0
-2.1272633 -2.650949 -0.29737574 0
-2.0616026 -2.6069765 -0.29955211 0
0.37225378 -2.6486592 -0.29723474 0
0.4459973 -2.6273603 -0.28882796 0
0.54720205 -2.6450007 -0.27530852 0
0.64805806 -2.6504085 -0.26299083 0
0.7578389 -2.6510112 -0.24848461 0
0.82137114 -2.6168318 -0.23995569 0
0.95198363 -2.6317041 -0.22509855 0
1.0450186 -2.6501153 -0.21289378 0
1.1209785 -2.6726294 -0.20430399 0
-2.2148647 -2.5295463 -0.29415941 0
-2.1548326 -2.5455766 -0.29659754 0
-2.0672228 -2.538547 -0.29774761 0
0.37592453 -2.544055 -0.29694733 0
0.4517217 -2.5491788 -0.2878938 0
0.54770327 -2.5547175 -0.27520397 0
0.64246893 -2.5486093 -0.26326799 0
0.75921911 -2.5450156 -0.24819081 0
0.85896331 -2.5440264 -0.23759708 0
0.94254762 -2.5489798 -0.22590101 0
1.0251931 -2.5458479 -0.21574485 0
1.1115136 -2.5473256 -0.20587686 0
-2.2622995 -2.4506218 -0.29367271 0
-2.1424763 -2.4347622 -0.29535815 0
-2.043509 -2.437336 -0.29894239 0
-1.9822326 -2.4341788 -0.29961336 0
0.35626411 -2.4110034 -0.29937157 0
0.43630347 -2.462127 -0.28988329 0
0.54377753 -2.4511449 -0.27571869 0
0.65344316 -2.4438083 -0.26158831 0
0.75823236 -2.4462717 -0.24881652 0
0.8660115 -2.4490914 -0.23619244 0
0.92191172 -2.456691 -0.22844036 0
1.0464005 -2.4451149 -0.21411204 0
1.1338966 -2.4532537 -0.20400308 0
-2.3400154 -2.3484948 -0.29118115 0
-2.2692828 -2.3774476 -0.29309943 0
-2.1561103 -2.3355141 -0.29595461 0
-2.0580695 -2.350328 -0.2975511 0
0.38235465 -2.354069 -0.2961143 0
0.43931621 -2.3398364 -0.28969496 0
0.55518895 -2.3433247 -0.27392781 0
0.65400159 -2.3454382 -0.2616885 0
0.77218872 -2.3430643 -0.24762331 0
0.85104227 -2.3533654 -0.23759317 0
0.96698421 -2.3529222 -0.22372191 0
1.0642827 -2.3467097 -0.2126987 0
1.1388041 -2.3312936 -0.2016497 0
-2.4162228 -2.2251396 -0.28899089 0
-2.373389 -2.2708161 -0.28987581 0
-2.2508764 -2.2590144 -0.29300955 0
-2.145576 -2.2478471 -0.29564637 0
-2.0444069 -2.236059 -0.29797146 0
-1.9693158 -2.2494552 -0.29956317 0
0.37766778 -2.2244692 -0.29774943 0
0.47422266 -2.2469666 -0.28429669 0
0.54947126 -2.2337399 -0.27452201 0
0.66882068 -2.2432718 -0.25997126 0
0.74541301 -2.2618454 -0.25094965 0
0.84669477 -2.2405026 -0.23778088 0
0.92856002 -2.259366 -0.22849171 0
1.0350754 -2.2636123 -0.21636418 0
1.1115198 -2.2345846 -0.20562319 0
-2.461184 -2.1520634 -0.28727371 0
-2.3389926 -2.1541317 -0.29033378 0
-2.2318721 -2.1456842 -0.29315624 0
-2.1602845 -2.1680369 -0.29530048 0
-2.0530195 -2.1504173 -0.29755688 0
-1.9854391 -2.1714966 -0.29967484 0
0.37936547 -2.141515 -0.29907006 0
0.4481408 -2.136497 -0.28795388 0
0.56508434 -2.1395578 -0.27234134 0
0.64426023 -2.1608994 -0.26315069 0
0.75381064 -2.1561284 -0.24943006 0
0.84232134 -2.1358764 -0.23897834 0
0.93441719 -2.1623039 -0.22812115 0
1.0551609 -2.1503327 -0.21245024 0
1.1375837 -2.169157 -0.20145044 0
-2.5342314 -2.0387592 -0.28542247 0
-2.4621952 -2.0592318 -0.28674737 0
-2.3506265 -2.043541 -0.29014376 0
-2.2593491 -2.0606835 -0.29221264 0
-2.1517375 -2.0589879 -0.29506311 0
-2.0466523 -2.0540404 -0.2974579 0
-1.970464 -2.0349712 -0.29872504 0
0.3890591 -2.0268948 -0.29645455 0
0.45451412 -2.0498865 -0.28690043 0
0.53760499 -2.0403037 -0.27597341 0
0.64408004 -2.0519056 -0.26373973 0
0.74865305 -2.0466554 -0.25003219 0
0.84373266 -2.0519459 -0.23913193 0
0.94726098 -2.0491321 -0.22679411 0
1.048867 -2.0529842 -0.21297397 0
1.1144003 -2.0459723 -0.20528419 0
-2.6233282 -1.9117106 -0.2839874 0
-2.5744212 -1.9620886 -0.28420532 0
-2.4586351 -1.9586641 -0.28688499 0
-2.3647606 -1.9398748 -0.28884986 0
-2.2510188 -1.9570564 -0.29175887 0
-2.1530094 -1.954494 -0.2945379 0
-2.0512338 -1.9440085 -0.2972655 0
-1.9329312 -1.9399538 -0.29941255 0
0.38414252 -1.9273155 -0.29619944 0
0.44886822 -1.9587057 -0.28768149 0
0.54158098 -1.9418858 -0.27638578 0
0.65646684 -1.9507875 -0.2618466 0
0.72913086 -1.9453413 -0.25226253 0
0.84937 -1.9536186 -0.23871438 0
0.95395631 -1.9350121 -0.22456588 0
1.0454454 -1.9594225 -0.21344411 0
1.1326542 -1.9675143 -0.20139053 0
-2.6297092 -1.8481213 -0.282141 0
-2.5288408 -1.8429418 -0.28494626 0
-2.4249449 -1.8481513 -0.28734216 0
-2.3325462 -1.8310986 -0.28968817 0
-2.240133 -1.8554085 -0.2911714 0
-2.1444728 -1.8466382 -0.29402506 0
-2.0464163 -1.8486491 -0.29689491 0
-1.9907556 -1.8866836 -0.29913738 0
0.37805158 -1.8278368 -0.29562783 0
0.43707573 -1.8451627 -0.2900722 0
0.55391735 -1.8576673 -0.27550998 0
0.65222502 -1.8448594 -0.26228893 0
0.75924528 -1.8625847 -0.24956179 0
0.83813488 -1.840729 -0.23969552 0
0.95034629 -1.8442708 -0.22516704 0
1.0494264 -1.8623798 -0.21210471 0
1.1318119 -1.8271813 -0.20295775 0
-2.6800613 -1.754611 -0.28072268 0
-2.5811896 -1.7431529 -0.28266573 0
-2.4771745 -1.7515615 -0.28554833 0
-2.3758473 -1.7575488 -0.28844982 0
-2.2551363 -1.7444148 -0.29109272 0
-2.1682515 -1.752809 -0.29282373 0
-2.0669813 -1.7457405 -0.29515317 0
-1.9630909 -1.7567247 -0.29860649 0
0.37570027 -1.7532253 -0.29765815 0
0.44969636 -1.7464032 -0.28798029 0
0.54590142 -1.7501911 -0.27673098 0
0.65699977 -1.739171 -0.26245037 0
0.74708813 -1.7598346 -0.25121972 0
0.84462881 -1.7544956 -0.23849745 0
0.9435696 -1.7529287 -0.22599861 0
1.046213 -1.7438288 -0.21237768 0
1.1080445 -1.7057904 -0.20369042 0
-2.7254841 -1.6482266 -0.27867949 0
-2.6376064 -1.6470118 -0.2810972 0
-2.5409727 -1.6376444 -0.2834543 0
-2.4233677 -1.6619744 -0.28608772 0
-2.3317201 -1.6487156 -0.28852782 0
-2.2325034 -1.6515117 -0.29136354 0
-2.1317728 -1.6490074 -0.29367009 0
-2.0198286 -1.6569232 -0.2960155 0
-1.9222648 -1.6471573 -0.2984736 0
0.38043535 -1.6593771 -0.29744685 0
0.45599732 -1.6574941 -0.28792894 0
0.54830879 -1.640103 -0.27574444 0
0.62759566 -1.6367551 -0.26697153 0
0.74536753 -1.6589811 -0.25157934 0
0.86062676 -1.6694115 -0.23645183 0
0.93479908 -1.6366746 -0.22612973 0
1.0529065 -1.6336676 -0.21191342 0
1.136009 -1.6692719 -0.20208991 0
-2.7764683 -1.5460978 -0.27824238 0
-2.6800365 -1.5431397 -0.27957386 0
-2.5623734 -1.5327028 -0.28240263 0
-2.4575827 -1.551066 -0.28529444 0
-2.3785539 -1.5572122 -0.28686225 0
-2.2583718 -1.5488093 -0.28950238 0
-2.1774983 -1.5631294 -0.29197037 0
-2.0620081 -1.5483627 -0.29491043 0
-1.9434258 -1.5482197 -0.29766575 0
-1.872488 -1.5540843 -0.29880121 0
0.38376656 -1.5699635 -0.29720503 0
0.44715765 -1.5571277 -0.28865248 0
0.54734784 -1.5476009 -0.2762121 0
0.64348882 -1.5426742 -0.26454952 0
0.7439236 -1.5602435 -0.25181627 0
0.85155016 -1.5505424 -0.23629622 0
0.95229995 -1.5402331 -0.22383881 0
1.0376343 -1.5485471 -0.21358776 0
1.1175983 -1.5457566 -0.20351158 0
-2.8191478 -1.4402496 -0.27696601 0
-2.7429209 -1.4512254 -0.27783918 0
-2.6308339 -1.440403 -0.28056294 0
-2.5260851 -1.4545026 -0.28279957 0
-2.4382608 -1.4507356 -0.28515732 0
-2.3362882 -1.4588552 -0.28784588 0
-2.2421114 -1.4450197 -0.28993484 0
-2.1297569 -1.4606172 -0.29219782 0
-2.0408113 -1.4430233 -0.29448682 0
-1.9342285 -1.4586164 -0.29755813 0
-1.846855 -1.4426903 -0.29913536 0
0.36836213 -1.4803871 -0.29664785 0
0.4419958 -1.4413077 -0.29058945 0
0.54944581 -1.4441297 -0.27601448 0
0.65988016 -1.4616477 -0.26247251 0
0.73405135 -1.4423857 -0.25277007 0
0.85373622 -1.454733 -0.2366132 0
0.96537238 -1.4557346 -0.22232467 0
1.0438762 -1.438853 -0.21218829 0
-2.839505 -1.3497823 -0.27508223 0
-2.7694192 -1.3406802 -0.27738267 0
-2.6718287 -1.3409667 -0.27969834 0
-2.5711839 -1.3603808 -0.28181639 0
-2.4750922 -1.3551258 -0.2838268 0
-2.3809793 -1.3483528 -0.28599092 0
-2.2674377 -1.3379656 -0.28874838 0
-2.1572487 -1.3615268 -0.29220691 0
-2.0807252 -1.3622291 -0.29292697 0
-1.968994 -1.3554628 -0.29566211 0
-1.8583215 -1.3408104 -0.29900086 0
0.3821094 -1.352749 -0.29692343 0
0.46527168 -1.3617109 -0.28707305 0
0.54310691 -1.3372705 -0.27712739 0
0.64439076 -1.3499538 -0.26378781 0
0.75718731 -1.3536274 -0.24806944 0
0.83808416 -1.3437945 -0.23881607 0
0.94197661 -1.3563375 -0.22498865 0
1.0465846 -1.3395814 -0.21106339 0
1.1284658 -1.3658419 -0.2019884 0
-2.8492837 -1.2313137 -0.27472696 0
-2.7474022 -1.2422885 -0.27620873 0
-2.6382079 -1.2539371 -0.27967209 0
-2.521363 -1.2429503 -0.28259981 0
-2.4288504 -1.2409282 -0.28459325 0
-2.3307838 -1.2545521 -0.28715074 0
-2.2263715 -1.2608048 -0.2891748 0
-2.1360588 -1.2504314 -0.29138136 0
-2.0422931 -1.2550936 -0.29436746 0
-1.9715047 -1.2507511 -0.29593539 0
-1.859005 -1.2361774 -0.29814136 0
0.37767529 -1.234184 -0.29798359 0
0.45527405 -1.2522619 -0.28731248 0
0.56369328 -1.2559152 -0.27380931 0
0.64907044 -1.2446303 -0.26319945 0
0.75078863 -1.2518353 -0.24929865 0
0.83936757 -1.2530055 -0.23826265 0
0.94795406 -1.2475401 -0.22384705 0
1.0714267 -1.2558444 -0.20819883 0
1.1234374 -1.2286725 -0.20442361 0
-2.9034002 -1.1332331 -0.27267733 0
-2.8625021 -1.1489969 -0.27358344 0
-2.7598758 -1.1460845 -0.27653345 0
-2.6603732 -1.1496512 -0.27919286 0
-2.5618806 -1.1509087 -0.28092098 0
-2.4662843 -1.1506491 -0.28323072 0
-2.3621578 -1.164466 -0.28583655 0
-2.2708805 -1.1602269 -0.28797263 0
-2.1498766 -1.1374574 -0.29111573 0
-2.0592268 -1.1467186 -0.29208174 0
-1.9430106 -1.1522635 -0.29620615 0
-1.8409058 -1.1495222 -0.29934552 0
0.3876186 -1.1609339 -0.29490289 0
0.45090857 -1.1513412 -0.28800121 0
0.54489028 -1.1402205 -0.27566332 0
0.65084058 -1.1528729 -0.2610257 0
0.74355137 -1.1487476 -0.25047618 0
0.8637985 -1.1573803 -0.23510651 0
0.94790852 -1.1357394 -0.22471963 0
1.0457842 -1.1605736 -0.21276605 0
1.1303736 -1.1745689 -0.20280425 0
-2.9175639 -1.0671811 -0.27180013 0
-2.8702872 -1.0499549 -0.27289703 0
-2.7544181 -1.0450317 -0.27597567 0
-2.6440248 -1.0539305 -0.27890205 0
-2.5401211 -1.0620897 -0.28218153 0
-2.4404891 -1.0616988 -0.28431347 0
-2.3447955 -1.0602701 -0.28604677 0
-2.238152 -1.0637829 -0.28849739 0
-2.1233494 -1.0467395 -0.29069164 0
-2.0623724 -1.0536841 -0.29258111 0
-1.9563358 -1.0349777 -0.29528874 0
-1.8581419 -1.0522317 -0.29746732 0
-1.7791735 -1.0414076 -0.29798377 0
0.38362962 -1.0374866 -0.29639697 0
0.44949958 -1.0500153 -0.28752121 0
0.55249643 -1.0454525 -0.27465495 0
0.6499418 -1.0559987 -0.26186028 0
0.74159378 -1.0560644 -0.25213113 0
0.84424883 -1.0596186 -0.23839681 0
0.94433212 -1.0503861 -0.22608626 0
1.0515341 -1.0590299 -0.21233585 0
1.1117887 -1.0238802 -0.20425174 0
-2.9298558 -0.9451068 -0.27146903 0
-2.8424346 -0.95604008 -0.27292198 0
-2.7373409 -0.96450835 -0.27546483 0
-2.6282263 -0.94012183 -0.27834442 0
-2.5322464 -0.94689399 -0.28090364 0
-2.445688 -0.95463067 -0.28376111 0
-2.3531625 -0.95760089 -0.28627118 0
-2.2621043 -0.95837998 -0.28883085 0
-2.1557508 -0.94544178 -0.29104611 0
-2.0523269 -0.94696844 -0.29290548 0
-1.9450407 -0.95885545 -0.29516295 0
-1.8330977 -0.95307624 -0.29777661 0
-1.7201073 -0.9740749 -0.29876661 0
-1.6588138 -0.90823889 -0.29981291 0
0.46010807 -0.96952361 -0.28503829 0
0.55056977 -0.95437628 -0.27522159 0
0.64017093 -0.95146543 -0.2641499 0
0.76040369 -0.95750254 -0.24849401 0
0.83894926 -0.94798774 -0.23854299 0
0.96517187 -0.96124715 -0.22367138 0
1.0419738 -0.9334814 -0.21365935 0
1.1360314 -0.97365838 -0.20202774 0
-2.9495142 -0.84524727 -0.27108434 0
-2.8281407 -0.85446703 -0.27356213 0
-2.7436361 -0.85050416 -0.27598181 0
-2.6568437 -0.84445965 -0.27827659 0
-2.5671642 -0.8565079 -0.28043607 0
-2.4730749 -0.84476739 -0.28232715 0
-2.3790967 -0.85100979 -0.28449985 0
-2.2549775 -0.8431958 -0.28795183 0
-2.1717415 -0.85806423 -0.29035717 0
-2.0553842 -0.83645171 -0.29297853 0
-1.9682245 -0.8505435 -0.29539058 0
-1.8690157 -0.83651733 -0.29766035 0
-1.7872009 -0.84948474 -0.29868054 0
0.55587184 -0.86500651 -0.27367583 0
0.65561903 -0.86138344 -0.26165405 0
0.73430032 -0.83736563 -0.25118387 0
0.85485423 -0.85402942 -0.23713997 0
0.9566192 -0.85895634 -0.22452992 0
1.0426356 -0.84289831 -0.21326517 0
1.1202197 -0.84129477 -0.2037852 0
-2.952606 -0.75543654 -0.26993087 0
-2.8409417 -0.74869567 -0.27263942 0
-2.7561517 -0.7474339 -0.27492356 0
-2.6686394 -0.74426228 -0.27687225 0
-2.5810759 -0.75968862 -0.2793493 0
-2.4398258 -0.74850368 -0.2827327 0
-2.3164303 -0.75456566 -0.28626367 0
-2.2226365 -0.75920945 -0.28840646 0
-2.1680386 -0.74067372 -0.28950116 0
-2.0542808 -0.74135721 -0.29237518 0
-1.9387542 -0.75671911 -0.29543659 0
-1.8442318 -0.74262983 -0.29669499 0
-1.7165676 -0.78596038 -0.29946649 0
0.5869658 -0.79943544 -0.265746 0
0.65402049 -0.76478976 -0.26262739 0
0.7584461 -0.74604189 -0.25012064 0
0.8513186 -0.75809139 -0.2388684 0
0.93729115 -0.74543643 -0.22750561 0
1.0646687 -0.74550623 -0.21082519 0
1.1357511 -0.74391866 -0.20336108 0
-3.0006714 -0.65429747 -0.26869285 0
-2.9710593 -0.64789903 -0.26852661 0
-2.8691406 -0.64717132 -0.27144289 0
-2.7734489 -0.64639884 -0.27337852 0
-2.6571229 -0.63281918 -0.27592373 0
-2.5561178 -0.67321664 -0.2784853 0
-2.4543734 -0.6464783 -0.28029987 0
-2.3281748 -0.6493296 -0.28412902 0
-2.2370307 -0.65354526 -0.28721943 0
-2.1640248 -0.64827257 -0.28860375 0
-2.0468545 -0.65054005 -0.29163125 0
-1.9350802 -0.64575016 -0.29386303 0
-1.8554568 -0.6488595 -0.29663372 0
-1.7652273 -0.64087301 -0.29748699 0
0.68628371 -0.67912942 -0.25875893 0
0.74932241 -0.64522409 -0.25104955 0
0.83636928 -0.64990741 -0.23859675 0
0.95178157 -0.64940923 -0.22586286 0
1.0522188 -0.64643312 -0.21260934 0
1.1145504 -0.64183801 -0.20374744 0
-3.0103233 -0.54436839 -0.26764718 0
-2.9545238 -0.52712137 -0.26921234 0
-2.8794589 -0.56341314 -0.27015662 0
-2.7498608 -0.53805596 -0.27325103 0
-2.6439326 -0.56346506 -0.27642542 0
-2.527468 -0.55114847 -0.27911457 0
-2.4297082 -0.56627131 -0.28091022 0
-2.3437731 -0.54623944 -0.28279313 0
-2.2398648 -0.55172706 -0.28449729 0
-2.1451457 -0.55216342 -0.28745931 0
-2.046236 -0.53920335 -0.28999543 0
-1.9637046 -0.54766148 -0.2929804 0
-1.8376323 -0.5288437 -0.29661196 0
-1.7821556 -0.5664432 -0.29618758 0
0.76490325 -0.56001723 -0.248863 0
0.84829313 -0.5533123 -0.23672898 0
0.96039885 -0.55496556 -0.22251064 0
1.0345758 -0.54167426 -0.21409898 0
1.1318769 -0.55423301 -0.20277451 0
-3.0285349 -0.45853573 -0.26798868 0
-2.9506741 -0.4467994 -0.26982906 0
-2.8192463 -0.4475975 -0.27297524 0
-2.7301178 -0.45349953 -0.27486086 0
-2.6363325 -0.45726714 -0.27679026 0
-2.5496502 -0.44223049 -0.27892879 0
-2.4553156 -0.46213499 -0.28095189 0
-2.3688354 -0.44585538 -0.28306475 0
-2.2580812 -0.45864284 -0.28512394 0
-2.1483972 -0.43634316 -0.28771663 0
-2.0682492 -0.45104727 -0.2903007 0
-1.9702923 -0.44732809 -0.29287401 0
-1.8374188 -0.45094359 -0.29586497 0
-1.746933 -0.46033788 -0.29762402 0
-1.6553547 -0.4234913 -0.29933015 0
0.78960514 -0.46990448 -0.24625531 0
0.86608869 -0.45406964 -0.23685932 0
0.94970179 -0.44313073 -0.22647928 0
1.0380709 -0.44428992 -0.21395706 0
1.1469104 -0.4549956 -0.20161314 0
-3.0267487 -0.33724034 -0.26672444 0
-2.9528182 -0.36101383 -0.26940584 0
-2.8215935 -0.3449707 -0.27234572 0
-2.7349827 -0.35431609 -0.27472159 0
-2.647567 -0.34299311 -0.27668211 0
-2.559329 -0.35019469 -0.2787472 0
-2.4709229 -0.35613942 -0.2808162 0
-2.35039 -0.33875042 -0.28386602 0
-2.277092 -0.37116924 -0.28622198 0
-2.1703684 -0.3445932 -0.28861797 0
-2.059366 -0.34205809 -0.29099336 0
-1.9338795 -0.35265979 -0.29348058 0
-1.832667 -0.3539986 -0.29582822 0
-1.7602451 -0.3444702 -0.29795831 0
-1.6859683 -0.31737053 -0.29969352 0
0.8571195 -0.34639338 -0.23692144 0
0.94008052 -0.348003 -0.22530955 0
1.0431757 -0.35029021 -0.21227409 0
1.10566 -0.32546791 -0.20581728 0
-3.022253 -0.23122154 -0.26620042 0
-2.9369502 -0.25290579 -0.26835161 0
-2.8293715 -0.24366789 -0.27090666 0
-2.7428131 -0.25599217 -0.27325106 0
-2.655333 -0.24783173 -0.27546215 0
-2.5658343 -0.25798786 -0.27792668 0
-2.4595292 -0.24728765 -0.28085807 0
-2.3617141 -0.23746727 -0.28296521 0
-2.2840645 -0.28751117 -0.28434846 0
-2.1670535 -0.28070331 -0.28690949 0
-2.0330744 -0.27311349 -0.2903696 0
-1.9254675 -0.26346508 -0.29300755 0
-1.8437641 -0.27653375 -0.29559472 0
-1.7635942 -0.27997732 -0.2979238 0
-1.6889112 -0.26812112 -0.29961735 0
0.86270916 -0.26228887 -0.23476443 0
0.95118243 -0.25526452 -0.22472098 0
1.0543293 -0.24552096 -0.21123461 0
1.1155242 -0.24337626 -0.20414026 0
-3.0213943 -0.15148778 -0.26639256 0
-2.9179659 -0.14633057 -0.26879218 0
-2.8300748 -0.14192478 -0.27083641 0
-2.7413938 -0.15714945 -0.27283606 0
-2.6535616 -0.15211625 -0.27490118 0
-2.5657294 -0.14708304 -0.2769663 0
-2.4778974 -0.14204983 -0.27903143 0
-2.355648 -0.14164701 -0.28205508 0
-2.2948096 -0.19755852 -0.28280896 0
0.86807346 -0.14605771 -0.23598896 0
0.94527286 -0.14385104 -0.22579472 0
1.0546776 -0.14910714 -0.21292864 0
1.1304332 -0.14651573 -0.20293057 0
-3.0281093 -0.072205223 -0.26558918 0
-2.9447315 -0.056129102 -0.26778114 0
-2.83038 -0.060850121 -0.27035797 0
-2.7424459 -0.058963336 -0.27243456 0
-2.6545119 -0.057076547 -0.27451116 0
-2.5665777 -0.055189762 -0.27658769 0
-2.4527702 -0.058453441 -0.27972299 0
-2.3468587 -0.050160512 -0.2818988 0
-2.2954407 -0.06579046 -0.28198886 0
0.87289697 -0.056399208 -0.23447542 0
0.94818085 -0.052564211 -0.22408995 0
1.0539669 -0.053413909 -0.21042433 0
1.1286454 -0.04846615 -0.20156439 0
-3.0197499 0.043209013 -0.26529393 0
-2.9225953 0.041836869 -0.26776931 0
-2.834815 0.040580805 -0.27000955 0
-2.7470348 0.039324749 -0.27224982 0
-2.6592543 0.038068697 -0.27449009 0
-2.5714743 0.036812637 -0.27673033 0
-2.4836938 0.035556581 -0.2789706 0
-2.3448541 0.042990983 -0.28241092 0
0.87254369 0.072036996 -0.23464493 0
0.95876217 0.064338744 -0.22599912 0
1.0610198 0.052082881 -0.2118869 0
1.1353493 0.048856277 -0.2025823 0
-3.0175915 0.15128119 -0.26589608 0
-2.9157872 0.14618909 -0.26830745 0
-2.8279471 0.14178532 -0.27038887 0
-2.7358525 0.15675986 -0.27235398 0
-2.6479988 0.15172404 -0.27437648 0
-2.5601454 0.14668822 -0.27639893 0
-2.4722915 0.14165239 -0.27842143 0
-2.3844378 0.13661656 -0.28044388 0
-2.2935359 0.16440551 -0.28235224 0
0.87083828 0.15568545 -0.23716094 0
0.94657016 0.15491793 -0.22681268 0
1.0555063 0.15985341 -0.21346875 0
1.1252531 0.14579022 -0.20223288 0
-3.0201058 0.23819377 -0.26505193 0
-2.9479494 0.23256554 -0.26672372 0
-2.835187 0.25454485 -0.26921129 0
-2.7264128 0.25436914 -0.27164233 0
-2.638916 0.24620496 -0.27376837 0
-2.552263 0.25660002 -0.27604416 0
-2.4648962 0.24781792 -0.27824044 0
-2.3775289 0.2390358 -0.28043675 0
-2.2805779 0.275491 -0.28332826 0
-2.1654375 0.28049397 -0.28633708 0
-2.0549233 0.2762759 -0.28842178 0
-1.9450902 0.27097201 -0.2909053 0
-1.8328861 0.27484444 -0.29376352 0
-1.7511865 0.27800757 -0.29549769 0
-1.6509928 0.2703087 -0.29787949 0
-1.5555513 0.28690901 -0.29932958 0
0.8615641 0.27021039 -0.23691025 0
0.95096833 0.25271004 -0.22529069 0
1.0557477 0.2469337 -0.21362071 0
1.1232535 0.24477144 -0.20495008 0
-3.0070822 0.3240217 -0.26461488 0
-2.9706941 0.35036522 -0.26506728 0
-2.8410606 0.35437679 -0.26830378 0
-2.7183225 0.35203803 -0.2712853 0
-2.6313431 0.34077057 -0.27357408 0
-2.5395699 0.34739539 -0.27562249 0
-2.4515278 0.35327932 -0.27803126 0
-2.3647182 0.34076861 -0.28031567 0
-2.2598605 0.35881293 -0.28283378 0
-2.1543002 0.34201494 -0.28552303 0
-2.0689173 0.35887775 -0.28762949 0
-1.9482121 0.3379432 -0.29071012 0
-1.8252565 0.35721007 -0.2938064 0
-1.7404257 0.34054941 -0.29569757 0
-1.6605856 0.34966707 -0.29730543 0
-1.5825725 0.3569378 -0.29903761 0
0.79869336 0.38664383 -0.23776653 0
0.85916394 0.34772336 -0.23822726 0
0.9407236 0.35621652 -0.22771725 0
1.0463954 0.3525314 -0.21350963 0
1.1093032 0.32647431 -0.20572361 0
-2.9747992 0.45048422 -0.26418582 0
-2.8791144 0.45713905 -0.26694915 0
-2.7582698 0.44588399 -0.27018529 0
-2.6204777 0.4352667 -0.27397788 0
-2.5450339 0.4510321 -0.27534562 0
-2.4352596 0.45842624 -0.27835277 0
-2.3489478 0.44217893 -0.280534 0
-2.2427514 0.45555285 -0.28284842 0
-2.1353536 0.44966897 -0.28555459 0
-2.0528872 0.44767031 -0.28787002 0
-1.9557997 0.43831167 -0.29060584 0
-1.8510933 0.44854265 -0.29268378 0
-1.7692987 0.45498112 -0.2942552 0
-1.6499997 0.43482164 -0.29796624 0
0.78323638 0.47358668 -0.24528044 0
0.86258423 0.45817229 -0.23655467 0
0.94833285 0.44933599 -0.22475904 0
1.0386389 0.44461849 -0.21439999 0
1.1422188 0.44403929 -0.20113058 0
-2.9630234 0.54895079 -0.2650637 0
-2.8612208 0.55988163 -0.26736683 0
-2.7750077 0.54301375 -0.26952571 0
-2.665329 0.54136509 -0.27224764 0
-2.539495 0.54118294 -0.2753481 0
-2.4436035 0.55744594 -0.27772602 0
-2.331629 0.54355288 -0.28088403 0
-2.2292404 0.54853576 -0.28266591 0
-2.1524856 0.55068517 -0.28447881 0
-2.0412638 0.55675262 -0.28735381 0
-1.9391372 0.55570787 -0.28959709 0
-1.856805 0.54651552 -0.29173473 0
-1.7723505 0.56325668 -0.29458484 0
0.76026988 0.55218416 -0.24941349 0
0.84473151 0.54704928 -0.23801836 0
0.95929527 0.55539042 -0.22257836 0
1.0413287 0.55014729 -0.21320523 0
1.13405 0.5490697 -0.20265737 0
-2.9472423 0.65148723 -0.2651704 0
-2.8451228 0.64174467 -0.26769385 0
-2.7585576 0.64305443 -0.26921266 0
-2.6587965 0.65992111 -0.27113006 0
-2.5559607 0.63441455 -0.27411976 0
-2.452662 0.64661765 -0.27670905 0
-2.363009 0.65897882 -0.27865109 0
-2.2331667 0.64848292 -0.28232437 0
-2.1536977 0.63390923 -0.28463173 0
-2.0462203 0.65041292 -0.28736225 0
-1.9340644 0.66067219 -0.28970507 0
-1.8322293 0.64047277 -0.29239449 0
-1.7403389 0.65073079 -0.29430082 0
-1.4750129 0.67536026 -0.29875705 0
0.69056308 0.68331385 -0.26033655 0
0.74466455 0.64525604 -0.25123155 0
0.83506334 0.64712471 -0.23948425 0
0.94855839 0.65345275 -0.22354288 0
1.0607576 0.65003067 -0.21055914 0
1.120917 0.64986455 -0.20527706 0
-2.9129057 0.74526763 -0.2630614 0
-2.8374276 0.7475881 -0.26585245 0
-2.7207937 0.75876665 -0.26942363 0
-2.6368127 0.75563025 -0.27225137 0
-2.549799 0.75053185 -0.2742357 0
-2.4533627 0.76042867 -0.27625337 0
-2.3661561 0.75195515 -0.27864599 0
-2.2746484 0.74080944 -0.28078237 0
-2.1634705 0.74592668 -0.28318483 0
-2.050226 0.74995744 -0.28594893 0
-1.9700146 0.73660487 -0.28822276 0
-1.8629961 0.73500609 -0.291022 0
-1.7535422 0.75782025 -0.2950021 0
-1.6567906 0.76814198 -0.29484257 0
-1.5434064 0.75546187 -0.29793176 0
0.65637463 0.76076776 -0.2631197 0
0.75453144 0.74901366 -0.25022045 0
0.84302628 0.75146687 -0.24035718 0
0.9394846 0.74707961 -0.2277035 0
1.0661341 0.75009441 -0.20970716 0
1.140924 0.79449666 -0.2024997 0
-2.9148996 0.83530307 -0.26529145 0
-2.88484 0.86037529 -0.26483947 0
-2.7683938 0.84351128 -0.26759094 0
-2.6408508 0.84635496 -0.27099267 0
-2.5320706 0.86503667 -0.27414709 0
-2.4239106 0.84750915 -0.27686191 0
-2.3365581 0.83579808 -0.27896121 0
-2.2427089 0.83853346 -0.28106526 0
-2.1440217 0.83090991 -0.28312528 0
-2.0418394 0.87648231 -0.28663382 0
-1.9286928 0.84982538 -0.28886816 0
-1.837938 0.85748118 -0.29124108 0
-1.7513829 0.84794897 -0.29328543 0
-1.6552569 0.84790832 -0.29582581 0
-1.5656672 0.85723782 -0.29725805 0
-1.4760551 0.86403316 -0.29958317 0
0.57121581 0.85276723 -0.27263916 0
0.65627229 0.85984474 -0.26223463 0
0.73575753 0.83666384 -0.25239059 0
0.86055642 0.84912139 -0.23779956 0
0.95136863 0.86017787 -0.22573815 0
1.0397328 0.85310298 -0.21342005 0
1.1184596 0.84006977 -0.20437349 0
-2.8647866 0.95586354 -0.26600853 0
-2.7617142 0.94349855 -0.26843515 0
-2.6678541 0.95428962 -0.27065676 0
-2.5719669 0.96164626 -0.27245834 0
-2.4580982 0.93261975 -0.27526882 0
-2.3586481 0.93376225 -0.27710146 0
-2.2551556 0.93652976 -0.28047228 0
-2.1449058 0.93935686 -0.28323701 0
-2.0814123 0.96340472 -0.28390053 0
-1.9616034 0.93239528 -0.28770766 0
-1.8613907 0.95092529 -0.29041004 0
-1.7476575 0.9407438 -0.29218012 0
-1.6369035 0.9424898 -0.29592174 0
-1.5670458 0.9593454 -0.29708743 0
-1.4499763 0.95438117 -0.29985604 0
0.46016532 0.96476883 -0.28655499 0
0.54994273 0.94622034 -0.27571714 0
0.64472914 0.94576216 -0.2620368 0
0.75882131 0.95063955 -0.24862646 0
0.83350116 0.94081682 -0.24011673 0
0.96561527 0.94462961 -0.22270034 0
1.0526365 0.94638228 -0.21251325 0
1.1371528 0.96519691 -0.2015937 0
-2.8396521 1.0386628 -0.26583016 0
-2.7518177 1.0590914 -0.26722682 0
-2.6292245 1.0479743 -0.27018264 0
-2.5394406 1.0545835 -0.27309328 0
-2.4514472 1.0386705 -0.27533296 0
-2.3565989 1.0384269 -0.27757701 0
-2.259968 1.0347573 -0.27955815 0
-2.1588411 1.0642848 -0.2826663 0
-2.0542121 1.0494425 -0.2856707 0
-1.9445555 1.0503794 -0.28731507 0
-1.8319566 1.0547568 -0.29002202 0
-1.7481666 1.0401584 -0.29238504 0
-1.6550813 1.0501696 -0.29545873 0
-1.5536863 1.053542 -0.2979033 0
-1.4565166 1.0403446 -0.29835203 0
-1.3736271 1.0314298 -0.29985496 0
0.37402153 1.0526526 -0.29549205 0
0.44663763 1.0438836 -0.2882739 0
0.55548269 1.047449 -0.27461398 0
0.65239489 1.0575098 -0.26241422 0
0.74285674 1.0447187 -0.25023761 0
0.84898537 1.0462312 -0.23718107 0
0.94929045 1.0413954 -0.22588487 0
1.0468888 1.0527771 -0.21256933 0
1.1107088 1.0228391 -0.20397076 0
-2.8136985 1.144979 -0.26578572 0
-2.7569778 1.1373626 -0.26727751 0
-2.6655481 1.1445109 -0.2701374 0
-2.5649331 1.1450571 -0.27199197 0
-2.4412236 1.1516588 -0.27498597 0
-2.3167415 1.1421221 -0.27850935 0
-2.2258601 1.1371411 -0.28098199 0
-2.1426115 1.1600088 -0.28213099 0
-2.0289712 1.1489943 -0.28448299 0
-1.9659783 1.15073 -0.28630102 0
-1.861496 1.134562 -0.2894159 0
-1.7495841 1.1453743 -0.29308316 0
-1.6550713 1.1468374 -0.29451701 0
-1.5622582 1.1384294 -0.29743594 0
-1.4734497 1.1471812 -0.29754817 0
0.37214732 1.140424 -0.29586676 0
0.45310232 1.1465641 -0.28673127 0
0.53584617 1.1471802 -0.27911377 0
0.65631419 1.1522505 -0.26216829 0
0.75027478 1.1470389 -0.250709 0
0.86371475 1.166719 -0.23786427 0
0.93497437 1.1395823 -0.22659129 0
1.0581286 1.1409904 -0.21139386 0
1.1273334 1.1714237 -0.20116982 0
-2.7551219 1.251886 -0.26703277 0
-2.6506212 1.2366717 -0.26953271 0
-2.553592 1.2588781 -0.2722739 0
-2.4607937 1.257163 -0.27446732 0
-2.3623097 1.249792 -0.27664265 0
-2.2660897 1.2407027 -0.27869967 0
-2.157048 1.2626438 -0.28133488 0
-2.0671923 1.250091 -0.28380597 0
-1.9563447 1.2464739 -0.28644064 0
-1.8422928 1.2480217 -0.28994355 0
-1.737873 1.228846 -0.29275346 0
-1.6488837 1.2380826 -0.29398853 0
-1.5447305 1.2450764 -0.29660165 0
-1.4345523 1.2317189 -0.29966456 0
0.37601537 1.2292206 -0.29680613 0
0.44165751 1.2455457 -0.2892119 0
0.55679756 1.2637414 -0.27502486 0
0.64161611 1.2415344 -0.26495937 0
0.75317389 1.242223 -0.24900661 0
0.84194702 1.2510912 -0.23948045 0
0.95742637 1.2600578 -0.22558609 0
1.0596823 1.2497205 -0.2105644 0
1.114923 1.2371927 -0.20450425 0
-2.7349067 1.3482041 -0.26758417 0
-2.6491487 1.3376411 -0.2694706 0
-2.559592 1.3541863 -0.27098864 0
-2.4382927 1.3500229 -0.27427375 0
-2.3405843 1.3552599 -0.27685773 0
-2.2368362 1.3526655 -0.27927327 0
-2.1167326 1.3428969 -0.28207606 0
-2.0358458 1.3537955 -0.28434291 0
-1.926128 1.3413278 -0.28820115 0
-1.8683965 1.3615319 -0.28907776 0
-1.7572404 1.3392057 -0.29133937 0
-1.6593897 1.3415436 -0.2934888 0
-1.5542928 1.3512951 -0.29642054 0
-1.4586575 1.3335744 -0.2983337 0
-1.3481025 1.3147578 -0.29873404 0
0.38138711 1.3501711 -0.297427 0
0.4635272 1.3620477 -0.28641915 0
0.53766567 1.3415513 -0.27671307 0
0.64736855 1.3562963 -0.26441783 0
0.762339 1.3384145 -0.24737914 0
0.85828066 1.3427852 -0.2360335 0
0.94412589 1.3457017 -0.22582236 0
1.0518334 1.3463668 -0.21194118 0
1.1283045 1.3656187 -0.20187366 0
-2.6693978 1.4515793 -0.26823816 0
-2.5555229 1.4471749 -0.27139989 0
