# .PCD v0.7 - Point Cloud Data file format
VERSION 0.7
FIELDS x y z intensity
SIZE 4 4 4 4
TYPE F F F F
COUNT 1 1 1 1
WIDTH 140
HEIGHT 1
VIEWPOINT 0 0 0 1 0 0 0
POINTS 140
DATA ascii
-40.80909 1.7529186 0.71303558 8
-40.712524 -1.7487366 0.71116358 8
-40.739727 0.58306152 2.1352766 9
-40.695091 0.00011240989 3.5602996 10
-40.619026 -1.7446752 4.9918103 11
-40.734085 2.3339684 5.0098624 11
-40.613312 -1.1625828 6.4349961 12
-40.70652 2.3323736 6.4580126 12
-40.344887 -14.424834 0.74815673 8
-40.309643 -14.412113 2.2436702 9
-40.319672 -13.127314 3.7097306 10
-40.247402 -15.042378 5.2756362 11
-40.317806 -12.491478 6.6849084 12
-40.207539 -16.352966 6.8748136 12
-40.199936 -19.808064 0.78317171 8
-40.18961 -19.802805 2.3488336 9
-40.145088 -19.780701 3.9160933 10
-40.122143 -19.76923 5.492434 11
-32.633408 -6.6256328 0.5810923 8
-32.615036 -6.6218491 1.7439429 9
-32.58234 -6.6151571 2.9084659 10
-32.553741 -6.6092987 4.0783024 11
-32.538952 -6.6062398 5.2583976 12
-18.531515 15.649487 0.42677131 8
-18.535208 15.652493 1.2749468 9
-16.062763 9.4019279 0.32669839 8
-16.051502 9.3952713 0.97667491 9
-16.043436 9.3904819 1.6284468 10
-16.014416 9.373435 2.2805767 11
-9.9761305 1.8779732 0.17750221 8
-9.961237 1.8751574 0.531578 9
-9.9583921 1.8746083 0.88696462 10
-9.9791594 1.8785026 1.2472771 11
-9.9807329 1.8787851 1.6090816 12
-9.8397179 3.0501254 1.632527 12
-7.8646832 4.757762 1.4575639 12
-7.4453526 12.832203 0.78169274 9
-6.9463725 15.92584 0.30855048 8
-6.9855733 10.59461 1.1138661 10
-6.78404 -2.8724184 1.4311219 13
-5.7856784 9.0566978 1.322966 11
-5.3767891 -2.8421659 1.4028798 14
-4.8326116 15.805258 0.29415753 8
-4.3652067 -2.8100188 1.3894967 15
-2.5800469 -5.0734601 0.90059084 12
-2.5743542 -3.4426911 1.149909 15
-2.3863986 -3.9621971 1.0662222 14
-1.2897109 -4.642839 0.93561625 13
-0.60581809 15.517727 0.2775583 8
0.3919197 -6.7363248 0.59100544 10
0.33947355 -5.8671131 0.72185862 11
0.29909316 -5.1978731 0.82456464 12
0.26668105 -4.6606932 0.90709448 13
0.23964129 -4.2125525 0.97353816 14
0.2166547 -3.8315849 1.0275103 15
0.55881232 -9.5023031 0.16796716 8
0.46017089 -7.8674774 0.41416749 9
1.4954369 7.9215612 1.2676289 12
1.9192734 9.3860569 0.15447083 8
1.9222494 9.4008598 0.4907029 9
1.9812607 5.0885773 1.2571818 14
2.0220854 9.2174664 1.1479368 11
2.0748401 4.2223406 1.259446 15
2.0142806 6.1865683 1.2589093 13
2.3599849 -7.5924239 0.41820025 9
2.2849607 -6.3807077 0.5941112 10
2.3266811 -5.4923644 0.73340666 11
2.2736685 -4.789536 0.84068978 12
2.2994957 9.2095814 0.81935704 10
2.2462771 -3.2877402 1.0685358 15
2.4418783 -9.2225399 0.16861041 8
5.2853427 9.28022 0.54939502 9
5.2826748 9.2772446 2.0683246 13
6.0277877 9.298171 1.3523996 11
6.2193232 9.2998238 2.9932525 15
6.4230304 9.3106613 1.7844326 12
6.4243164 9.3129444 2.1930041 13
6.4270873 9.3173771 2.6079257 14
6.6302643 9.3198528 0.18886885 8
7.7214389 9.3520679 0.626127 9
7.7205472 9.3514175 1.0524771 10
7.7211556 9.354351 3.2463844 15
7.9523487 9.3559437 1.9383748 12
8.1908627 9.3588772 0.20675381 8
8.190011 9.3592043 1.519716 11
8.1982975 9.369525 2.4146526 13
8.9541082 9.385047 2.9905887 14
9.227376 9.3951178 0.68109745 9
9.210742 9.3809547 3.5197217 15
9.5044298 9.4035606 1.1618022 10
9.4937077 9.3938847 2.1094537 12
9.7829027 9.4062595 2.6332247 13
10.083343 9.4178686 0.23094776 8
10.073326 9.4099035 1.6858078 11
11.300008 -4.1607132 0.21135388 8
11.292993 -3.9752021 0.62924451 9
11.300307 -3.7965307 1.0454381 10
11.326563 -4.1697245 1.4853839 11
11.323458 -3.6241465 1.8870802 12
11.319323 -3.6225772 2.3150055 13
11.327186 -3.6248288 2.751389 14
11.339853 -3.6286073 3.1968019 15
11.389623 -5.5423927 3.4008405 15
11.341761 9.4376307 3.9512796 15
11.731242 -24.541357 0.4843553 8
11.728232 -24.534765 1.434877 9
11.73215 -24.542643 2.3898149 10
11.704172 9.4565945 2.3779297 12
11.712099 9.4634819 2.922641 13
11.702141 9.4559517 3.4702263 14
12.078852 9.4739752 0.25847191 8
12.071661 9.468832 0.79565549 9
12.078408 9.4746017 1.3357159 10
12.07621 9.4733725 1.8783017 11
32.272324 17.9342 8.5163574 14
32.528297 17.467104 3.2191308 10
33.108597 16.573025 0.63391107 8
33.138668 16.589151 1.9308972 9
33.161404 16.602686 4.5443401 11
33.193108 16.620752 7.2086253 13
33.812443 15.735328 5.899579 12
34.512173 14.876107 8.6720314 14
35.022377 13.914371 0.64794773 8
35.065784 13.933723 3.2934761 10
35.385807 13.476366 1.9760654 9
35.420467 13.491679 4.647655 11
35.466377 13.511323 7.3731284 13
36.500999 12.13875 8.8788271 14
36.786282 11.64916 6.1079898 12
37.415554 10.67656 2.0332553 9
37.497276 10.704119 7.5782247 13
37.736267 10.18503 0.67573333 8
37.785583 10.200424 3.4197376 10
38.149754 9.7159348 4.8307791 11
38.892963 8.7285089 6.3121891 12
39.578201 7.6959496 2.1096733 9
40.356499 6.6553421 3.5769236 10
40.380497 6.6603546 5.0246291 11
40.422607 6.6694407 7.9652257 13
40.704891 6.1134424 0.7153331 8
