# .PCD v0.7 - Point Cloud Data file format
VERSION 0.7
FIELDS x y z intensity
SIZE 4 4 4 4
TYPE F F F F
COUNT 1 1 1 1
WIDTH 1340
HEIGHT 1
VIEWPOINT 0 0 0 1 0 0 0
POINTS 1340
DATA ascii
-0.72866327 -2.5087602 -0.20139898 0
-0.65512317 -2.5226343 -0.20245183 0
-0.5462119 -2.5487201 -0.20263948 0
-0.43670473 -2.5727477 -0.20280357 0
-0.35837269 -2.5538843 -0.20460618 0
-0.2545619 -2.5303986 -0.20671153 0
-0.15424904 -2.5330689 -0.20918363 0
-0.063694805 -2.5452642 -0.21001022 0
0.045492817 -2.5431252 -0.20998144 0
0.15461397 -2.5395205 -0.21017694 0
0.24831539 -2.5624094 -0.21265295 0
0.3387607 -2.5433621 -0.21218108 0
0.45168003 -2.549746 -0.21420193 0
0.54602993 -2.547646 -0.21562418 0
0.6395281 -2.537184 -0.21675514 0
0.75477153 -2.5305459 -0.21880192 0
0.86671156 -2.5466073 -0.219182 0
0.93473119 -2.5462492 -0.22113018 0
1.0489993 -2.552563 -0.22153686 0
1.1450586 -2.5732992 -0.22245891 0
1.2493888 -2.5573993 -0.22492775 0
1.3471494 -2.5240693 -0.22677048 0
1.4341222 -2.5971947 -0.22389938 0
-0.72023392 -2.4151928 -0.20673954 0
-0.65123308 -2.4359264 -0.20769325 0
-0.56250262 -2.4531744 -0.20756121 0
-0.45624432 -2.4722621 -0.20727997 0
-0.33666 -2.4394259 -0.21128507 0
-0.23470969 -2.4222848 -0.21292919 0
-0.14537542 -2.4449818 -0.21436122 0
-0.056453262 -2.4561615 -0.21507798 0
0.043902114 -2.454242 -0.21476705 0
0.1491973 -2.450613 -0.21481217 0
0.25669098 -2.4656181 -0.21703888 0
0.35593706 -2.4570496 -0.21743551 0
0.44003689 -2.4585061 -0.21885547 0
0.54418457 -2.4532869 -0.22045314 0
0.65362602 -2.444963 -0.22180045 0
0.75295299 -2.4336894 -0.22443441 0
0.84367156 -2.42693 -0.2256086 0
0.95936662 -2.4323232 -0.22705223 0
1.0465629 -2.4270644 -0.2288893 0
1.1329057 -2.4509211 -0.22905812 0
1.2453399 -2.4593947 -0.22931489 0
1.3262187 -2.4428473 -0.23136358 0
-0.92981905 -2.3087902 -0.20096606 0
-0.8538267 -2.360841 -0.20366049 0
-0.7351467 -2.3301907 -0.21087475 0
-0.64555746 -2.347302 -0.21320991 0
-0.5426842 -2.3667543 -0.21245193 0
-0.44684348 -2.3594933 -0.21364377 0
-0.35188287 -2.359611 -0.21425357 0
-0.26163793 -2.3493726 -0.21648841 0
-0.16082186 -2.3622015 -0.21791495 0
-0.05901489 -2.356277 -0.22055028 0
0.033983264 -2.3626909 -0.2200546 0
0.14503233 -2.3810351 -0.21873371 0
0.23801395 -2.3499057 -0.2233251 0
0.34030777 -2.3597424 -0.22291195 0
0.45386255 -2.3644714 -0.22362916 0
0.55991244 -2.3638952 -0.22557397 0
0.66497278 -2.3522081 -0.22747223 0
0.75203115 -2.3373837 -0.22977906 0
0.85393167 -2.3340099 -0.23153578 0
0.94120026 -2.3528409 -0.23030402 0
1.0498834 -2.359565 -0.23288439 0
1.1644398 -2.3653386 -0.23427153 0
1.2389694 -2.3540485 -0.23454277 0
1.3298507 -2.3483045 -0.23612285 0
1.4562143 -2.3133457 -0.23916793 0
-0.85149181 -2.2585344 -0.21240646 0
-0.76310498 -2.260118 -0.21480346 0
-0.65745693 -2.2633493 -0.21725394 0
-0.54446185 -2.254741 -0.21771744 0
-0.44397441 -2.2268534 -0.22082376 0
-0.34964052 -2.2550733 -0.22080128 0
-0.25248697 -2.2672074 -0.22109295 0
-0.15389635 -2.260406 -0.2234799 0
-0.048418358 -2.2480049 -0.22562476 0
0.046750192 -2.2476733 -0.22595707 0
0.14634523 -2.2524002 -0.22644885 0
0.26476952 -2.2315822 -0.22855935 0
0.35778046 -2.2440033 -0.22952807 0
0.45159391 -2.2664096 -0.22948915 0
0.55301064 -2.2499614 -0.23195763 0
0.64220226 -2.2716756 -0.23173212 0
0.74328947 -2.2545846 -0.23392136 0
0.84352094 -2.2315361 -0.23645671 0
0.953098 -2.2452602 -0.2371583 0
1.0498344 -2.2712338 -0.23744524 0
1.1537391 -2.2382956 -0.23985375 0
1.26406 -2.2633729 -0.2399426 0
1.358285 -2.2643178 -0.24043527 0
1.4563447 -2.2419591 -0.24277586 0
1.5480647 -2.2747045 -0.24097031 0
1.6413476 -2.2487993 -0.24566469 0
1.7387047 -2.2311938 -0.2483871 0
1.8207041 -2.2034171 -0.25007048 0
-0.95040047 -2.1532016 -0.20656312 0
-0.85470116 -2.1402445 -0.21617758 0
-0.75898284 -2.1462455 -0.2211777 0
-0.64194274 -2.1524518 -0.22266443 0
-0.55496752 -2.1373873 -0.22381094 0
-0.45815647 -2.1379848 -0.22507556 0
-0.34688467 -2.1553569 -0.22672088 0
-0.23382559 -2.1542416 -0.22765648 0
-0.14607234 -2.145525 -0.22920099 0
-0.061552063 -2.1429834 -0.23066339 0
0.053400576 -2.1330094 -0.23254785 0
0.16086483 -2.1359956 -0.2334851 0
0.25284082 -2.1309144 -0.23426419 0
0.34570661 -2.128211 -0.23566282 0
0.44856462 -2.1437862 -0.23537324 0
0.55389911 -2.1342061 -0.23811886 0
0.65467083 -2.1673412 -0.2380576 0
0.7494266 -2.1679976 -0.23866482 0
0.84499264 -2.1419909 -0.24061193 0
0.946428 -2.1270652 -0.24375613 0
1.0377696 -2.1633832 -0.24285884 0
1.1506456 -2.1560476 -0.244178 0
1.2609172 -2.1507123 -0.2451988 0
1.3557475 -2.154022 -0.24656293 0
1.4505072 -2.1313682 -0.2475795 0
1.541526 -2.1636331 -0.24783766 0
1.6515346 -2.1509309 -0.25184759 0
1.7522111 -2.1516786 -0.25228018 0
1.8662984 -2.162271 -0.25231284 0
1.9427098 -2.1347492 -0.25461742 0
2.0440431 -2.110858 -0.25707752 0
-1.0248787 -2.0532098 -0.20195346 0
-0.95051801 -2.0564494 -0.21050946 0
-0.84669942 -2.0185559 -0.22190686 0
-0.74580169 -2.0619454 -0.22513252 0
-0.65218121 -2.0269961 -0.22848901 0
-0.55781841 -2.0285304 -0.22956176 0
-0.45555761 -2.0539455 -0.22931242 0
-0.34915796 -2.0549247 -0.23161583 0
-0.26420173 -2.0501227 -0.23292939 0
-0.15271054 -2.0288746 -0.23527615 0
-0.051123593 -2.0411448 -0.23624621 0
0.051323541 -2.0501699 -0.23710597 0
0.1546403 -2.053344 -0.23807859 0
0.24304612 -2.0483317 -0.23866867 0
0.34680068 -2.0426319 -0.23992571 0
0.45171151 -2.0365298 -0.24170952 0
0.54448098 -2.0367301 -0.24420363 0
0.6515013 -2.0416605 -0.24416311 0
0.74616861 -2.0629029 -0.24446295 0
0.84832859 -2.0634499 -0.24551488 0
0.94287705 -2.0398386 -0.24802198 0
1.0454745 -2.0429044 -0.24849752 0
1.1414469 -2.0671103 -0.24847257 0
1.2580745 -2.030767 -0.25179362 0
1.36651 -2.070976 -0.25011858 0
1.4540281 -2.0407782 -0.25318354 0
1.5534552 -2.0538533 -0.25553805 0
1.6525398 -2.0591023 -0.25614461 0
1.7524171 -2.0403383 -0.25786701 0
1.84685 -2.0491562 -0.25796807 0
1.943611 -2.0558536 -0.25878003 0
2.0507495 -2.0285866 -0.26215294 0
2.1381478 -2.0703769 -0.26044506 0
2.2411525 -2.0149043 -0.263944 0
-1.0283353 -1.9606488 -0.20566365 0
-0.9464854 -1.9730685 -0.21599075 0
-0.85733849 -1.9269799 -0.22612348 0
-0.7449373 -1.9709464 -0.22926024 0
-0.64821965 -1.9197804 -0.23419787 0
-0.55074358 -1.9478726 -0.23406942 0
-0.45165718 -1.9695258 -0.23362191 0
-0.34697449 -1.9318045 -0.2374661 0
-0.24836025 -1.9286416 -0.24040325 0
-0.14581192 -1.9369578 -0.24008794 0
-0.048895877 -1.9520879 -0.24083379 0
0.049042583 -1.9575276 -0.24213117 0
0.14744717 -1.9583391 -0.24319929 0
0.24637701 -1.9564905 -0.24368079 0
0.35074943 -1.947683 -0.24494025 0
0.45028123 -1.945942 -0.24702391 0
0.54718947 -1.9355463 -0.24940544 0
0.65318578 -1.9343621 -0.2507171 0
0.75570488 -1.926002 -0.25056335 0
0.83454782 -1.9501827 -0.2519716 0
0.93569309 -1.9505876 -0.25186896 0
1.0443356 -1.9235885 -0.25486943 0
1.1317859 -1.9819931 -0.25259468 0
1.2446971 -1.9464567 -0.25603855 0
1.3458549 -1.9479496 -0.2563304 0
1.4397345 -1.9606739 -0.25815555 0
1.5443956 -1.9243464 -0.26215035 0
1.6319736 -1.9749279 -0.26030585 0
1.7409611 -1.9500984 -0.26231885 0
1.8531866 -1.9413328 -0.26349917 0
1.954133 -1.9519033 -0.26492009 0
2.0394373 -1.9328759 -0.26552218 0
2.1342826 -1.9653804 -0.26394257 0
2.2494767 -1.955565 -0.26892906 0
2.3593409 -1.9638214 -0.27058667 0
2.4279809 -1.9341702 -0.27158952 0
-1.0531801 -1.850764 -0.20717022 0
-0.95435572 -1.8583834 -0.22297874 0
-0.85098207 -1.8409632 -0.2321313 0
-0.736426 -1.84776 -0.23669893 0
-0.64657718 -1.8283727 -0.23912995 0
-0.55323714 -1.8550477 -0.23841912 0
-0.44649062 -1.8748112 -0.23869593 0
-0.35094479 -1.8514663 -0.24111845 0
-0.24490237 -1.8391739 -0.24534561 0
-0.15182364 -1.8396291 -0.24474311 0
-0.059850112 -1.8602566 -0.245589 0
0.04671346 -1.860889 -0.24686091 0
0.15326335 -1.8579645 -0.24787329 0
0.24812758 -1.8629261 -0.24875474 0
0.34230685 -1.8544495 -0.24991339 0
0.450037 -1.8409673 -0.25278229 0
0.56576234 -1.8390942 -0.25432438 0
0.65374261 -1.8490539 -0.25471634 0
0.74924457 -1.8604724 -0.25435475 0
0.85423702 -1.8683108 -0.25576627 0
0.93902999 -1.8541908 -0.25706726 0
1.0470763 -1.8336434 -0.25928232 0
1.1397929 -1.847512 -0.26133835 0
1.2404002 -1.8508058 -0.2599059 0
1.349959 -1.8384612 -0.2631951 0
1.4447594 -1.8539246 -0.26485288 0
1.5540794 -1.8266765 -0.2673049 0
1.6564672 -1.8644586 -0.26585039 0
1.764129 -1.8660164 -0.26658064 0
1.844265 -1.8507683 -0.26843238 0
1.9521646 -1.858826 -0.2691431 0
2.0622323 -1.8542658 -0.27046487 0
2.1498973 -1.8689988 -0.27213967 0
2.2445371 -1.8502926 -0.27506432 0
2.3408642 -1.8375835 -0.27521023 0
2.4531951 -1.8695152 -0.2746731 0
2.5536005 -1.8516202 -0.27860737 0
2.6239753 -1.8272381 -0.27988556 0
-1.1472049 -1.7387211 -0.20134956 0
-1.0643911 -1.7463508 -0.21220253 0
-0.94752026 -1.7451372 -0.23105676 0
-0.84619224 -1.7517715 -0.2403184 0
-0.74754626 -1.7667987 -0.24019194 0
-0.66256344 -1.7449591 -0.24293442 0
-0.5543493 -1.7660576 -0.24392101 0
-0.46108392 -1.7465767 -0.24587622 0
-0.36372787 -1.7459762 -0.24667478 0
-0.25955322 -1.757063 -0.24879839 0
-0.15835866 -1.7641789 -0.24873124 0
-0.051171958 -1.7530195 -0.25197825 0
0.043831546 -1.7453388 -0.25255421 0
0.14256389 -1.7494158 -0.25310999 0
0.24532388 -1.7464502 -0.25506043 0
0.34262657 -1.7454586 -0.25627765 0
0.45827466 -1.764585 -0.25680286 0
0.54737592 -1.7439915 -0.25805926 0
0.64150786 -1.7345009 -0.26077813 0
0.74118537 -1.7553759 -0.26010591 0
0.85770339 -1.7557174 -0.26163071 0
0.96172953 -1.7536929 -0.26299804 0
1.0483019 -1.7475314 -0.26489806 0
1.1678505 -1.7583408 -0.26386398 0
1.2579249 -1.7588838 -0.26559165 0
1.3528326 -1.7295525 -0.27036175 0
1.4382874 -1.7405758 -0.27056214 0
1.5563301 -1.7268356 -0.27199209 0
1.6437033 -1.7719737 -0.27011988 0
1.7456497 -1.7394699 -0.2730599 0
1.8494786 -1.7526219 -0.27334583 0
1.9398842 -1.7612683 -0.27343002 0
2.0515692 -1.7577955 -0.27700642 0
2.1573424 -1.7439606 -0.27907595 0
2.283391 -1.766174 -0.27765477 0
2.3633842 -1.7221597 -0.28285238 0
2.4489996 -1.7578626 -0.28171703 0
2.5579526 -1.7453184 -0.28269681 0
2.646337 -1.7599375 -0.28317222 0
2.7377491 -1.7478197 -0.28537935 0
2.8043907 -1.7233655 -0.2879768 0
-1.13383 -1.6409909 -0.20678578 0
-1.0429852 -1.6575952 -0.22117957 0
-0.95414656 -1.6484723 -0.23594804 0
-0.84988964 -1.6489301 -0.24459128 0
-0.75296968 -1.639527 -0.24747694 0
-0.65270233 -1.6547734 -0.2486691 0
-0.55397564 -1.6525176 -0.25036389 0
-0.44980708 -1.6356666 -0.25230923 0
-0.34331146 -1.6603044 -0.25208473 0
-0.24478085 -1.6406033 -0.25627202 0
-0.15451524 -1.6438564 -0.25516516 0
-0.05280925 -1.6348671 -0.25816438 0
0.052520294 -1.6263374 -0.25883576 0
0.1580632 -1.6304604 -0.25857884 0
0.25197026 -1.6244396 -0.26167992 0
0.35088009 -1.6306216 -0.26249659 0
0.44151855 -1.6367292 -0.26320764 0
0.5373776 -1.669874 -0.26206806 0
0.64966214 -1.6471974 -0.26466638 0
0.75371456 -1.6557004 -0.26608568 0
0.83876765 -1.6621249 -0.26632243 0
0.95514417 -1.6450508 -0.26947337 0
1.0485533 -1.6397414 -0.26939291 0
1.150058 -1.6389052 -0.27059779 0
1.2458308 -1.6665933 -0.27124596 0
1.355423 -1.6402146 -0.27512151 0
1.461024 -1.6684134 -0.27472523 0
1.5494316 -1.6231251 -0.27616078 0
1.6450534 -1.6746193 -0.27507386 0
1.751278 -1.636053 -0.27775091 0
1.8669087 -1.6464571 -0.27964613 0
1.9512784 -1.6482241 -0.28159782 0
2.0357912 -1.6456877 -0.28265047 0
2.1618946 -1.6474705 -0.28275445 0
2.2467957 -1.6623098 -0.28378478 0
2.3410594 -1.6301006 -0.28680286 0
2.4468405 -1.6521626 -0.28663215 0
2.57587 -1.6601007 -0.2880303 0
2.6605625 -1.65267 -0.2894007 0
2.7362509 -1.6280071 -0.29262206 0
2.857038 -1.6558729 -0.2922942 0
2.9311769 -1.6322491 -0.29352418 0
-1.2214797 -1.5221312 -0.20056263 0
-1.1453183 -1.5548447 -0.21059032 0
-1.0346527 -1.5482029 -0.22789644 0
-0.95260286 -1.5478024 -0.24180849 0
-0.84509325 -1.556499 -0.24911451 0
-0.73773074 -1.538188 -0.25384536 0
-0.63375092 -1.5519673 -0.25459164 0
-0.55039614 -1.5241877 -0.25699645 0
-0.45387793 -1.551021 -0.2575607 0
-0.35225126 -1.5679812 -0.25624231 0
-0.25517309 -1.5647111 -0.25889376 0
-0.14357984 -1.5602835 -0.25860864 0
-0.054855775 -1.5508678 -0.26139334 0
0.050107762 -1.5526506 -0.26180801 0
0.14895938 -1.5536137 -0.26196036 0
0.24749936 -1.5443934 -0.26524332 0
0.34442735 -1.5534483 -0.26653379 0
0.43831354 -1.5503234 -0.26758102 0
0.54620159 -1.5750407 -0.26734835 0
0.64635599 -1.5578867 -0.26884082 0
0.74619859 -1.5384167 -0.27271742 0
0.85025889 -1.5354247 -0.27375796 0
0.95052481 -1.5591025 -0.27348956 0
1.0580055 -1.5546983 -0.27434993 0
1.1548344 -1.549355 -0.27553174 0
1.2539552 -1.544677 -0.27861339 0
1.3410107 -1.5537081 -0.2791509 0
1.4462928 -1.5591629 -0.2790525 0
1.5540992 -1.537472 -0.28157344 0
1.6466231 -1.5680541 -0.28076977 0
1.7307653 -1.5264076 -0.28434283 0
1.8223698 -1.5437498 -0.28551063 0
1.9472831 -1.5513163 -0.28629529 0
2.0650115 -1.5390674 -0.28755963 0
2.1606791 -1.5509032 -0.28868023 0
2.2447305 -1.5396668 -0.28996617 0
2.3359189 -1.5291454 -0.29209098 0
2.4396973 -1.5477072 -0.29222843 0
2.5475063 -1.5653712 -0.29273692 0
2.6535623 -1.5448508 -0.29533884 0
2.7627914 -1.5559177 -0.29553339 0
2.8337929 -1.525301 -0.29711124 0
2.9489658 -1.5691867 -0.29674029 0
3.0416522 -1.5538697 -0.29883137 0
-1.2095942 -1.421942 -0.20962489 0
-1.1333234 -1.4435976 -0.21855542 0
-1.065017 -1.4564835 -0.22862516 0
-0.95252293 -1.4509844 -0.24739434 0
-0.84672928 -1.4326931 -0.25866807 0
-0.74854356 -1.441384 -0.25783822 0
-0.65821493 -1.4792372 -0.25838414 0
-0.55877823 -1.4363194 -0.26200393 0
-0.44340143 -1.4491628 -0.26288062 0
-0.3485457 -1.4465964 -0.26364014 0
-0.24987487 -1.4529517 -0.26448074 0
-0.15092909 -1.4494641 -0.26589152 0
-0.057017028 -1.4485455 -0.26498014 0
0.046982046 -1.4562196 -0.26628745 0
0.15161985 -1.4550798 -0.26732612 0
0.24657346 -1.4524007 -0.26941893 0
0.34340352 -1.4493033 -0.27216622 0
0.45735225 -1.4462608 -0.27272454 0
0.5475691 -1.4575891 -0.27382815 0
0.64812785 -1.444792 -0.27621037 0
0.76006919 -1.4432701 -0.27664372 0
0.84890282 -1.4620507 -0.27825755 0
0.95069438 -1.4570242 -0.27847809 0
1.0579345 -1.4462457 -0.27998286 0
1.1376569 -1.4432075 -0.28194454 0
1.2482989 -1.4419897 -0.28383762 0
1.3493714 -1.4546356 -0.28358665 0
1.4398292 -1.4575918 -0.2844885 0
1.5471196 -1.4452991 -0.28570938 0
1.6568614 -1.4401969 -0.28803986 0
1.7628298 -1.467154 -0.28881773 0
1.8484313 -1.445781 -0.28982633 0
1.9444304 -1.4313769 -0.29223254 0
2.0498095 -1.4272848 -0.29401112 0
2.1523578 -1.4532944 -0.29359943 0
2.2566509 -1.4469308 -0.29553649 0
2.3523388 -1.4455688 -0.29591316 0
2.4425406 -1.4296529 -0.29846853 0
2.5348122 -1.4593335 -0.297892 0
2.6594672 -1.4560552 -0.29881641 0
2.754813 -1.4827898 -0.29835266 0
-1.2493842 -1.3471798 -0.20557894 0
-1.158409 -1.3496803 -0.22135033 0
-1.0435008 -1.33889 -0.23849978 0
-0.9386149 -1.3378059 -0.25643155 0
-0.84838951 -1.3648887 -0.26286888 0
-0.75363922 -1.3418424 -0.2642785 0
-0.64500785 -1.3585769 -0.26500151 0
-0.53121299 -1.3393909 -0.26934236 0
-0.44295937 -1.3366293 -0.26857689 0
-0.34519318 -1.3365121 -0.26936421 0
-0.25208068 -1.3457404 -0.27086568 0
-0.15168121 -1.3622304 -0.27050212 0
-0.053672459 -1.363215 -0.26898137 0
0.044198137 -1.3706424 -0.27043489 0
0.146052 -1.3668687 -0.27181602 0
0.24832039 -1.3644167 -0.27397445 0
0.34850696 -1.3573821 -0.27703962 0
0.44712892 -1.3466376 -0.27885079 0
0.55015957 -1.3379778 -0.27881685 0
0.6399585 -1.3308895 -0.28238586 0
0.74308437 -1.3455248 -0.28188372 0
0.84366667 -1.3528281 -0.28321496 0
0.95854735 -1.3453335 -0.2842474 0
1.0592463 -1.3651284 -0.2836788 0
1.1589329 -1.3623266 -0.28751054 0
1.2588047 -1.334498 -0.28949311 0
1.3548689 -1.3596179 -0.28879991 0
1.4534181 -1.3501848 -0.28992119 0
1.5549427 -1.3422476 -0.29192585 0
1.6503243 -1.3535305 -0.2931225 0
1.7511419 -1.3506155 -0.29362562 0
1.8583826 -1.3475806 -0.29590872 0
1.9507604 -1.3482111 -0.29577011 0
2.0267844 -1.3434919 -0.29865471 0
2.1386642 -1.3567362 -0.29848933 0
2.2380979 -1.3753653 -0.29791883 0
2.3516355 -1.3991696 -0.29911819 0
-1.3117899 -1.2432127 -0.20196967 0
-1.2379847 -1.2543304 -0.21320514 0
-1.1465673 -1.239722 -0.22955814 0
-1.0405368 -1.2337434 -0.24739428 0
-0.95842576 -1.252546 -0.25563157 0
-0.85688001 -1.2478818 -0.26596785 0
-0.73644048 -1.2378901 -0.27137488 0
-0.64835769 -1.2396346 -0.27159429 0
-0.55407602 -1.2535408 -0.27084705 0
-0.44515595 -1.2588526 -0.27101773 0
-0.35260889 -1.2474298 -0.27405071 0
-0.24934702 -1.25041 -0.27631429 0
-0.14219297 -1.2358996 -0.27804729 0
-0.054477312 -1.2281139 -0.27837041 0
0.04725932 -1.2347994 -0.27978015 0
0.15194429 -1.2281772 -0.28034124 0
0.2468847 -1.2380512 -0.28069958 0
0.35397956 -1.25158 -0.2824142 0
0.45527625 -1.2501699 -0.28368002 0
0.54138565 -1.2483281 -0.28414947 0
0.66166973 -1.2582245 -0.28496435 0
0.74185181 -1.2568972 -0.28694484 0
0.84792411 -1.2345127 -0.28924271 0
0.950302 -1.2559034 -0.289141 0
1.0423913 -1.2495745 -0.29117996 0
1.1510947 -1.2461838 -0.29200563 0
1.2437159 -1.248008 -0.29310524 0
1.3489412 -1.2600288 -0.29361627 0
1.4437746 -1.2322567 -0.29641774 0
1.5454472 -1.2309842 -0.29803765 0
1.6322188 -1.2625148 -0.29705596 0
1.741226 -1.2688109 -0.29770353 0
1.8597493 -1.2950597 -0.29780433 0
-1.3202411 -1.1374443 -0.20751137 0
-1.2621411 -1.1566954 -0.21632968 0
-1.1507638 -1.1550814 -0.23399548 0
-1.0523828 -1.1454463 -0.25123301 0
-0.95298976 -1.1533667 -0.26340279 0
-0.84978288 -1.1402124 -0.27205178 0
-0.75885206 -1.150098 -0.27391264 0
-0.64645237 -1.1566718 -0.27526659 0
-0.53959316 -1.1397482 -0.27755678 0
-0.44397902 -1.1364981 -0.27733219 0
-0.3482053 -1.1478262 -0.27901015 0
-0.24506855 -1.1665736 -0.28071722 0
-0.15864536 -1.1589427 -0.28112423 0
-0.053706821 -1.153831 -0.28202072 0
0.048024323 -1.160105 -0.28389165 0
0.15044165 -1.1588898 -0.28489301 0
0.25579587 -1.1657554 -0.28363985 0
0.35180339 -1.1645973 -0.28806689 0
0.4522748 -1.1547427 -0.28896239 0
0.55103225 -1.1346509 -0.28957903 0
0.63994336 -1.1502401 -0.29371977 0
0.74798566 -1.1513833 -0.29253504 0
0.84013337 -1.1440302 -0.29407784 0
0.94494611 -1.1682431 -0.29468659 0
1.0345837 -1.1315343 -0.29608545 0
1.1377381 -1.1416399 -0.2968618 0
1.2444562 -1.1623856 -0.29760617 0
1.3540506 -1.1769633 -0.2981371 0
1.5922351 -1.1778479 -0.29913604 0
-1.3404781 -1.0456346 -0.20876458 0
-1.243037 -1.0496298 -0.22422323 0
-1.1389108 -1.0488944 -0.24261238 0
-1.0505065 -1.0642148 -0.25600937 0
-0.94017524 -1.0432472 -0.27175149 0
-0.84949237 -1.0552706 -0.27707708 0
-0.75371492 -1.0555011 -0.27850392 0
-0.64935321 -1.0412102 -0.28061515 0
-0.5535239 -1.0683364 -0.28117397 0
-0.45401272 -1.057631 -0.28144339 0
-0.34161761 -1.0527562 -0.28468361 0
-0.257532 -1.0535222 -0.28518909 0
-0.14883816 -1.0600277 -0.28693715 0
-0.049590707 -1.0654383 -0.28587732 0
0.050058875 -1.0756948 -0.28866121 0
0.15130654 -1.076723 -0.29142818 0
0.25024906 -1.0565304 -0.29104751 0
0.35250947 -1.0577922 -0.29281464 0
0.44987613 -1.0393012 -0.29495084 0
0.55827159 -1.0501133 -0.29566881 0
0.66147238 -1.075636 -0.29581699 0
0.73327833 -1.0538535 -0.29646483 0
0.85815734 -1.0693743 -0.2985692 0
0.96095228 -1.0816009 -0.29863483 0
1.0565252 -1.0830295 -0.29871345 0
-1.4068457 -0.92110205 -0.20647457 0
-1.3567151 -0.95576727 -0.212216 0
-1.2476228 -0.94506252 -0.23028196 0
-1.1533401 -0.95536751 -0.24438354 0
-1.0361722 -0.93443704 -0.26662055 0
-0.9599176 -0.95412558 -0.27673069 0
-0.83866596 -0.93635899 -0.28395548 0
-0.74881828 -0.95532656 -0.28396377 0
-0.66758019 -0.9589296 -0.28498474 0
-0.55860436 -0.95294482 -0.28737563 0
-0.45807165 -0.9727087 -0.28820843 0
-0.38232732 -0.98992711 -0.28436473 0
0.53893906 -0.97596931 -0.29881397 0
0.64782137 -0.96600348 -0.2991465 0
-1.4396021 -0.84669656 -0.20511106 0
-1.3400534 -0.84429884 -0.2212536 0
-1.2339375 -0.85104889 -0.23846613 0
-1.1410147 -0.83591753 -0.25688142 0
-1.0583258 -0.8469727 -0.26792926 0
-0.94047749 -0.8370415 -0.2862069 0
-0.85979086 -0.86118305 -0.28803298 0
-0.74585205 -0.84388345 -0.29008186 0
-0.64771032 -0.86898625 -0.29052776 0
-1.5117606 -0.7185334 -0.2055203 0
-1.4596878 -0.75439316 -0.20702064 0
-1.3444765 -0.73279458 -0.22778407 0
-1.2636971 -0.7531572 -0.23959126 0
-1.1333495 -0.75121003 -0.259597 0
-1.0435756 -0.74704731 -0.27514678 0
-0.96696991 -0.74679673 -0.28648448 0
-0.85515773 -0.75205392 -0.29385415 0
-0.77178472 -0.77441049 -0.29301554 0
-1.5237024 -0.65071857 -0.2036176 0
-1.4596224 -0.65169001 -0.21335848 0
-1.3396144 -0.64082557 -0.23438233 0
-1.2586619 -0.65447795 -0.24732701 0
-1.1625203 -0.63797003 -0.26265484 0
-1.0308799 -0.65883124 -0.283427 0
-0.94742846 -0.65122026 -0.29260543 0
-0.87576562 -0.67747146 -0.29669806 0
-1.5464683 -0.55299759 -0.2068581 0
-1.441568 -0.54657781 -0.2235529 0
-1.3572578 -0.55955249 -0.23258917 0
-1.2243997 -0.57577932 -0.25699148 0
-1.1587209 -0.56524354 -0.26695725 0
-1.0672137 -0.55110979 -0.28290966 0
-0.97067088 -0.54055643 -0.29783061 0
-1.6143174 -0.42535964 -0.20499228 0
-1.5627294 -0.46543148 -0.20899802 0
-1.4433436 -0.44715521 -0.22901057 0
-1.0034387 -0.49465808 -0.2997646 0
-1.6261559 -0.3545455 -0.20438218 0
-1.5479014 -0.3551636 -0.2162378 0
-1.4514692 -0.36472249 -0.23184553 0
-1.3295314 -0.33045852 -0.25550961 0
-1.2804363 -0.32950562 -0.26373494 0
-1.1791445 -0.31068403 -0.28151739 0
-1.638025 -0.23873554 -0.20850077 0
-1.546222 -0.25026628 -0.22303374 0
-1.4614117 -0.25342929 -0.238474 0
-1.334639 -0.25102395 -0.25924507 0
-1.237432 -0.24719828 -0.27546164 0
-1.1757823 -0.27399755 -0.28394824 0
-1.0834372 -0.26075017 -0.29860252 0
-1.6743892 -0.14412892 -0.20637023 0
-1.4819905 -0.19196555 -0.23668484 0
-1.1516039 -0.1997589 -0.2917394 0
-1.0999918 -0.19080618 -0.29914284 0
-1.7096615 -0.024475709 -0.20994122 0
-1.6905603 -0.072527036 -0.20778662 0
-1.800596 0.064460963 -0.20177643 0
-1.7399446 0.041382909 -0.21032876 0
-1.8159032 0.14336243 -0.20389222 0
-1.7451096 0.15034889 -0.21508066 0
-1.8267151 0.23667598 -0.20693325 0
-1.7606168 0.24746357 -0.21883239 0
-1.6589787 0.25127307 -0.23489612 0
-1.5504997 0.25860527 -0.25248626 0
-1.4306229 0.26460588 -0.27342907 0
-1.3597109 0.25587761 -0.28318477 0
-1.2661213 0.22716312 -0.29741532 0
-1.9052498 0.38696194 -0.20237541 0
-1.8406242 0.34652057 -0.21058518 0
-1.7560371 0.33831 -0.22454926 0
-1.6380665 0.34515783 -0.24478042 0
-1.5579394 0.35617313 -0.25895399 0
-1.4258264 0.34899145 -0.27885562 0
-1.3568709 0.33672765 -0.28891203 0
-1.9213389 0.44795266 -0.2039365 0
-1.8379759 0.45622146 -0.2196788 0
-1.7656322 0.4496223 -0.22926824 0
-1.6478342 0.4495489 -0.24691212 0
-1.5589328 0.43496034 -0.25962582 0
-1.4658041 0.40873608 -0.27339488 0
-2.0055823 0.59031492 -0.20008166 0
-1.9375092 0.54029727 -0.20852338 0
-1.8468921 0.5550459 -0.22527 0
-1.7622536 0.55129641 -0.23657356 0
-1.6540664 0.5521 -0.25561315 0
-1.5884759 0.55553693 -0.26656586 0
-2.0132959 0.65576279 -0.20191132 0
-1.9448445 0.64905411 -0.21317366 0
-1.8345593 0.65174037 -0.23086405 0
-1.758054 0.64570725 -0.24228594 0
-1.6476535 0.65691227 -0.26076362 0
-1.5589302 0.66018498 -0.27589494 0
-1.4511188 0.65844107 -0.29421932 0
-1.3940175 0.63827515 -0.29802203 0
-2.0200555 0.75543839 -0.2080065 0
-1.9481192 0.76050693 -0.21897006 0
-1.8342966 0.7402553 -0.23536596 0
-1.7484864 0.75550956 -0.25048208 0
-1.652534 0.75669795 -0.26750553 0
-1.5682886 0.74324799 -0.28052562 0
-1.4610415 0.74642986 -0.29778925 0
-2.1085036 0.89333105 -0.20034353 0
-2.0534847 0.85263324 -0.20736356 0
-1.9482689 0.85869694 -0.22448449 0
-1.8332725 0.85114324 -0.24317449 0
-1.7444044 0.84436387 -0.257177 0
-1.6448522 0.85546941 -0.2741397 0
-1.5640329 0.85429728 -0.28757358 0
-2.1238935 0.95420694 -0.2037133 0
-2.0637784 0.95208275 -0.21285769 0
-1.955902 0.96433073 -0.23052864 0
-1.8416773 0.94628102 -0.24800716 0
-1.7410742 0.93708783 -0.26424557 0
-1.6478739 0.96470851 -0.28248501 0
-1.5773435 0.95395279 -0.29307684 0
-2.1290402 1.0496919 -0.20768964 0
-2.0544007 1.042141 -0.21956225 0
-1.9627783 1.0565515 -0.23674364 0
-1.8416882 1.0460845 -0.25507236 0
-1.7347641 1.0440792 -0.27253559 0
-1.6365491 1.0549502 -0.28880358 0
-1.5708061 1.0252522 -0.29842871 0
-2.2244873 1.1768948 -0.20279706 0
-2.1363482 1.1460549 -0.21434955 0
-2.0547986 1.1558373 -0.22608991 0
-1.9574013 1.1459389 -0.24167146 0
-1.8490343 1.1497669 -0.26050007 0
-1.757957 1.1511908 -0.27407825 0
-1.6550478 1.1524262 -0.29021391 0
-2.2123444 1.2530316 -0.20576806 0
-2.1401992 1.2323463 -0.21607086 0
-2.0505173 1.2558581 -0.23284726 0
-1.9529371 1.25883 -0.24903758 0
-1.8309593 1.2479315 -0.26691619 0
-1.7428465 1.2511785 -0.28174973 0
-1.6751753 1.2580286 -0.29365942 0
-2.2477026 1.3738003 -0.20856957 0
-2.1480014 1.3414572 -0.22157745 0
-2.0570998 1.3507538 -0.23766217 0
-1.9419177 1.3523828 -0.25557512 0
-1.8277882 1.3376071 -0.2733261 0
-1.7570417 1.35114 -0.28669325 0
-2.2576342 1.4550028 -0.21101519 0
-2.1584122 1.4576887 -0.22916879 0
-2.040719 1.4427327 -0.24538967 0
-1.9401238 1.4353073 -0.26109794 0
-1.8322105 1.445434 -0.28071845 0
-1.7563413 1.4491307 -0.29259327 0
-2.3307583 1.5658258 -0.20807092 0
-2.2318006 1.5542818 -0.22182828 0
-2.1517088 1.5446526 -0.23326717 0
-2.0314229 1.5436213 -0.25351262 0
-1.9378506 1.5440321 -0.26913345 0
-1.8331451 1.5592202 -0.28680834 0
-1.7858191 1.5414373 -0.2935755 0
-2.3488781 1.6439676 -0.20791705 0
-2.2513981 1.6571852 -0.22392659 0
-2.1570802 1.6441158 -0.23983486 0
-2.065624 1.6458277 -0.25407591 0
-1.9581902 1.653648 -0.27125418 0
-1.8622079 1.6425959 -0.28777859 0
-1.7932135 1.6279292 -0.29738337 0
-2.4331708 1.7731361 -0.20174004 0
-2.3374293 1.7550869 -0.21664572 0
-2.2348742 1.7545154 -0.23307395 0
-2.1463714 1.7461488 -0.24602015 0
-2.0510354 1.7576394 -0.26224405 0
-1.9517193 1.7462361 -0.27903736 0
-1.8443899 1.7482919 -0.29533696 0
-2.4430237 1.8620477 -0.20578378 0
-2.3477747 1.8520285 -0.22041893 0
-2.2519753 1.8652872 -0.23569818 0
-2.1459236 1.8566637 -0.25286087 0
-2.0403948 1.8523229 -0.27094048 0
-1.9501218 1.8305435 -0.28342265 0
-1.8959801 1.8490841 -0.2922568 0
-2.5050387 1.9956162 -0.20386143 0
-2.4354868 1.9690119 -0.21308997 0
-2.3630795 1.9670393 -0.22395557 0
-2.2636337 1.93946 -0.23846731 0
-2.1699507 1.9699761 -0.25708643 0
-2.0582631 1.9505013 -0.27266517 0
-1.9395272 1.928017 -0.29164544 0
-2.5015607 2.0520506 -0.20711723 0
-2.4267378 2.0494714 -0.21853651 0
-2.3248284 2.040674 -0.23577096 0
-2.2383642 2.0321021 -0.24972022 0
-2.154038 2.056149 -0.26292011 0
-2.0592945 2.0470736 -0.27925566 0
-1.9573609 2.0408318 -0.29445934 0
-2.5305235 2.1681514 -0.20957488 0
-2.4550228 2.1343405 -0.22011004 0
-2.346688 2.1404631 -0.23852377 0
-2.2507193 2.1535406 -0.25327227 0
-2.155659 2.1532135 -0.26997051 0
-2.0556698 2.1538134 -0.28609663 0
-1.9963076 2.1215966 -0.29338866 0
-2.6327488 2.2888069 -0.20033967 0
-2.5461938 2.2565854 -0.21322852 0
-2.4502218 2.2780898 -0.22930835 0
-2.357326 2.2340908 -0.24075775 0
-2.2649188 2.2405472 -0.2572006 0
-2.1608727 2.2474759 -0.27596334 0
-2.054631 2.2471728 -0.29473585 0
-2.6346989 2.3575501 -0.20532027 0
-2.5620823 2.3594639 -0.21648297 0
-2.4544525 2.3595018 -0.23290733 0
-2.3406899 2.349189 -0.25205192 0
-2.2561791 2.3300364 -0.2649264 0
-2.1566708 2.3492157 -0.28374273 0
-2.0520511 2.3098838 -0.29827428 0
-2.6449842 2.4591796 -0.20870022 0
-2.5505285 2.4523125 -0.22295758 0
-2.4660845 2.4514606 -0.23743802 0
-2.3645592 2.441968 -0.2549243 0
-2.2682984 2.445385 -0.27091098 0
-2.1659281 2.4558146 -0.28781915 0
-2.0959496 2.4284246 -0.29744279 0
-2.6469622 2.5445838 -0.21296945 0
-2.5506816 2.5598347 -0.23059991 0
-2.444176 2.5483711 -0.24796472 0
-2.3416662 2.5368168 -0.26473579 0
-2.2631066 2.5474577 -0.27762032 0
-2.1567719 2.5477836 -0.29486144 0
-2.751399 2.6581476 -0.20289306 0
-2.6457219 2.6553063 -0.22090364 0
-2.545763 2.6672282 -0.23849472 0
-2.4522514 2.6437085 -0.25266862 0
-2.3534479 2.6491499 -0.26902238 0
-2.1625319 2.6555865 -0.29962343 0
-2.7624228 2.7723358 -0.20903276 0
-2.6390886 2.7645364 -0.22919753 0
-2.5483377 2.7871449 -0.24603283 0
-2.458353 2.7407568 -0.25768435 0
-2.8001382 2.8918066 -0.21095854 0
-2.7320852 2.8624325 -0.2200563 0
-2.6362047 2.842032 -0.23442626 0
-2.5341306 2.8525348 -0.25182647 0
-2.8091846 2.9854898 -0.21483749 0
-2.7588401 2.9742475 -0.22226468 0
-2.6623187 2.9541945 -0.2370263 0
-2.594358 2.9203296 -0.24609451 0
-2.8170164 3.0810018 -0.21878664 0
-2.7532892 3.0546517 -0.22798894 0
-2.8320367 3.1878717 -0.2234742 0
-2.7750406 3.1237144 -0.22889861 0
-0.96862596 -3.7304289 -0.10800141 0
-1.0112426 -3.6773677 -0.10245334 0
-0.94588983 -3.6428661 -0.11668667 0
-1.0281254 -3.5397973 -0.10806164 0
-0.95805645 -3.5500472 -0.11930171 0
-1.1020057 -3.4249716 -0.10297732 0
-1.0368036 -3.4465122 -0.11306263 0
-0.92009532 -3.4426055 -0.13206853 0
-1.1398451 -3.3760731 -0.10065072 0
-1.044562 -3.3274269 -0.11880113 0
-0.9470883 -3.3494177 -0.13317356 0
-0.87768131 -3.3801775 -0.14274246 0
0.48763788 -3.3000708 -0.17482708 0
0.65829784 -3.301615 -0.17644045 0
0.85849082 -3.3061574 -0.17901877 0
0.93320197 -3.3009574 -0.17977588 0
-1.1292009 -3.2675886 -0.10874718 0
-1.0652194 -3.2315433 -0.12110147 0
-0.97076607 -3.2556689 -0.13553175 0
-0.85976046 -3.2472908 -0.15334608 0
-0.44959241 -3.2008965 -0.16939829 0
-0.31175533 -3.2169702 -0.16938384 0
-0.25064084 -3.2264044 -0.16978611 0
-0.14295183 -3.239013 -0.17023467 0
-0.05808302 -3.2476554 -0.17023374 0
0.034926679 -3.2578228 -0.1712597 0
0.15187693 -3.2623243 -0.17187758 0
0.26981038 -3.270231 -0.17322901 0
0.36464348 -3.274327 -0.17428289 0
0.4510088 -3.2679245 -0.17608704 0
0.55634367 -3.2767782 -0.17624915 0
0.64714086 -3.2456493 -0.17926042 0
0.75027043 -3.2716408 -0.17886049 0
0.83900321 -3.2310662 -0.18273064 0
0.9501875 -3.2420168 -0.18203336 0
1.0459456 -3.2505066 -0.18303689 0
1.161653 -3.284502 -0.1833109 0
1.2702302 -3.2656946 -0.18451194 0
1.3581424 -3.2595656 -0.18763436 0
1.4476168 -3.253588 -0.18913233 0
1.5509964 -3.2334981 -0.1903324 0
1.6452187 -3.248723 -0.19085059 0
1.7553492 -3.2333984 -0.19282053 0
-1.2147752 -3.145535 -0.1026457 0
-1.146889 -3.1702495 -0.11084606 0
-1.0373665 -3.1470537 -0.1307452 0
-0.93127197 -3.1501007 -0.14853084 0
-0.82410753 -3.1272287 -0.1660409 0
-0.74976557 -3.1320508 -0.168788 0
-0.65097851 -3.1472273 -0.16843465 0
-0.56094587 -3.1666512 -0.16854492 0
-0.45640358 -3.1683369 -0.16984816 0
-0.34978047 -3.1407828 -0.17225294 0
-0.23647892 -3.1417251 -0.1743795 0
-0.14685173 -3.1546381 -0.17442113 0
-0.056763381 -3.1714616 -0.17462647 0
0.033917654 -3.164134 -0.17630887 0
0.14742599 -3.1667931 -0.1770017 0
0.2615419 -3.1692157 -0.17851225 0
0.35305494 -3.1702666 -0.17970669 0
0.44446093 -3.1642175 -0.18138972 0
0.53805798 -3.1692142 -0.18187803 0
0.62963855 -3.157865 -0.18368375 0
0.7468403 -3.1529169 -0.18548781 0
0.86320508 -3.1389217 -0.18756299 0
0.95817256 -3.1308413 -0.18806505 0
1.052476 -3.1173129 -0.19050515 0
1.1397359 -3.1513968 -0.18995319 0
1.2524949 -3.1754005 -0.18967156 0
1.3540828 -3.1644444 -0.19225225 0
1.4262806 -3.1446347 -0.19471352 0
1.5271871 -3.1260505 -0.19596718 0
1.6630239 -3.1705742 -0.19599789 0
1.7410367 -3.1530166 -0.19623026 0
-1.2180389 -3.0244558 -0.11013767 0
-1.1479445 -3.0587912 -0.11732566 0
-1.0570819 -3.0579381 -0.1332787 0
-0.96481341 -3.0484021 -0.14859115 0
-0.8593176 -3.0400045 -0.16649802 0
-0.74405223 -3.0441437 -0.17348816 0
-0.63561094 -3.0730078 -0.17269851 0
-0.54678398 -3.0864782 -0.17303471 0
-0.44264546 -3.0462968 -0.17713986 0
-0.35920197 -3.0279455 -0.1780481 0
-0.25154561 -3.0501986 -0.17917514 0
-0.14273115 -3.0660791 -0.17939961 0
-0.05517979 -3.0829124 -0.17973945 0
0.05503704 -3.0764258 -0.18126763 0
0.16534311 -3.0775371 -0.18184838 0
0.25942907 -3.0564654 -0.18475913 0
0.33300939 -3.0551891 -0.18602715 0
0.43202722 -3.0756989 -0.1858401 0
0.54521328 -3.0776899 -0.18695219 0
0.65851343 -3.0725341 -0.18858947 0
0.74819624 -3.0607948 -0.1904256 0
0.83940101 -3.0523605 -0.19186589 0
0.9319275 -3.0450852 -0.19251814 0
1.0469499 -3.029026 -0.19558418 0
1.1646668 -3.0158587 -0.19707218 0
1.2408655 -3.0810471 -0.1952666 0
1.3415079 -3.0740047 -0.19766733 0
1.4383414 -3.0542331 -0.19917561 0
1.5936887 -3.0921412 -0.19923168 0
-1.2573866 -2.9387412 -0.10768025 0
-1.1683882 -2.9623923 -0.12189735 0
-1.0573491 -2.9451084 -0.13961183 0
-0.9387989 -2.946696 -0.15921721 0
-0.8504343 -2.9284146 -0.17157018 0
-0.74360681 -2.9504809 -0.17839563 0
-0.6607914 -2.9793139 -0.17812937 0
-0.55474997 -2.9594922 -0.17961091 0
-0.45369068 -2.9254017 -0.18316479 0
-0.34876069 -2.9399283 -0.18296865 0
-0.24425328 -2.9617929 -0.18407194 0
-0.13861056 -2.9775205 -0.18437809 0
-0.052804403 -2.9500885 -0.18740889 0
0.052839119 -2.9537532 -0.18809073 0
0.15205485 -2.9593279 -0.18818818 0
0.2429295 -2.9473939 -0.19032644 0
0.36039639 -2.9464962 -0.1917645 0
0.4668164 -2.9638908 -0.19221063 0
0.53868431 -2.9578009 -0.19327129 0
0.64099115 -2.9570334 -0.19472744 0
0.74914312 -2.9720933 -0.19510715 0
0.86063093 -2.9629188 -0.19646347 0
0.95110428 -2.9557772 -0.19818017 0
1.0153778 -2.9378531 -0.19941287 0
-1.3168321 -2.8493209 -0.10351524 0
-1.2229977 -2.8583708 -0.11805924 0
-1.1362126 -2.8808136 -0.13230073 0
-1.0709445 -2.8334494 -0.14402705 0
-0.96201849 -2.8492074 -0.16068815 0
-0.84488934 -2.8332188 -0.17608884 0
-0.74405813 -2.8652089 -0.18224621 0
-0.63200676 -2.8495357 -0.18554208 0
-0.54110944 -2.8191581 -0.18746272 0
-0.4610841 -2.8393776 -0.18781289 0
-0.35825935 -2.846132 -0.18809921 0
-0.25729862 -2.8686674 -0.18897817 0
-0.15394607 -2.8656383 -0.1903611 0
-0.050429013 -2.8172648 -0.19507836 0
0.050626274 -2.8297913 -0.19427413 0
0.15954369 -2.8404582 -0.19454847 0
0.25513372 -2.8473654 -0.19623333 0
0.35027018 -2.8377388 -0.19656615 0
0.42158085 -2.8530324 -0.19719443 0
0.57713151 -2.8945112 -0.19695371 0
0.68411851 -2.8882141 -0.19848777 0
0.72708678 -2.884881 -0.19969015 0
-1.3407967 -2.7446203 -0.10567775 0
-1.2487462 -2.7530732 -0.1203945 0
-1.1446934 -2.7659378 -0.13701503 0
-1.0499523 -2.7337029 -0.15427934 0
-0.94515342 -2.7555063 -0.16788407 0
-0.83818978 -2.7391999 -0.18058689 0
-0.74248421 -2.7773438 -0.1869619 0
-0.65140307 -2.7488585 -0.19043207 0
-0.54432607 -2.730067 -0.19264047 0
-0.4468888 -2.7519879 -0.192839 0
-0.34717384 -2.7580879 -0.19291238 0
-0.24936947 -2.7802572 -0.19381431 0
-0.14744656 -2.7446315 -0.19729397 0
0.048529092 -2.7120559 -0.19972458 0
0.21053718 -2.7965872 -0.19655719 0
-1.3592918 -2.6376414 -0.10908033 0
-1.2705107 -2.6488461 -0.12315653 0
-1.1439291 -2.6465981 -0.14352821 0
-1.052173 -2.64868 -0.16048022 0
-0.95596713 -2.6623762 -0.17205095 0
-0.84888035 -2.6383896 -0.18447058 0
-0.74586838 -2.6621857 -0.19277082 0
-0.65464091 -2.6448357 -0.19565973 0
-0.54591912 -2.6393585 -0.19761279 0
-0.45152581 -2.6600404 -0.1977917 0
-0.3550024 -2.6661062 -0.19772293 0
-0.2603803 -2.6872044 -0.19834389 0
-1.4109104 -2.5554037 -0.10589598 0
-1.3330096 -2.5420525 -0.11919156 0
-1.2455066 -2.5501237 -0.1333479 0
-1.1495085 -2.5470233 -0.1490607 0
-1.0513361 -2.5570488 -0.16527081 0
-0.95956737 -2.5568936 -0.17809133 0
-0.85919064 -2.544692 -0.18956095 0
-0.77009606 -2.5824032 -0.19447926 0
-1.442523 -2.4576802 -0.10673343 0
-1.3491455 -2.4429173 -0.12282444 0
-1.2314239 -2.4462538 -0.14179303 0
-1.147789 -2.4369814 -0.15640841 0
-1.0469295 -2.462693 -0.17085326 0
-0.94475424 -2.4458055 -0.18797424 0
-0.85011089 -2.4596057 -0.19675177 0
-0.77854466 -2.4804821 -0.19900906 0
-1.451128 -2.3428411 -0.11229154 0
-1.3614974 -2.3456914 -0.12638366 0
-1.2689065 -2.347739 -0.14109132 0
-1.1690142 -2.3503027 -0.15862618 0
-1.0549954 -2.348314 -0.17731068 0
-0.97261298 -2.3663006 -0.18982954 0
-1.5169538 -2.229049 -0.10872234 0
-1.4435792 -2.257206 -0.11861932 0
-1.3288833 -2.2520182 -0.13752449 0
-1.2392614 -2.2634547 -0.15089293 0
-1.1440605 -2.2597549 -0.16814937 0
-1.0603567 -2.2520754 -0.18269777 0
-0.9769327 -2.239141 -0.19648339 0
-1.5578041 -2.1542683 -0.10613837 0
-1.4421329 -2.1451097 -0.12556246 0
-1.3639219 -2.171839 -0.13736643 0
-1.2533416 -2.1585481 -0.15573797 0
-1.1427436 -2.1600499 -0.17412314 0
-1.0502077 -2.1501954 -0.19160362 0
-1.6202317 -2.0491035 -0.10276443 0
-1.5277351 -2.0500858 -0.1174328 0
-1.4374789 -2.048857 -0.13318276 0
-1.3561639 -2.0555973 -0.14597155 0
-1.2595347 -2.0495062 -0.1612263 0
-1.1493876 -2.0463719 -0.17887136 0
-1.0667175 -2.033829 -0.19494432 0
-1.6637399 -1.9557548 -0.10068002 0
-1.5582994 -1.9360201 -0.12002728 0
-1.4697965 -1.9552814 -0.1326454 0
-1.3501108 -1.9538002 -0.15335399 0
-1.266511 -1.9500087 -0.16707611 0
-1.1424681 -1.9357281 -0.18822126 0
-1.0760348 -1.955444 -0.19569191 0
-1.6421138 -1.8486418 -0.11248595 0
-1.5416374 -1.8455386 -0.12779072 0
-1.435842 -1.856297 -0.14538476 0
-1.343796 -1.8580244 -0.15960342 0
-1.2440121 -1.8569202 -0.17727357 0
-1.1612334 -1.8453262 -0.19116831 0
-1.7071449 -1.713271 -0.10976859 0
-1.6409074 -1.7520036 -0.11998838 0
-1.569605 -1.7669592 -0.12922843 0
-1.4546448 -1.7450752 -0.14932895 0
-1.3510005 -1.759388 -0.16623516 0
-1.2392449 -1.7367624 -0.18469246 0
-1.1383829 -1.7622319 -0.19884419 0
-1.7371823 -1.6465703 -0.10811827 0
-1.6403573 -1.6463591 -0.12413898 0
-1.5431675 -1.6590321 -0.14033814 0
-1.4557081 -1.6388493 -0.15509498 0
-1.3508037 -1.6426948 -0.17361103 0
-1.2577322 -1.6448404 -0.18755759 0
-1.1846843 -1.6883372 -0.19540641 0
-1.7428411 -1.53695 -0.11356816 0
-1.6687795 -1.5621998 -0.12433759 0
-1.5432233 -1.5484538 -0.14526266 0
-1.4353551 -1.5584455 -0.16290849 0
-1.3372334 -1.5495838 -0.18073241 0
-1.2760725 -1.5671082 -0.18966408 0
-1.8202385 -1.4502779 -0.10461579 0
-1.7294891 -1.4606489 -0.11969224 0
-1.643826 -1.4500786 -0.13448524 0
-1.5590625 -1.4566121 -0.14897998 0
-1.4493685 -1.4406942 -0.16648178 0
-1.3663528 -1.4605355 -0.17888615 0
-1.2693788 -1.4499472 -0.19706649 0
-1.8725327 -1.3442312 -0.10342908 0
-1.7723322 -1.3427345 -0.11837973 0
-1.637473 -1.3562018 -0.14196683 0
-1.5433731 -1.3574054 -0.15689275 0
-1.4438128 -1.3537148 -0.17429696 0
-1.3477039 -1.3588996 -0.18812557 0
-1.9217024 -1.2385516 -0.10231597 0
-1.8268014 -1.2528876 -0.11653892 0
-1.7435786 -1.2517552 -0.13005982 0
-1.6493905 -1.2385482 -0.14638624 0
-1.53916 -1.2404804 -0.16528165 0
-1.4656051 -1.2578909 -0.17565629 0
-1.3780612 -1.2691631 -0.19068012 0
-1.9631904 -1.1491507 -0.10149667 0
-1.869588 -1.1489779 -0.11669827 0
-1.7533783 -1.1479214 -0.13505498 0
-1.655395 -1.1528701 -0.15095769 0
-1.5444945 -1.1472434 -0.17029965 0
-1.4503473 -1.1554941 -0.18467446 0
-1.3664615 -1.1375207 -0.19849274 0
-2.0114479 -1.0276108 -0.10049693 0
-1.9194857 -1.0561066 -0.11578631 0
-1.8318347 -1.0547651 -0.12886156 0
-1.7584379 -1.0463718 -0.14087743 0
-1.6418577 -1.0344485 -0.16154699 0
-1.5702369 -1.0535181 -0.17147896 0
-1.448027 -1.0487982 -0.19167396 0
-1.3975559 -1.0810198 -0.19707741 0
-2.0422087 -0.95286411 -0.10030788 0
-1.9611192 -0.94365776 -0.11431388 0
-1.8671868 -0.9404062 -0.12956992 0
-1.7474245 -0.95016444 -0.14818332 0
-1.6401105 -0.94614482 -0.16477253 0
-1.5541819 -0.96293598 -0.17956132 0
-1.4700009 -0.94748992 -0.19462657 0
-2.0124412 -0.84134573 -0.1150693 0
-1.944657 -0.85691071 -0.1218223 0
-1.8346099 -0.85602343 -0.13922091 0
-1.7579532 -0.85114056 -0.15192822 0
-1.674732 -0.84954357 -0.16581431 0
-1.5590404 -0.84191287 -0.18516356 0
-1.4948342 -0.87497449 -0.192274 0
-2.1133051 -0.75589174 -0.10012259 0
-2.0269256 -0.75785327 -0.11341647 0
-1.9602828 -0.74907464 -0.1256716 0
-1.8603121 -0.74153453 -0.14321168 0
-1.7437282 -0.73563987 -0.16257398 0
-1.6540704 -0.78560317 -0.17178243 0
-1.5437181 -0.7747817 -0.19193479 0
-2.1529403 -0.65047443 -0.10012993 0
-2.0564547 -0.65766919 -0.11514972 0
-1.9417921 -0.64782172 -0.13422824 0
-1.8394282 -0.64311826 -0.15127753 0
-1.7506361 -0.65453845 -0.16461562 0
-1.6428542 -0.66852129 -0.18281555 0
-1.5880827 -0.64628744 -0.19066851 0
-2.1373158 -0.53055227 -0.10954834 0
-2.0681977 -0.55695063 -0.11849789 0
-1.9512864 -0.52905977 -0.13876653 0
-1.8384768 -0.53420055 -0.15799168 0
-1.7699387 -0.54478639 -0.17022146 0
-1.6499492 -0.5114103 -0.19166626 0
-2.2247431 -0.45182955 -0.10115468 0
-2.1452265 -0.4428283 -0.11555193 0
-2.0614867 -0.44952255 -0.12919343 0
-1.9635576 -0.45019472 -0.14363435 0
-1.8477423 -0.44830704 -0.16218741 0
-1.7510171 -0.40814683 -0.18018174 0
-1.6568743 -0.48767757 -0.19228487 0
-2.2596071 -0.35862961 -0.10201534 0
-2.1715276 -0.33770016 -0.11797554 0
-2.0522628 -0.355948 -0.13476823 0
-1.9367558 -0.35015315 -0.1533459 0
-1.8582965 -0.34966293 -0.16796847 0
-1.7739204 -0.34706512 -0.18282527 0
-1.690586 -0.38129967 -0.19288072 0
-2.2230513 -0.24355744 -0.1128414 0
-2.1466336 -0.25319344 -0.12542497 0
-2.0415549 -0.24953273 -0.14242266 0
-1.9621964 -0.25415927 -0.15453169 0
-1.878678 -0.25699955 -0.16738713 0
-1.7505985 -0.25205511 -0.18909347 0
-2.3325062 -0.11693463 -0.10458577 0
-2.236928 -0.16390172 -0.11664298 0
-2.1473417 -0.15386532 -0.13193394 0
-2.0452559 -0.14083 -0.14932053 0
-1.9344499 -0.15734363 -0.16556108 0
-1.8526224 -0.14164717 -0.17942667 0
-1.7471681 -0.13358921 -0.19568674 0
-2.3461967 -0.050382137 -0.1053478 0
-2.2567475 -0.064562492 -0.11955296 0
-2.1427526 -0.055279035 -0.13853344 0
-2.0343223 -0.065625414 -0.15482643 0
-1.9382894 -0.047535043 -0.17211071 0
-1.8456666 -0.039606012 -0.18734545 0
-1.7750745 -0.038087003 -0.19834137 0
-2.3509707 0.060264088 -0.11279287 0
-2.2740707 0.046018153 -0.12422096 0
-2.1464865 0.035779931 -0.14418589 0
-2.0496302 0.044210792 -0.16058238 0
-1.9614911 0.042281419 -0.17468859 0
-1.8658669 0.040141098 -0.18963358 0
-1.7817979 0.025508422 -0.19912641 0
-2.4063957 0.17250848 -0.10896993 0
-2.3402503 0.1482276 -0.11876439 0
-2.2501996 0.15476693 -0.13360754 0
-2.144897 0.1538316 -0.15065278 0
-2.0689862 0.14838867 -0.16274191 0
-1.9718372 0.15154697 -0.17919144 0
-1.8822657 0.13493527 -0.1921165 0
-2.4230554 0.24373144 -0.11068779 0
-2.3366172 0.23921531 -0.12449682 0
-2.2475402 0.25855568 -0.14081669 0
-2.1719911 0.24986465 -0.15320551 0
-2.042259 0.24564523 -0.17478961 0
-1.9536856 0.26004288 -0.18896607 0
-1.8965123 0.2318705 -0.19633149 0
-2.4538043 0.35382876 -0.11294389 0
-2.3576775 0.33992535 -0.12784594 0
-2.2557883 0.35820565 -0.14566167 0
-2.142648 0.3506031 -0.16291843 0
-2.040087 0.3538011 -0.17820019 0
-1.9508038 0.3528752 -0.19337949 0
-2.5611551 0.44443908 -0.10222431 0
-2.4389317 0.464991 -0.12443972 0
-2.3677783 0.43165416 -0.13335851 0
-2.2491908 0.46349135 -0.15370002 0
-2.1472726 0.45199123 -0.1693885 0
-2.0572417 0.44428429 -0.1843247 0
-1.9894427 0.44896489 -0.19371463 0
-2.5516572 0.53106773 -0.10858417 0
-2.4410453 0.550659 -0.12567364 0
-2.3613815 0.55052131 -0.13888831 0
-2.2446938 0.55033743 -0.15815656 0
-2.1397772 0.54754353 -0.1749275 0
-2.0539351 0.54517609 -0.18975087 0
-2.5565624 0.64235616 -0.11207797 0
-2.437537 0.64247298 -0.1321176 0
-2.3426704 0.65306675 -0.14884588 0
-2.2497864 0.64456522 -0.16334876 0
-2.1578143 0.63526303 -0.17855079 0
-2.0804677 0.640266 -0.19058919 0
-2.616518 0.74986267 -0.11017255 0
-2.5350161 0.7462433 -0.12237918 0
-2.4535213 0.75289041 -0.1351126 0
-2.3470592 0.74579698 -0.15235253 0
-2.2336564 0.74535525 -0.17062905 0
-2.1388671 0.74433082 -0.18745038 0
-2.0902104 0.7478345 -0.19528845 0
-2.7126918 0.88356084 -0.10165234 0
-2.6477115 0.83449715 -0.10837733 0
-2.5549631 0.8525362 -0.12532115 0
-2.4612803 0.8565321 -0.14072089 0
-2.3476341 0.83947396 -0.15882143 0
-2.2544453 0.84315586 -0.17506158 0
-2.1386058 0.84475499 -0.19369145 0
-2.7235594 0.95232201 -0.10414865 0
-2.6506677 0.94838673 -0.1160754 0
-2.530978 0.95314741 -0.13649596 0
-2.4451492 0.95418614 -0.15059677 0
-2.3330276 0.94942784 -0.1678886 0
-2.2554512 0.93668652 -0.17899537 0
-2.1899395 0.94648969 -0.19116184 0
-2.7482662 1.0501595 -0.10666976 0
-2.6747942 1.0662241 -0.11944914 0
-2.5447521 1.0423883 -0.13888307 0
-2.4562316 1.0490258 -0.15322132 0
-2.3465014 1.0542173 -0.1724329 0
-2.2462754 1.0517832 -0.18914272 0
-2.1995447 1.0070997 -0.19423811 0
-2.7588749 1.1457329 -0.11045454 0
-2.6589227 1.1565276 -0.12687434 0
-2.5490994 1.1319733 -0.14315577 0
-2.4541519 1.157882 -0.16118889 0
-2.3511527 1.159209 -0.17851901 0
-2.2512662 1.136516 -0.19287725 0
-2.8433223 1.2288455 -0.10207821 0
-2.7389286 1.2539511 -0.11994646 0
-2.6247559 1.224682 -0.13662744 0
-2.5499899 1.239043 -0.1513494 0
-2.4540224 1.2685204 -0.16884167 0
-2.3641603 1.2725559 -0.18385501 0
-2.2888887 1.2533616 -0.19454761 0
-2.8442936 1.3518206 -0.10930774 0
-2.7512455 1.3562108 -0.12554951 0
-2.6565108 1.3333838 -0.14061789 0
-2.5592964 1.3405492 -0.15595841 0
-2.4305875 1.3535842 -0.17683449 0
-2.3574648 1.3574393 -0.18787515 0
-2.2857199 1.3379054 -0.19813792 0
-2.8525746 1.4571784 -0.11512697 0
-2.7362523 1.4476509 -0.13247652 0
-2.6652796 1.4347634 -0.14383493 0
-2.5675375 1.4416862 -0.15966444 0
-2.4358985 1.4494714 -0.18139845 0
-2.3664482 1.454317 -0.19397148 0
-2.9365387 1.5804179 -0.10812236 0
-2.8590584 1.538712 -0.11831398 0
-2.75002 1.5314896 -0.13574231 0
-2.6476479 1.562429 -0.15397428 0
-2.5615861 1.5321852 -0.16545582 0
-2.4319994 1.5429952 -0.18796425 0
-2.3575082 1.5194236 -0.19789775 0
-2.9424348 1.6660753 -0.11207389 0
-2.82639 1.6274313 -0.12800977 0
-2.7430546 1.6587914 -0.14428176 0
-2.6531532 1.6389703 -0.15864302 0
-2.5437245 1.6393991 -0.17688559 0
-2.4467463 1.6524074 -0.19374096 0
-3.0554843 1.7884734 -0.1008575 0
-2.9529152 1.7568004 -0.1160053 0
-2.8543084 1.7542074 -0.13274005 0
-2.7636588 1.7625756 -0.14833009 0
-2.6528347 1.7369998 -0.1661846 0
-2.5499718 1.7485851 -0.18179229 0
-2.4425809 1.727018 -0.19762903 0
-3.0305691 1.8523992 -0.10975909 0
-2.9380937 1.8641722 -0.12599522 0
-2.8404298 1.8594313 -0.14270627 0
-2.7306304 1.8441079 -0.15876171 0
-2.6544328 1.8542931 -0.17005691 0
-2.5427551 1.852905 -0.18919349 0
-3.0655174 1.9550973 -0.11083222 0
-2.9625046 1.9699228 -0.12965265 0
-2.8562078 1.9586073 -0.14456628 0
-2.7662783 1.9261637 -0.1561871 0
-2.658164 1.9566649 -0.17732586 0
-2.5570385 1.958415 -0.19256414 0
-3.1117263 2.0691481 -0.11064575 0
-3.0286331 2.0453658 -0.12190191 0
-2.9513433 2.0554321 -0.13390315 0
-2.8831434 2.038516 -0.14413022 0
-2.6723156 2.0468075 -0.17877811 0
-2.5731509 2.0498774 -0.19621149 0
-3.1532536 2.1623366 -0.10811975 0
-3.0626254 2.1325326 -0.12052419 0
-2.7058651 2.1556029 -0.18130589 0
-2.6389256 2.1334763 -0.19028805 0
-2.5690744 2.1074324 -0.19956589 0
-3.1782753 2.2471879 -0.10851017 0
-2.7073493 2.2208605 -0.18409991 0
-2.6616318 2.247848 -0.19349504 0
-2.7271581 2.3370752 -0.18823029 0
-2.6990812 2.3464737 -0.19304818 0
-2.7235622 2.4370661 -0.19567221 0
-2.752624 2.5349371 -0.19611159 0
-2.758641 2.6144261 -0.19918598 0
-1.0588396 -4.0778646 -0.073539637 0
-1.0560513 -3.9504356 -0.079799056 0
-1.1470028 -3.8467524 -0.07006833 0
-1.0588888 -3.8506327 -0.084035642 0
-0.99136215 -3.8179917 -0.099316142 0
-1.2003078 -3.730489 -0.06840346 0
-1.1240493 -3.769664 -0.078605272 0
-1.056545 -3.7377989 -0.091154695 0
-1.2310885 -3.6463242 -0.069538273 0
-1.1514156 -3.667871 -0.08065626 0
-1.053075 -3.6256976 -0.098563269 0
-1.2762403 -3.5553179 -0.066255771 0
-1.1608502 -3.5495884 -0.086145043 0
-1.0928348 -3.5709672 -0.09659826 0
-1.3329619 -3.4515672 -0.06458389 0
-1.2364899 -3.4440861 -0.07961724 0
-1.1682693 -3.4602616 -0.09095858 0
-1.3536727 -3.3615291 -0.066577792 0
-1.2578189 -3.327857 -0.083381236 0
-1.1764635 -3.3266604 -0.097158186 0
-1.4161085 -3.2450156 -0.06306012 0
-1.345652 -3.2514954 -0.07495971 0
-1.2266732 -3.2454557 -0.093488872 0
-1.4452558 -3.156584 -0.063920915 0
-1.3435992 -3.1394343 -0.081649631 0
-1.267036 -3.1461177 -0.094234467 0
-1.5318958 -3.0252357 -0.059189714 0
-1.4713964 -3.0487401 -0.065736927 0
-1.3586283 -3.0537608 -0.084134556 0
-1.2756931 -3.0412645 -0.098805845 0
-1.5278511 -2.9472401 -0.062892199 0
-1.4201572 -2.9608295 -0.079670958 0
-1.3381249 -2.9510758 -0.093810737 0
-1.6071264 -2.8619308 -0.0572927 0
-1.5620586 -2.8530257 -0.062849477 0
-1.4605623 -2.8504884 -0.080315314 0
-1.3976018 -2.8609006 -0.089142472 0
-1.6392003 -2.7626772 -0.056882288 0
-1.562916 -2.7372642 -0.070175573 0
-1.4658556 -2.7469907 -0.084456183 0
-1.3873399 -2.7397623 -0.099420741 0
-1.6463794 -2.6575537 -0.060831957 0
-1.5206161 -2.663177 -0.081541017 0
-1.4382521 -2.649785 -0.095395841 0
-1.7155461 -2.5471206 -0.056353901 0
-1.6495385 -2.5526595 -0.066918544 0
