# .PCD v0.7 - Point Cloud Data file format
VERSION 0.7
FIELDS x y z intensity
SIZE 4 4 4 4
TYPE F F F F
COUNT 1 1 1 1
WIDTH 1352
HEIGHT 1
VIEWPOINT 0 0 0 1 0 0 0
POINTS 1352
DATA ascii
2.0489128 -1.2389612 -0.33904606 0
2.1406369 -1.2528107 -0.33936888 0
2.2531788 -1.2547259 -0.34088096 0
2.3572397 -1.2470258 -0.34153134 0
2.4674819 -1.2605758 -0.34186289 0
2.5102427 -1.2151971 -0.34243464 0
-3.3320584 -1.1649624 -0.30882818 0
-3.2582958 -1.1478275 -0.30936727 0
-3.145014 -1.1506732 -0.31056884 0
-3.053458 -1.1584817 -0.3113547 0
-2.9814949 -1.1637144 -0.31161514 0
-2.860688 -1.147994 -0.31240204 0
-2.7497821 -1.1422344 -0.31313387 0
-2.6548488 -1.1473297 -0.31394979 0
-2.5534325 -1.1473925 -0.31442198 0
-2.463835 -1.1425217 -0.314051 0
-2.3439276 -1.1347598 -0.31581837 0
-2.269438 -1.1594647 -0.31643048 0
-2.1634099 -1.1445864 -0.316802 0
-2.0635374 -1.1490278 -0.31749758 0
-1.9656368 -1.150607 -0.31834885 0
-1.8702282 -1.1493433 -0.3193903 0
-1.7627515 -1.153964 -0.31961936 0
-1.6480601 -1.1476552 -0.31965089 0
-1.5538939 -1.1494631 -0.32002366 0
-1.449644 -1.1479145 -0.32173154 0
-1.3419112 -1.140028 -0.32064292 0
-1.2360408 -1.138285 -0.32142532 0
-1.1564931 -1.1606762 -0.32204854 0
-1.0526693 -1.1513574 -0.32249448 0
-0.95709974 -1.141548 -0.32338622 0
-0.84507996 -1.1462642 -0.32417619 0
-0.75765765 -1.1594415 -0.32521003 0
-0.6470837 -1.1524683 -0.32490149 0
-0.54628968 -1.1473751 -0.32529411 0
-0.45828176 -1.1492589 -0.32709309 0
-0.3479737 -1.1667961 -0.32634625 0
-0.25576073 -1.1933088 -0.32707435 0
0.34361148 -1.1829175 -0.33016136 0
0.4497481 -1.153623 -0.32924798 0
0.54048806 -1.1481434 -0.33140439 0
0.64539301 -1.1464971 -0.33218971 0
0.73435426 -1.1484121 -0.33372995 0
0.84688222 -1.1554918 -0.33302805 0
0.93727654 -1.1395605 -0.33577257 0
1.0428027 -1.1405244 -0.33410808 0
1.1507273 -1.1476204 -0.33345622 0
1.2594651 -1.1553326 -0.33488163 0
1.3446313 -1.1428821 -0.33641043 0
1.4515712 -1.1562998 -0.33743963 0
1.5537875 -1.1561681 -0.33653289 0
1.6583745 -1.1479414 -0.33722216 0
1.7657152 -1.1652416 -0.33885846 0
1.8442923 -1.1437231 -0.33803374 0
1.9546051 -1.1442959 -0.33896792 0
2.0454199 -1.151708 -0.34020019 0
2.1495123 -1.1439482 -0.34110141 0
2.2459526 -1.1542851 -0.34151098 0
2.3189645 -1.1431935 -0.3416748 0
2.4476333 -1.1633451 -0.34279862 0
2.5382156 -1.1403404 -0.34268308 0
-3.3446183 -1.0629281 -0.30998284 0
-3.2198012 -1.0487012 -0.31053188 0
-3.1243129 -1.0424213 -0.31065211 0
-3.0308571 -1.0597389 -0.31137502 0
-2.9369211 -1.0505081 -0.31219354 0
-2.8359203 -1.0602847 -0.31291375 0
-2.7390919 -1.0465468 -0.31333178 0
-2.638077 -1.0515075 -0.3137477 0
-2.5405669 -1.0550032 -0.31445062 0
-2.4528973 -1.0393008 -0.31538263 0
-2.3479438 -1.0346383 -0.315972 0
-2.2485108 -1.0490601 -0.31560621 0
-2.1314797 -1.0507517 -0.31744304 0
-2.0268791 -1.0355939 -0.31840658 0
-1.9425451 -1.0635383 -0.31879216 0
-1.8266556 -1.0517801 -0.31975013 0
-1.7262084 -1.0608433 -0.32094726 0
-1.650753 -1.0440603 -0.32100311 0
-1.5461954 -1.0441871 -0.32077357 0
-1.443924 -1.0461079 -0.32126999 0
-1.3501251 -1.044351 -0.32232052 0
-1.258006 -1.0528162 -0.32177272 0
-1.1449252 -1.0543146 -0.32222173 0
-1.048521 -1.0523536 -0.32294106 0
-0.94367981 -1.0492227 -0.32478783 0
-0.85743672 -1.05823 -0.32523736 0
-0.75567269 -1.0449803 -0.32544935 0
-0.65547222 -1.0469754 -0.32509339 0
-0.55776221 -1.0820702 -0.32628861 0
0.57939625 -1.0857233 -0.32975069 0
0.64773029 -1.0624775 -0.33355936 0
0.75167006 -1.0444897 -0.3330529 0
0.85124773 -1.0563229 -0.33395296 0
0.95651817 -1.0567912 -0.33423579 0
1.0356313 -1.0458192 -0.33532807 0
1.1520414 -1.040966 -0.33574089 0
1.2517837 -1.0505924 -0.3362588 0
1.3620304 -1.0535514 -0.33704221 0
1.4495069 -1.040511 -0.33595514 0
1.5561309 -1.0671765 -0.33653617 0
1.6543107 -1.0494554 -0.33853072 0
1.7546473 -1.0439591 -0.33757684 0
1.8594376 -1.0470172 -0.3392193 0
1.9649204 -1.0576032 -0.34005114 0
2.0562174 -1.0468391 -0.34119159 0
2.1695344 -1.0503253 -0.34147429 0
2.2609482 -1.054823 -0.34178451 0
2.3538225 -1.0574311 -0.34187588 0
2.4502618 -1.0588542 -0.34242678 0
2.5657136 -1.0567383 -0.3432934 0
2.62305 -1.00223 -0.34477836 0
-3.4263716 -0.92901134 -0.31059945 0
-3.3678043 -0.97392344 -0.31011674 0
-3.2663686 -0.93607187 -0.31097716 0
-3.1631451 -0.95564526 -0.31180012 0
-3.0660913 -0.95027512 -0.31200689 0
-2.9691632 -0.94362485 -0.31241134 0
-2.8664958 -0.95640117 -0.31244138 0
-2.778743 -0.94935513 -0.31336996 0
-2.6621339 -0.95221567 -0.31463063 0
-2.5530903 -0.95498723 -0.31515831 0
-2.4602687 -0.93344861 -0.31531715 0
-2.367254 -0.96305776 -0.31546983 0
-2.2462165 -0.97069502 -0.31719962 0
-2.1587689 -0.95124501 -0.31740516 0
-2.0659256 -0.9458881 -0.31780377 0
-1.9670075 -0.95225167 -0.31825334 0
-1.8817116 -0.94452119 -0.31946048 0
-1.7629911 -0.95965034 -0.32067764 0
-1.6433499 -0.94611895 -0.32132521 0
-1.5464424 -0.95028573 -0.32169741 0
-1.4516288 -0.95038998 -0.32167417 0
-1.3456483 -0.9514603 -0.3223359 0
-1.2438654 -0.94800329 -0.32242921 0
-1.1522752 -0.95907575 -0.32315657 0
-1.0525976 -0.94420975 -0.32363856 0
-0.96541578 -0.96378684 -0.323852 0
-0.8508516 -0.93343586 -0.32481718 0
-0.74644673 -0.9579829 -0.32558799 0
0.76752388 -0.97039282 -0.33155853 0
0.84900475 -0.94821072 -0.33333433 0
0.95376205 -0.9512307 -0.3350473 0
1.054355 -0.96583462 -0.33520478 0
1.1230835 -0.94386196 -0.33632639 0
1.2449614 -0.9488337 -0.33643088 0
1.3552465 -0.94772702 -0.33580011 0
1.4479973 -0.94522148 -0.33724555 0
1.5502164 -0.95251638 -0.33824882 0
1.6487652 -0.94928533 -0.33870426 0
1.7406919 -0.95302904 -0.33968037 0
1.8316875 -0.95237976 -0.34026238 0
1.9266752 -0.94979513 -0.34062898 0
2.0255873 -0.94501513 -0.34069347 0
2.137743 -0.96035343 -0.34105676 0
2.240978 -0.95588374 -0.34118915 0
2.3411601 -0.95925808 -0.34292629 0
2.449111 -0.95594692 -0.34316105 0
2.5461688 -0.95230711 -0.34377193 0
2.6194811 -0.93693328 -0.34343183 0
-3.4568758 -0.83189476 -0.31107908 0
-3.3541973 -0.84974164 -0.31173918 0
-3.2800798 -0.86424387 -0.31203133 0
-3.1604996 -0.84904718 -0.31239215 0
-3.0359347 -0.86205333 -0.31281504 0
-2.9181714 -0.83628762 -0.3137182 0
-2.8415804 -0.86604595 -0.31402376 0
-2.7199354 -0.84298104 -0.31445202 0
-2.6166086 -0.85223645 -0.31451797 0
-2.5227399 -0.84170759 -0.31482708 0
-2.4329 -0.85068047 -0.31646466 0
-2.3843915 -0.83362681 -0.3166973 0
-2.2944524 -0.82068497 -0.31775048 0
-2.04129 -0.87621421 -0.31888264 0
-1.9264411 -0.8488639 -0.31938416 0
-1.8242576 -0.85789722 -0.31932339 0
-1.7565726 -0.8503899 -0.32020232 0
-1.6533347 -0.84489864 -0.3215664 0
-1.550391 -0.85705167 -0.3220191 0
-1.4367815 -0.843499 -0.32253167 0
-1.3747455 -0.86644822 -0.3221136 0
-1.2586401 -0.84651554 -0.32270628 0
-1.1446817 -0.8394168 -0.3228021 0
-1.0662984 -0.86286294 -0.3237797 0
-0.94838786 -0.84588289 -0.3263 0
-0.86065102 -0.85142058 -0.32448483 0
0.89054698 -0.88113928 -0.3357062 0
0.95770925 -0.85691994 -0.33557439 0
1.0581819 -0.848131 -0.33524305 0
1.1639274 -0.85737151 -0.33609292 0
1.2461277 -0.84151268 -0.33675253 0
1.3541554 -0.84365112 -0.33733913 0
1.4707712 -0.8549943 -0.33879629 0
1.5367234 -0.8429988 -0.33903113 0
1.6489809 -0.85125703 -0.33941376 0
1.7489998 -0.84695017 -0.33974358 0
1.855979 -0.84978062 -0.34015957 0
1.973083 -0.85265279 -0.34057146 0
2.0675471 -0.85850674 -0.34118521 0
2.1691041 -0.84658098 -0.34208047 0
2.2568319 -0.86227494 -0.34242424 0
2.3507257 -0.85977012 -0.34283412 0
2.4516242 -0.857117 -0.34352088 0
2.5458276 -0.84938049 -0.34381512 0
2.659889 -0.84531546 -0.34478578 0
-3.452858 -0.75262672 -0.31103641 0
-3.3402717 -0.74498224 -0.31161687 0
-3.2211752 -0.75092083 -0.3125211 0
-3.1344619 -0.75429326 -0.31344664 0
-3.0365093 -0.75368643 -0.31386933 0
-2.9402924 -0.75221086 -0.31425995 0
-2.8468227 -0.75005507 -0.31465045 0
-2.7509394 -0.74593896 -0.31490415 0
-2.6599381 -0.74176073 -0.31560698 0
-2.5619278 -0.75403398 -0.31617555 0
-2.451797 -0.75514555 -0.31647837 0
-2.3417544 -0.76271582 -0.31642616 0
-2.2360909 -0.74599618 -0.31749701 0
-2.1472962 -0.73356611 -0.31773373 0
-2.0640128 -0.72160244 -0.31852591 0
-1.97363 -0.70593244 -0.31834581 0
-1.8642683 -0.78985345 -0.32067871 0
-1.7153492 -0.78540242 -0.31973472 0
-1.6470135 -0.76849186 -0.32134494 0
-1.5484447 -0.74520975 -0.32335255 0
-1.4574971 -0.75633866 -0.32293627 0
-1.3434002 -0.76061058 -0.32272896 0
-1.2479706 -0.73952383 -0.32250813 0
-1.1580142 -0.74970353 -0.32236195 0
-1.0515181 -0.75486135 -0.32418039 0
-0.96355301 -0.75802892 -0.32603914 0
0.97786808 -0.77902108 -0.33504292 0
1.0529493 -0.75091809 -0.33664256 0
1.1535665 -0.74351335 -0.33662987 0
1.2500077 -0.74974072 -0.33694002 0
1.3435035 -0.74813366 -0.33834493 0
1.4431909 -0.75025445 -0.3389422 0
1.5616838 -0.74583513 -0.3391538 0
1.6664336 -0.74858862 -0.33975968 0
1.7552758 -0.74369782 -0.33998841 0
1.8398974 -0.7486316 -0.34014595 0
1.9383427 -0.75987411 -0.34106857 0
2.0267704 -0.75337315 -0.34170774 0
2.1254663 -0.74308401 -0.34307453 0
2.234405 -0.75460607 -0.34312671 0
2.3443418 -0.7526297 -0.34393907 0
2.4680481 -0.74565488 -0.34462079 0
2.5812242 -0.73974651 -0.34483811 0
2.6680546 -0.74398553 -0.34472647 0
2.705353 -0.75441784 -0.34485769 0
-3.5053935 -0.60805064 -0.31126139 0
-3.4435139 -0.66513711 -0.31102037 0
-3.3311605 -0.65178823 -0.31171113 0
-3.2421637 -0.63437498 -0.31225061 0
-3.1396341 -0.6610595 -0.3126201 0
-3.0508518 -0.64236462 -0.31309974 0
-2.9630415 -0.64615077 -0.31400135 0
-2.8701897 -0.64748037 -0.31456977 0
-2.7598367 -0.64336634 -0.31574076 0
-2.6498489 -0.63800442 -0.31701648 0
-2.5502853 -0.64289331 -0.3170979 0
-2.4719501 -0.66227531 -0.31687337 0
-2.3613656 -0.65846819 -0.31785044 0
-2.2618613 -0.63071918 -0.31893474 0
-2.1425219 -0.64733851 -0.31933969 0
-2.0462945 -0.65059358 -0.31909448 0
-1.9502897 -0.641559 -0.31958818 0
-1.8934243 -0.67724431 -0.31849465 0
-1.5014994 -0.68748754 -0.32100019 0
-1.4418905 -0.67883599 -0.32404459 0
-1.3421441 -0.66154391 -0.32392675 0
-1.2415614 -0.65679139 -0.32435429 0
-1.1587746 -0.64523888 -0.32380241 0
-1.0540664 -0.64778608 -0.32427186 0
-0.98725784 -0.68749821 -0.32236433 0
1.0733486 -0.64908129 -0.33620116 0
1.1464807 -0.64916331 -0.33577231 0
1.262014 -0.66761333 -0.33841547 0
1.3326055 -0.63935679 -0.34012035 0
1.4427302 -0.64791858 -0.33983159 0
1.5587853 -0.64732808 -0.33934397 0
1.625492 -0.65982842 -0.33937231 0
1.7427677 -0.64327276 -0.33985433 0
1.8560227 -0.63401568 -0.34123865 0
1.9643186 -0.65537077 -0.34224796 0
2.0612228 -0.65508956 -0.34341553 0
2.1564255 -0.65150857 -0.3433845 0
2.2482443 -0.64431983 -0.34362173 0
2.3388929 -0.63419282 -0.34371731 0
2.4225051 -0.65686345 -0.34406289 0
2.5372148 -0.649104 -0.34472439 0
2.6644695 -0.65478849 -0.34561551 0
2.7326553 -0.6473738 -0.34646514 0
-3.5250063 -0.53371727 -0.31192055 0
-3.4439864 -0.57207489 -0.31165051 0
-3.3545356 -0.55721748 -0.31221884 0
-3.2650852 -0.54236019 -0.31278718 0
-3.1693478 -0.549748 -0.31314349 0
-3.0773764 -0.55647743 -0.31372067 0
-2.961606 -0.52839953 -0.31467903 0
-2.8575439 -0.5521915 -0.31455883 0
-2.7368133 -0.54242498 -0.31533748 0
-2.6512871 -0.55856049 -0.31529033 0
-2.5311146 -0.55196238 -0.31645209 0
-2.4778407 -0.54033428 -0.31705508 0
-2.3553939 -0.54202837 -0.31819585 0
-2.228992 -0.55327606 -0.3188231 0
-2.1221776 -0.55927223 -0.31960225 0
-2.0357468 -0.55207181 -0.32013375 0
-1.9490294 -0.53357476 -0.3213166 0
-1.8612473 -0.51900446 -0.32256308 0
-1.2476079 -0.59274584 -0.32449597 0
-1.1427313 -0.57349956 -0.3246741 0
-1.0803981 -0.55193329 -0.32514602 0
1.088415 -0.58584404 -0.33120254 0
1.1465696 -0.55855554 -0.33881328 0
1.2431678 -0.55365956 -0.33900151 0
1.3588073 -0.54435384 -0.3394649 0
1.4396833 -0.55003452 -0.33900386 0
1.5393648 -0.55938035 -0.33919078 0
1.6491667 -0.54804635 -0.33954963 0
1.7486005 -0.54191864 -0.34080574 0
1.8314233 -0.55329216 -0.34156716 0
1.9545041 -0.5601061 -0.34218097 0
2.0795252 -0.55758607 -0.34273648 0
2.1512253 -0.53755128 -0.34319097 0
2.2728434 -0.54695106 -0.34373727 0
2.368453 -0.53418732 -0.34465638 0
2.4530804 -0.55327535 -0.34509161 0
2.5474026 -0.53634572 -0.34535503 0
2.6321881 -0.55420125 -0.3456817 0
2.7486858 -0.54592621 -0.34584785 0
-3.544003 -0.43323404 -0.31237572 0
-3.4629042 -0.47371262 -0.31249687 0
-3.3730114 -0.46141285 -0.31302276 0
-3.2573631 -0.43782914 -0.3137455 0
-3.1483059 -0.43099475 -0.31442574 0
-3.0588753 -0.45588049 -0.31424296 0
-2.9375007 -0.45213404 -0.31463864 0
-2.818826 -0.4475542 -0.31555513 0
-2.7283812 -0.45321599 -0.31619722 0
-2.6332982 -0.45676503 -0.31648675 0
-2.5439568 -0.44126782 -0.31704399 0
-2.4491878 -0.44297975 -0.31766605 0
-2.3404446 -0.44951877 -0.31813073 0
-2.236717 -0.45426798 -0.3189311 0
-2.1513202 -0.45299876 -0.31997091 0
-2.06442 -0.45018503 -0.32057083 0
-1.9618005 -0.44644356 -0.3207981 0
-1.8472552 -0.44460809 -0.32168701 0
-1.7529328 -0.44582939 -0.3229394 0
-1.6392549 -0.42791462 -0.32415053 0
-1.5839638 -0.42959058 -0.32289779 0
1.1745969 -0.45848843 -0.33795968 0
1.2534349 -0.44862679 -0.33920872 0
1.3610129 -0.45808372 -0.33945215 0
1.4410757 -0.43359652 -0.34053549 0
1.5581728 -0.44657078 -0.34064761 0
1.6596256 -0.46277317 -0.34081748 0
1.7430805 -0.43273464 -0.34150177 0
1.8575996 -0.4611468 -0.341566 0
1.9435251 -0.45307741 -0.34226185 0
2.0430784 -0.44855303 -0.34293199 0
2.1306767 -0.44873232 -0.34377307 0
2.2372437 -0.44630176 -0.34456107 0
2.3478665 -0.44196835 -0.34460768 0
2.4720659 -0.44714627 -0.34463742 0
2.5573771 -0.44366658 -0.34534639 0
2.647995 -0.43983796 -0.34594038 0
2.7567558 -0.44970626 -0.34671068 0
-3.5537956 -0.33155125 -0.31227452 0
-3.4800184 -0.34982362 -0.31298271 0
-3.357959 -0.3538934 -0.31347367 0
-3.2352941 -0.3565847 -0.31443682 0
-3.1161528 -0.33579004 -0.31496018 0
-3.0260017 -0.34803936 -0.31548977 0
-2.9342356 -0.35878098 -0.31616706 0
-2.8441951 -0.34777331 -0.31672987 0
-2.7463925 -0.35569489 -0.31678078 0
-2.6563838 -0.34403563 -0.31727245 0
-2.5464499 -0.34833407 -0.317848 0
-2.442512 -0.36112058 -0.31790328 0
-2.339489 -0.3371172 -0.31867734 0
-2.2453651 -0.35641244 -0.31851879 0
-2.1615045 -0.34309661 -0.31893209 0
-2.07847 -0.34526628 -0.31979391 0
-1.9708294 -0.34757733 -0.32038054 0
-1.8553652 -0.34921813 -0.32059702 0
-1.7612683 -0.34207073 -0.32104433 0
-1.6391279 -0.34868687 -0.321576 0
-1.5465175 -0.34856662 -0.32318434 0
-1.436797 -0.34578529 -0.32431886 0
-1.3519921 -0.33044478 -0.32477286 0
-1.2433033 -0.31806204 -0.32573405 0
-1.1726857 -0.30898225 -0.32494375 0
1.1993906 -0.38118267 -0.33721524 0
1.258889 -0.34554157 -0.33982292 0
1.3598814 -0.34784418 -0.34033233 0
1.4326905 -0.34466875 -0.34065181 0
1.5485241 -0.34898338 -0.34107774 0
1.6609173 -0.3497003 -0.34098762 0
1.7293828 -0.35124034 -0.34157047 0
1.8528677 -0.34308815 -0.3422254 0
1.9678121 -0.35593119 -0.34253645 0
2.0472081 -0.34003326 -0.3422384 0
2.1321764 -0.35416025 -0.34285563 0
2.2432175 -0.34799296 -0.34317976 0
2.3409941 -0.35477725 -0.34426212 0
2.4338374 -0.35677972 -0.34508038 0
2.5436516 -0.34824485 -0.34612167 0
2.6538713 -0.33742318 -0.34695813 0
2.7763069 -0.36637917 -0.34690475 0
2.8108249 -0.32325733 -0.3474091 0
-3.5515358 -0.22071441 -0.3135393 0
-3.4476209 -0.24715132 -0.31470233 0
-3.3373582 -0.27141294 -0.31430361 0
-3.217783 -0.25382268 -0.31512547 0
-3.1272438 -0.246681 -0.31557459 0
-3.0367045 -0.23953934 -0.31602374 0
-2.9438503 -0.25342175 -0.31626275 0
-2.8534133 -0.24563706 -0.3167561 0
-2.7606096 -0.25757349 -0.31706953 0
-2.6702819 -0.24914585 -0.31761578 0
-2.5770264 -0.25904515 -0.31803492 0
-2.2642546 -0.29329398 -0.32023451 0
-2.179872 -0.28236371 -0.32055259 0
-2.0362978 -0.27349782 -0.3208226 0
-1.8406162 -0.29220489 -0.32212332 0
-1.7173082 -0.2852003 -0.32239833 0
-1.6378042 -0.27601561 -0.32285303 0
-1.5500693 -0.27640286 -0.32298446 0
-1.4545575 -0.27381924 -0.32412609 0
-1.3632845 -0.26208633 -0.32557586 0
-1.2390001 -0.24718839 -0.32722968 0
-1.1851057 -0.27041259 -0.32576096 0
1.2426356 -0.25240815 -0.33986375 0
1.3443942 -0.25284639 -0.34027562 0
1.4550545 -0.24160829 -0.34108445 0
1.5299728 -0.25404525 -0.34127337 0
1.6439997 -0.24866138 -0.34154835 0
1.7400897 -0.25070778 -0.341775 0
1.840446 -0.25867414 -0.34236151 0
1.9531982 -0.24700281 -0.34375849 0
2.0700796 -0.25307244 -0.34480393 0
2.1608791 -0.24851967 -0.34510866 0
2.2532256 -0.24287553 -0.34555197 0
2.3394098 -0.25216088 -0.34586701 0
2.4255941 -0.26144621 -0.34618199 0
2.5528116 -0.25663051 -0.34640098 0
2.6659968 -0.23932949 -0.34734806 0
2.7722704 -0.25863498 -0.34773007 0
2.8260806 -0.2432726 -0.34829071 0
-3.5454185 -0.11852422 -0.31249481 0
-3.4371774 -0.16399667 -0.31292906 0
-3.3173535 -0.16635501 -0.31396383 0
-3.2267847 -0.1618138 -0.31456387 0
-3.1362162 -0.15727258 -0.31516388 0
-3.0456471 -0.15273133 -0.31576389 0
-2.9550786 -0.14819011 -0.31636393 0
-2.8645101 -0.14364889 -0.31696397 0
-2.7718639 -0.15887515 -0.31757906 0
-2.6812661 -0.15368138 -0.31810829 0
-2.5906689 -0.14848763 -0.31863746 0
1.2595479 -0.15391663 -0.34007439 0
1.350036 -0.15412207 -0.34062207 0
1.4603091 -0.14679357 -0.34172267 0
1.5475061 -0.14436205 -0.34206647 0
1.6491795 -0.15387812 -0.34250581 0
1.7500571 -0.14663787 -0.34259054 0
1.8365078 -0.15816373 -0.34307647 0
1.9483036 -0.1479889 -0.34340137 0
2.0544097 -0.14731798 -0.34400055 0
2.1662114 -0.13973509 -0.34441945 0
2.2568071 -0.14560013 -0.34497356 0
2.3435185 -0.15119126 -0.34550014 0
2.4302299 -0.1567824 -0.34602669 0
2.5169411 -0.16237356 -0.3465533 0
2.6456766 -0.15163523 -0.34717995 0
2.7758703 -0.15909535 -0.34804803 0
2.8328924 -0.14201108 -0.34829545 0
-3.5403433 -0.05068396 -0.31271735 0
-3.4164371 -0.073354706 -0.3136856 0
-3.3257937 -0.071407966 -0.31432053 0
-3.2351499 -0.069461226 -0.31495553 0
-3.1445065 -0.067514479 -0.3155905 0
-3.0538628 -0.065567739 -0.31622547 0
-2.9632192 -0.063620999 -0.31686044 0
-2.8725755 -0.061674252 -0.31749541 0
-2.7819319 -0.059727512 -0.31813037 0
-2.6618583 -0.050942112 -0.31905696 0
-2.5982919 -0.074403241 -0.31916043 0
1.2732283 -0.054684296 -0.34157634 0
1.3423604 -0.048093416 -0.34197798 0
1.4615706 -0.05235685 -0.34198052 0
1.5534978 -0.044501387 -0.34195021 0
1.6504339 -0.043214783 -0.34194884 0
1.7489662 -0.052543312 -0.3423759 0
1.8406184 -0.052727088 -0.34278882 0
1.9473914 -0.055773746 -0.34330902 0
2.0622144 -0.037098873 -0.34452575 0
2.1734686 -0.046635039 -0.34516531 0
2.2657468 -0.048607349 -0.34565797 0
2.3525534 -0.050471384 -0.34610328 0
2.4393599 -0.052335422 -0.34654856 0
2.5261667 -0.054199453 -0.34699383 0
2.6457932 -0.064516872 -0.34749824 0
2.7672634 -0.049690843 -0.34836709 0
2.8413153 -0.040668201 -0.34891379 0
-3.5821037 0.025657721 -0.31340909 0
-3.4456322 0.039346635 -0.31421012 0
-3.3200932 0.04758935 -0.31493422 0
-3.2292767 0.046289314 -0.31538033 0
-3.1384599 0.044989288 -0.31582645 0
-3.0476429 0.043689255 -0.31627253 0
-2.9568264 0.042389225 -0.31671867 0
-2.86601 0.041089196 -0.31716478 0
-2.7751932 0.039789166 -0.31761089 0
-2.663816 0.047495164 -0.31845084 0
-2.589273 0.018527031 -0.31793854 0
1.2737204 0.054709774 -0.34170881 0
1.3427116 0.048070502 -0.34232935 0
1.4593084 0.050888538 -0.34298077 0
1.5406128 0.040486515 -0.34451914 0
1.6466198 0.054398376 -0.34369233 0
1.7541541 0.050448641 -0.34387204 0
1.8484639 0.053067558 -0.34431362 0
1.9428465 0.047154814 -0.34460443 0
2.0585988 0.050040901 -0.34627384 0
2.184375 0.04696811 -0.3471449 0
2.2782052 0.04896706 -0.3474215 0
2.3648098 0.0508263 -0.34762421 0
2.4514143 0.052685548 -0.34782699 0
2.5380189 0.054544792 -0.34802973 0
2.6246235 0.056404036 -0.34823248 0
2.731241 0.04869131 -0.34854543 0
2.8245506 0.04708029 -0.34789515 0
-3.5472324 0.12698019 -0.31425822 0
-3.4142263 0.1466974 -0.31489605 0
-3.3234954 0.142799 -0.31537926 0
-3.2327647 0.13890062 -0.31586251 0
-3.1420341 0.13500224 -0.31634572 0
-3.0513031 0.13110386 -0.31682894 0
-2.9605725 0.12720548 -0.31731215 0
-2.8698416 0.12330709 -0.31779537 0
-2.7776272 0.15921174 -0.3184244 0
-2.6869407 0.15401359 -0.31887993 0
-2.5962543 0.14881545 -0.31933546 0
1.2602608 0.15408364 -0.34026974 0
1.3530071 0.15332553 -0.340837 0
1.4617877 0.14772733 -0.34222043 0
1.5498426 0.14454237 -0.34262028 0
1.6444237 0.15688397 -0.34306565 0
1.7492186 0.14567243 -0.34352127 0
1.8415159 0.15851611 -0.34427407 0
1.9428629 0.15325232 -0.3455528 0
2.0547028 0.14519264 -0.34602562 0
2.176481 0.13516425 -0.34680915 0
2.2454393 0.15758903 -0.34843832 0
2.3609707 0.15243296 -0.34773788 0
2.4474392 0.15800768 -0.34795907 0
2.527694 0.14494403 -0.34754813 0
2.6401126 0.14492239 -0.34766802 0
2.7712533 0.14867322 -0.34914339 0
2.8405962 0.14241447 -0.34924278 0
-3.5447688 0.25411558 -0.31494236 0
-3.4191437 0.26979202 -0.31576192 0
-3.3286495 0.26265413 -0.31632376 0
-3.2381554 0.25551623 -0.31688559 0
-3.1476612 0.24837837 -0.31744742 0
-3.0571671 0.24124049 -0.31800926 0
-2.9666727 0.23410261 -0.31857109 0
-2.8761783 0.22696473 -0.31913295 0
-2.7500515 0.23674999 -0.32116729 0
-2.6145318 0.22508319 -0.32221109 0
-2.2755897 0.29476225 -0.32178485 0
-2.1490717 0.27837408 -0.32240081 0
-2.025497 0.27715516 -0.32380435 0
-1.8189406 0.28876379 -0.32490981 0
-1.7425678 0.27663931 -0.32642031 0
-1.648525 0.27982908 -0.32754534 0
-1.5332654 0.27727699 -0.32700008 0
-1.4590555 0.27465364 -0.3263652 0
-1.3661375 0.26726153 -0.32580504 0
-1.2449604 0.24609092 -0.3285968 0
-1.1902891 0.27747592 -0.32751027 0
1.249609 0.25384051 -0.3417716 0
1.3506825 0.24963331 -0.34215373 0
1.4605806 0.24425036 -0.34242103 0
1.5450258 0.26055002 -0.34233618 0
1.6547958 0.24357703 -0.34291568 0
1.7467778 0.25181866 -0.34309274 0
1.8262877 0.24990284 -0.34330392 0
1.9432098 0.24549618 -0.34419242 0
2.0692148 0.25294414 -0.34516272 0
2.165252 0.24899794 -0.34613132 0
2.2590599 0.24344553 -0.34661892 0
2.3454645 0.25275543 -0.34710753 0
2.4318688 0.26206538 -0.34759608 0
2.544704 0.24670416 -0.34831226 0
2.6563449 0.24804845 -0.34914154 0
2.7577384 0.25758162 -0.34950817 0
2.8269989 0.23665614 -0.34957311 0
-3.5511317 0.30571443 -0.31499732 0
-2.5485125 0.35970718 -0.32083207 0
-2.4395525 0.35153028 -0.32141152 0
-2.3552613 0.33938026 -0.32172072 0
-2.2668846 0.35984322 -0.3222644 0
-2.1651549 0.33596838 -0.32289505 0
-2.0360746 0.35325894 -0.32273018 0
-1.9653835 0.3554213 -0.32317966 0
-1.8550894 0.34121105 -0.324909 0
-1.7364223 0.34761816 -0.32528579 0
-1.6415989 0.34167323 -0.32717794 0
-1.5503038 0.35609242 -0.3263928 0
-1.4457581 0.34800124 -0.32650623 0
-1.3573468 0.34113127 -0.3274827 0
-1.2510281 0.3200756 -0.32799202 0
-1.1857431 0.31242266 -0.32856187 0
1.2471023 0.35736048 -0.34098679 0
1.3472201 0.34181479 -0.34179929 0
1.441103 0.34358391 -0.3424336 0
1.5507281 0.35629985 -0.34332505 0
1.6575781 0.34509465 -0.34291652 0
1.7338586 0.35363054 -0.34236097 0
1.8517867 0.3487778 -0.34409049 0
1.9660804 0.33817038 -0.34588116 0
2.0655282 0.34307528 -0.34654894 0
2.1570497 0.35831743 -0.34724382 0
2.2514863 0.34100047 -0.34744987 0
2.3374889 0.3540225 -0.34798598 0
2.420455 0.34879619 -0.34786475 0
2.5436592 0.35554498 -0.34872842 0
2.6603127 0.33826789 -0.34912729 0
2.7738392 0.35928386 -0.34977394 0
2.8285062 0.3458488 -0.34990677 0
-3.1274841 0.49650007 -0.31881994 0
-3.0377512 0.48225465 -0.31933004 0
-2.9480186 0.46800923 -0.31984013 0
-2.8530307 0.47387153 -0.32012421 0
-2.7634087 0.45898551 -0.32063287 0
-2.6737871 0.44409946 -0.32114154 0
-2.5598893 0.44386223 -0.32110938 0
-2.4230535 0.45608902 -0.3216823 0
-2.3393185 0.44032452 -0.3219575 0
-2.2482195 0.4565942 -0.32215592 0
-2.1646831 0.43962514 -0.32239416 0
-2.0484967 0.45879468 -0.32423162 0
-1.9719688 0.44639948 -0.32315874 0
-1.8487456 0.44220686 -0.3251408 0
-1.7436489 0.45073068 -0.32640201 0
-1.6357335 0.43102866 -0.3265374 0
-1.5557104 0.42569387 -0.32736123 0
-1.4363315 0.40051773 -0.32754913 0
1.1893338 0.45450354 -0.34122771 0
1.2543079 0.44445825 -0.34159562 0
1.3458291 0.45274308 -0.34257349 0
1.4353518 0.44771847 -0.34324941 0
1.5691102 0.449745 -0.3435916 0
1.6425464 0.45803884 -0.34431443 0
1.7266736 0.45614654 -0.34588376 0
1.8470892 0.44458055 -0.34628889 0
1.96091 0.44242308 -0.34547111 0
2.0409184 0.44515452 -0.34623107 0
2.13711 0.44999254 -0.34726512 0
2.2372806 0.43769884 -0.34781304 0
2.3226109 0.45439628 -0.34830621 0
2.4200227 0.43762636 -0.34931839 0
2.5256798 0.45673552 -0.34962574 0
2.6583831 0.44158503 -0.35030094 0
2.7633178 0.4590255 -0.35071805 0
2.8256826 0.44858599 -0.35130352 0
-3.570626 0.56685054 -0.31630087 0
-3.4864151 0.55348176 -0.31677958 0
-3.3628242 0.55045551 -0.31731471 0
-3.239455 0.546148 -0.31784698 0
-3.1163077 0.54055929 -0.31837642 0
-3.0267971 0.52503258 -0.31888369 0
-2.9347095 0.55251545 -0.32003903 0
-2.843075 0.57743704 -0.32119983 0
-2.7540171 0.55934918 -0.32171255 0
-2.6649594 0.54126126 -0.32222524 0
-2.5628138 0.54912341 -0.32183835 0
-2.4616132 0.54407477 -0.321711 0
-2.3405564 0.55463153 -0.32207343 0
-2.2320306 0.55397594 -0.32277429 0
-2.1499443 0.55008554 -0.3236796 0
-2.0615294 0.54329282 -0.32386723 0
-1.9624834 0.53871787 -0.3248314 0
-1.8531704 0.51675224 -0.32727784 0
-1.3034229 0.59679484 -0.33096138 0
-1.2327487 0.58592027 -0.3290585 0
-1.1442612 0.56012422 -0.33018818 0
-1.0817704 0.58221865 -0.32921639 0
1.1528409 0.55247414 -0.34022531 0
1.2439389 0.5587706 -0.34113973 0
1.3645231 0.54388136 -0.34239933 0
1.4598668 0.54581475 -0.34355909 0
1.5507801 0.55728257 -0.34430784 0
1.6717486 0.55124569 -0.34546077 0
1.7676685 0.54788268 -0.34458745 0
1.8521097 0.54506469 -0.34509683 0
1.9426734 0.54159099 -0.34611082 0
2.0526295 0.5694316 -0.34571952 0
2.122853 0.5431354 -0.34769949 0
2.2421966 0.55661178 -0.34821972 0
2.3709106 0.53479391 -0.34857112 0
2.475754 0.55844736 -0.34912315 0
2.5716169 0.54146409 -0.34994054 0
2.6567209 0.55938458 -0.35045186 0
2.7452378 0.55751002 -0.35099852 0
2.8062794 0.54913473 -0.35112622 0
-3.5573733 0.61706716 -0.31587696 0
-3.4743505 0.6026659 -0.31634745 0
-3.3774219 0.68596447 -0.31812358 0
-3.2883642 0.6678766 -0.3186363 0
-3.1547775 0.64074469 -0.31940538 0
-3.0211906 0.61361289 -0.32017443 0
-2.5421205 0.65044105 -0.32219619 0
-2.4734459 0.65181452 -0.3222495 0
-2.3541691 0.64942461 -0.32310098 0
-2.2362831 0.65817821 -0.32382914 0
-2.1250973 0.65872979 -0.32458833 0
-2.0397136 0.64830327 -0.32513192 0
-1.9511552 0.65102756 -0.32582238 0
-1.5411417 0.67912871 -0.32736352 0
-1.4495478 0.67192626 -0.32865515 0
-1.3485171 0.66467971 -0.32748404 0
-1.2472126 0.65136486 -0.32735199 0
-1.1434761 0.65222919 -0.32890531 0
-1.0470933 0.66585118 -0.33011398 0
1.0850002 0.67751527 -0.34279335 0
1.1523776 0.64176601 -0.34215418 0
1.2577636 0.65793878 -0.34158942 0
1.3320915 0.65073681 -0.34188929 0
1.4507997 0.6447801 -0.3432509 0
1.5578858 0.64327258 -0.34445444 0
1.653201 0.64676851 -0.34524614 0
1.7451935 0.65247065 -0.34675947 0
1.8410047 0.66150421 -0.34689221 0
1.9552501 0.63669151 -0.34696254 0
2.0760531 0.66618615 -0.34773371 0
2.1782153 0.65821671 -0.34737587 0
2.2718103 0.65099138 -0.34833357 0
2.3661673 0.6414904 -0.34918174 0
2.4503682 0.66432482 -0.34995493 0
2.548182 0.65198493 -0.35033396 0
2.634263 0.65391874 -0.3500278 0
2.7474008 0.65272969 -0.35069102 0
-3.5521524 0.72145277 -0.31711766 0
-3.4664798 0.70405239 -0.31761089 0
-2.5157135 0.74047548 -0.32201493 0
-2.450321 0.75953513 -0.3228859 0
-2.3653607 0.75178206 -0.32351539 0
-2.259975 0.73612523 -0.32434404 0
-2.1586883 0.74911815 -0.32498726 0
-2.0535908 0.75115395 -0.32566217 0
-1.9419384 0.74741888 -0.32498705 0
-1.8924417 0.78585279 -0.32455686 0
-1.7577446 0.77457809 -0.32648101 0
-1.6501062 0.74999404 -0.32734069 0
-1.5305094 0.74089402 -0.32741839 0
-1.4654007 0.75637829 -0.32743999 0
-1.3614172 0.74546117 -0.32790977 0
-1.2384787 0.75271338 -0.32912758 0
-1.1587954 0.75997072 -0.32982132 0
-1.0468249 0.7515257 -0.33168212 0
-0.9735567 0.76422679 -0.33167773 0
0.99012721 0.78872448 -0.3391982 0
1.0501324 0.75368756 -0.34345877 0
1.1448761 0.75306076 -0.3441425 0
1.2597554 0.74940509 -0.34280953 0
1.3644961 0.74708247 -0.34289411 0
1.4462017 0.75191772 -0.34357712 0
1.5505415 0.75962281 -0.34435955 0
1.6382374 0.73599505 -0.34593105 0
1.7487345 0.75584418 -0.3459217 0
1.8548996 0.75169981 -0.34565991 0
1.9611578 0.74937278 -0.34651172 0
2.061799 0.75405127 -0.34851912 0
2.1598337 0.75518298 -0.34915566 0
2.25214 0.75145721 -0.34956327 0
2.3404372 0.74383551 -0.34950352 0
2.4293842 0.75302267 -0.34989953 0
2.5460575 0.76121968 -0.35075623 0
2.6544881 0.74042881 -0.35266584 0
2.7601504 0.75700873 -0.35323209 0
-2.5049739 0.81590426 -0.32347551 0
-2.4566624 0.85893446 -0.3237572 0
-2.3394089 0.83677745 -0.32449564 0
-2.2448878 0.83933896 -0.32450828 0
-2.1437607 0.85440969 -0.324619 0
-2.0523264 0.85231084 -0.32485032 0
-1.9663984 0.84991211 -0.32573172 0
-1.8557532 0.84967494 -0.32642654 0
-1.7416027 0.84626782 -0.32677132 0
-1.646891 0.85943067 -0.32680488 0
-1.5506473 0.84908742 -0.32815009 0
-1.4528947 0.85054457 -0.3296335 0
-1.3472694 0.85472769 -0.32937905 0
-1.2477695 0.85572052 -0.32962519 0
-1.1505053 0.85115957 -0.33032757 0
-1.0469753 0.85042495 -0.33149248 0
-0.94555825 0.84638751 -0.33140153 0
-0.88033396 0.87095749 -0.33186156 0
0.95067883 0.86299986 -0.34195271 0
1.0533073 0.85449171 -0.3422766 0
1.1538435 0.856776 -0.34255663 0
1.2362939 0.84010816 -0.34436321 0
1.3437538 0.86011219 -0.34420443 0
1.458214 0.84347546 -0.3443687 0
1.5574419 0.84987891 -0.34496206 0
1.6298859 0.82645714 -0.34668165 0
1.739697 0.85762048 -0.34678698 0
1.8314604 0.8543613 -0.34759292 0
1.9585521 0.85888374 -0.34639555 0
2.0300565 0.83760673 -0.34630775 0
2.1308501 0.84932435 -0.34714085 0
2.2444432 0.84543467 -0.34916806 0
2.3461373 0.84561032 -0.350431 0
2.4532218 0.83811146 -0.35113513 0
2.5853724 0.84206712 -0.35169929 0
2.6725323 0.84938413 -0.3520554 0
2.7376904 0.84855121 -0.35193115 0
-2.4449863 0.94441938 -0.32412046 0
-2.3564053 0.94926012 -0.323919 0
-2.2482395 0.93360692 -0.32463896 0
-2.1439877 0.95691484 -0.32655191 0
-2.0441306 0.95972484 -0.32591119 0
-1.9426342 0.95773727 -0.3258017 0
-1.8359114 0.9564904 -0.32642081 0
-1.7637122 0.94932491 -0.32727471 0
-1.6482756 0.93951464 -0.3283363 0
-1.5505234 0.96210986 -0.32921994 0
-1.4390059 0.94214898 -0.32918286 0
-1.3663666 0.96609741 -0.32994777 0
-1.2602093 0.94623882 -0.33037072 0
-1.1469496 0.93284577 -0.33162838 0
-1.0628016 0.95460677 -0.33230454 0
-0.94664514 0.94973958 -0.3329173 0
-0.84369427 0.94973809 -0.33373234 0
-0.75985587 0.97525334 -0.33131415 0
0.85893965 0.95307279 -0.34174812 0
0.9488284 0.95226306 -0.34262493 0
1.0569581 0.96853012 -0.34228146 0
1.1475551 0.94546127 -0.34402919 0
1.2413937 0.94610178 -0.34383407 0
1.3405212 0.96216768 -0.34476152 0
1.4587178 0.9608773 -0.34412533 0
1.5401644 0.93808138 -0.34625435 0
1.6462946 0.94263124 -0.34611952 0
1.756412 0.95335197 -0.34654155 0
1.8576012 0.94567573 -0.34769273 0
1.9721744 0.96478051 -0.34912691 0
2.0359828 0.93993539 -0.34949753 0
2.171464 0.9384284 -0.34856975 0
2.2573402 0.93738413 -0.34844962 0
2.3561628 0.93913108 -0.3495982 0
2.4529848 0.93713218 -0.35050201 0
2.556824 0.93514061 -0.35150906 0
2.6635311 0.9599393 -0.35194293 0
2.7208333 0.9294349 -0.35303888 0
-2.4355698 1.0567064 -0.32604924 0
-2.3514657 1.0564117 -0.32630253 0
-2.2531738 1.0511556 -0.32550392 0
-2.1642287 1.0477221 -0.32563704 0
-2.0631597 1.0540237 -0.3256498 0
-1.9755608 1.045144 -0.32649627 0
-1.8455169 1.0450983 -0.32763547 0
-1.753475 1.0602951 -0.32742476 0
-1.6434568 1.0460123 -0.32850787 0
-1.5461364 1.0603392 -0.32990685 0
-1.4472356 1.0547165 -0.32990256 0
-1.3338753 1.0453224 -0.33037555 0
-1.2555978 1.0535967 -0.32974827 0
-1.1392225 1.0406542 -0.33189198 0
-1.0338349 1.0375276 -0.33322424 0
-0.95868689 1.0548905 -0.33355778 0
-0.84474236 1.0461916 -0.3329201 0
-0.74775165 1.0548298 -0.33452633 0
-0.6476348 1.0623132 -0.33347139 0
-0.59625381 1.0983237 -0.33486453 0
0.66973615 1.0810368 -0.34079051 0
0.75642729 1.0458561 -0.34142941 0
0.84293067 1.0370693 -0.34286311 0
0.95026678 1.0543984 -0.34321609 0
1.048818 1.0526245 -0.34378064 0
1.1552932 1.0487124 -0.34387258 0
1.2438842 1.0483295 -0.34464517 0
1.3601296 1.0677768 -0.34510654 0
1.4351993 1.0475676 -0.34551543 0
1.5294536 1.048995 -0.34540254 0
1.6362951 1.0579741 -0.34573326 0
1.7276237 1.0446995 -0.34698665 0
1.8583575 1.069965 -0.3473157 0
1.9264681 1.0369732 -0.34733707 0
2.0444317 1.0629177 -0.34855366 0
2.1418304 1.0368489 -0.35032976 0
2.2338202 1.0421705 -0.35058466 0
2.3405271 1.0413165 -0.35056192 0
2.4385014 1.0538257 -0.3512373 0
2.5497615 1.0375491 -0.35139829 0
2.6549764 1.0474041 -0.35250252 0
-2.6421797 1.1643186 -0.3250289 0
-2.517477 1.1093664 -0.32599169 0
-2.4125495 1.1046277 -0.32579759 0
-2.335588 1.1429638 -0.32456523 0
-2.2271321 1.1377999 -0.32579052 0
-2.1518247 1.158282 -0.32584494 0
-2.0423107 1.156544 -0.32682985 0
-1.9330586 1.1314486 -0.32727674 0
-1.8344927 1.1601611 -0.32751951 0
-1.7326301 1.1522093 -0.32958317 0
-1.6667179 1.1666652 -0.32909393 0
-1.5585228 1.1529181 -0.32966074 0
-1.4521898 1.1567423 -0.33004707 0
-1.3553696 1.1446909 -0.32963723 0
-1.2441866 1.1458757 -0.33107656 0
-1.1474732 1.1515944 -0.33339044 0
-1.0474339 1.1455437 -0.33244571 0
-0.93333626 1.1399482 -0.33426976 0
-0.85174865 1.1513816 -0.3335121 0
-0.74492806 1.1491734 -0.33362564 0
-0.65654981 1.1469548 -0.33396098 0
-0.55034244 1.1473982 -0.33415741 0
-0.44915757 1.162864 -0.33409184 0
-0.3706044 1.1907157 -0.33420065 0
0.46232954 1.1815374 -0.34006813 0
0.56440628 1.1523629 -0.34139374 0
0.6483354 1.1545242 -0.34176651 0
0.75176281 1.1472434 -0.34264895 0
0.86232543 1.155383 -0.34200484 0
0.95279378 1.1383517 -0.34322739 0
1.0458829 1.1604774 -0.34417513 0
1.1435643 1.1476794 -0.34489357 0
1.257051 1.1576788 -0.34553313 0
1.3426785 1.1560279 -0.34553897 0
1.4612702 1.1471126 -0.34590209 0
1.5579437 1.1524365 -0.34626427 0
1.6578597 1.1544769 -0.34703374 0
1.7620251 1.1355925 -0.34720933 0
1.8643024 1.1529119 -0.34840268 0
1.97047 1.1533744 -0.34857765 0
2.069026 1.1521325 -0.34897518 0
2.1615002 1.1634735 -0.34953704 0
2.2593527 1.1338966 -0.35083455 0
2.3767736 1.1505851 -0.35179439 0
2.4703705 1.1525356 -0.35207638 0
2.5595424 1.1499859 -0.3526096 0
2.6365716 1.1543033 -0.35375035 0
-2.9331527 1.2925404 -0.32278243 0
-2.8500175 1.2559056 -0.32342428 0
-2.7668824 1.2192708 -0.32406613 0
-2.3430974 1.2396683 -0.32558599 0
-2.2588561 1.2368584 -0.32585454 0
-2.1543067 1.2609578 -0.32662925 0
-2.0611131 1.2463218 -0.32700643 0
-1.9641047 1.246197 -0.32751596 0
-1.8646896 1.2593036 -0.32872939 0
-1.7661362 1.248619 -0.32874551 0
-1.6493384 1.2550467 -0.32939541 0
-1.5546854 1.2532444 -0.32974464 0
-1.4681935 1.2581015 -0.33015323 0
-1.3665291 1.2440453 -0.33140904 0
-1.2475145 1.2520448 -0.33247906 0
-1.1448847 1.2520599 -0.3318525 0
-1.0458738 1.2474841 -0.33300373 0
-0.9450106 1.2491666 -0.33346748 0
-0.84309727 1.2388006 -0.33400512 0
-0.75016314 1.2406482 -0.33404213 0
-0.660429 1.2591889 -0.33474481 0
-0.54391164 1.2531453 -0.33584327 0
-0.45750245 1.2506052 -0.33523375 0
-0.34943166 1.2537909 -0.33752796 0
-0.26251206 1.2461616 -0.33700544 0
-0.14819776 1.2506927 -0.33756685 0
-0.049629167 1.2615216 -0.33835405 0
0.049860556 1.2679127 -0.34009978 0
0.14878401 1.2539881 -0.33843058 0
0.24854957 1.2463804 -0.34064326 0
0.35217553 1.2529761 -0.34008741 0
0.4446229 1.2445571 -0.34150377 0
0.55620497 1.2500219 -0.34214151 0
0.65323424 1.2599012 -0.34225693 0
0.75180686 1.2634976 -0.34346148 0
0.84037435 1.2333859 -0.3440868 0
0.94829446 1.2471746 -0.34261131 0
1.0511779 1.241478 -0.34549737 0
1.1539114 1.2620304 -0.34515971 0
1.2439799 1.2579424 -0.34578404 0
1.340247 1.2339445 -0.34673321 0
1.4562343 1.2477683 -0.34636313 0
1.5647738 1.2501785 -0.34654722 0
1.6590054 1.2552366 -0.34723368 0
1.7589954 1.25009 -0.34727338 0
1.8291228 1.2352695 -0.34833723 0
1.9405001 1.2573289 -0.34883913 0
2.040158 1.2537147 -0.34975582 0
2.1237276 1.2431457 -0.35031936 0
2.2409658 1.247885 -0.35070872 0
2.3463514 1.2487111 -0.35111478 0
2.4435372 1.2557998 -0.35181126 0
2.5522447 1.2581648 -0.35311383 0
2.6033642 1.2145977 -0.35273013 0
-3.0578551 1.3474927 -0.32181966 0
-2.3086674 1.3073393 -0.32576251 0
-2.2518306 1.3397932 -0.3265436 0
-2.1331937 1.3460913 -0.32716584 0
-2.0346427 1.3530025 -0.32802162 0
-1.9375902 1.356269 -0.32866493 0
-1.8311858 1.3477761 -0.32784751 0
-1.7421875 1.3344917 -0.32920468 0
-1.6465594 1.3406581 -0.32947582 0
-1.5606787 1.3615801 -0.33094579 0
-1.4508469 1.3553398 -0.33146593 0
-1.3478982 1.3449166 -0.33235773 0
-1.2438906 1.3605099 -0.33161139 0
-1.1406417 1.3472282 -0.33278731 0
-1.0411953 1.3528147 -0.33355808 0
-0.94918633 1.3527416 -0.33359936 0
-0.86300939 1.3496691 -0.33363736 0
-0.75913674 1.3451165 -0.33499902 0
-0.63872093 1.3424667 -0.33742237 0
-0.54667068 1.3499879 -0.33720505 0
-0.44554487 1.3626359 -0.33542061 0
-0.35971341 1.3617772 -0.33615246 0
-0.24354447 1.3431292 -0.3385573 0
-0.15054677 1.3529032 -0.33809322 0
-0.058190782 1.3517441 -0.33798188 0
0.049909368 1.3445359 -0.33955374 0
0.14612645 1.3528607 -0.33849597 0
0.24857542 1.3478495 -0.34030715 0
0.34100935 1.3533026 -0.34116349 0
0.45920882 1.3491559 -0.34059885 0
0.54177427 1.3701228 -0.34273213 0
0.65028781 1.3364291 -0.34265232 0
0.74510509 1.3493387 -0.34401494 0
0.85483378 1.346084 -0.34371588 0
0.95607662 1.3421313 -0.34494719 0
1.0591934 1.3591439 -0.344181 0
1.1546582 1.3539977 -0.34706232 0
1.2624426 1.3611473 -0.34585682 0
1.3404506 1.3455468 -0.3464987 0
1.4498612 1.3466381 -0.3476133 0
1.5530305 1.3500907 -0.3474966 0
1.6563153 1.358659 -0.34721202 0
1.7348834 1.3365399 -0.34755936 0
1.8432271 1.3431582 -0.34819776 0
1.9465498 1.3554395 -0.34955168 0
2.0591733 1.3480822 -0.35034171 0
2.1605439 1.3490326 -0.3509337 0
2.262223 1.3459698 -0.35149145 0
2.3581688 1.3578001 -0.35223523 0
2.4501097 1.3643456 -0.35273314 0
2.5394993 1.3435686 -0.35277078 0
-3.343056 1.4731709 -0.31961772 0
-3.2656932 1.4390796 -0.32021502 0
-3.1825578 1.4024448 -0.32085687 0
-2.2447231 1.4354131 -0.32733122 0
-2.1477494 1.4504638 -0.32744429 0
-2.0449724 1.4457799 -0.32742706 0
-1.9344044 1.4525642 -0.32784247 0
-1.8389354 1.4435545 -0.32902777 0
-1.7338626 1.4432439 -0.32991764 0
-1.6418539 1.4273649 -0.33084878 0
-1.5428874 1.4371767 -0.33125544 0
-1.4617871 1.4670438 -0.33126584 0
-1.3502945 1.443435 -0.33200946 0
-1.2480277 1.4542575 -0.33244008 0
-1.1445527 1.4645778 -0.33346018 0
-1.0513818 1.4536835 -0.33326945 0
-0.94863087 1.437744 -0.3334583 0
-0.86222851 1.4610311 -0.33498842 0
-0.7516132 1.4473048 -0.33560959 0
-0.64412153 1.4531802 -0.33606037 0
-0.56149042 1.4449214 -0.33611017 0
-0.43577337 1.4444888 -0.33650598 0
-0.33994481 1.4350376 -0.33725315 0
-0.24268998 1.4472979 -0.33953074 0
-0.15375856 1.4563253 -0.33835796 0
-0.054576654 1.4542925 -0.33833945 0
0.048226397 1.4529655 -0.33970985 0
0.1534469 1.456918 -0.33861417 0
0.2552937 1.4494539 -0.34033802 0
0.3573145 1.4319614 -0.34140781 0
0.44082436 1.4331093 -0.34207121 0
0.55017674 1.455247 -0.34248671 0
0.65103197 1.4474839 -0.34210089 0
0.74847823 1.4521395 -0.34388027 0
0.84679049 1.4586424 -0.34455919 0
0.95496178 1.4609737 -0.34386569 0
1.047557 1.4483244 -0.34602329 0
1.1526179 1.4573926 -0.34589583 0
1.2465429 1.444255 -0.34751672 0
1.344613 1.4492863 -0.3467288 0
1.456089 1.4489275 -0.34758317 0
1.5555937 1.4533429 -0.34791377 0
1.6459908 1.4517632 -0.3483977 0
1.7658565 1.4485526 -0.34861705 0
1.8620721 1.4617587 -0.34878242 0
1.9562855 1.4471319 -0.34938478 0
2.0577619 1.4477215 -0.3507351 0
2.1667097 1.4480886 -0.35146132 0
2.2506661 1.4508758 -0.35199881 0
2.334234 1.4497141 -0.35235849 0
2.4633534 1.4496537 -0.35334912 0
2.5149095 1.4004472 -0.35344037 0
-2.1670089 1.5508478 -0.32723117 0
-2.055702 1.5436308 -0.32741761 0
-1.9613518 1.5625187 -0.32879797 0
-1.8654715 1.5527878 -0.32960948 0
-1.7598245 1.5521709 -0.3305904 0
-1.6530982 1.5443621 -0.33093458 0
-1.5478132 1.5312389 -0.33112669 0
-1.4378181 1.5500445 -0.33264983 0
-1.3552841 1.5572132 -0.33178908 0
-1.2430419 1.5412683 -0.33238563 0
-1.1507916 1.5553761 -0.33358848 0
-1.0430388 1.5564525 -0.3330529 0
-0.94672012 1.5478891 -0.33393186 0
-0.83717316 1.5353531 -0.33602974 0
-0.74060237 1.543821 -0.33462995 0
-0.65986526 1.5548519 -0.33503929 0
-0.54179251 1.5523367 -0.33651334 0
-0.44684035 1.5382925 -0.33653522 0
-0.34349227 1.5589139 -0.33803993 0
-0.26306215 1.5495073 -0.33922067 0
-0.14169958 1.5409184 -0.33788529 0
-0.049663372 1.5397923 -0.33910194 0
0.049712159 1.5435468 -0.34005663 0
0.15051587 1.5524182 -0.33811238 0
0.24987383 1.538397 -0.3406249 0
0.34921619 1.5516032 -0.34122354 0
0.44420901 1.5534494 -0.34338456 0
0.55388755 1.5312868 -0.3426829 0
0.6518631 1.5600379 -0.34281671 0
0.75752813 1.5677617 -0.34325519 0
0.84255302 1.5549865 -0.34531575 0
0.93336147 1.5389605 -0.34488916 0
1.0456334 1.5362128 -0.34597355 0
1.1467869 1.5620759 -0.34640855 0
1.2495291 1.54803 -0.34676984 0
1.3494307 1.5410419 -0.34784275 0
1.4408234 1.5534389 -0.34797496 0
1.5482712 1.5537857 -0.34824839 0
1.6694784 1.5596482 -0.34868002 0
1.7530293 1.5612707 -0.3495959 0
1.8378414 1.5444638 -0.34947002 0
1.9398249 1.5530554 -0.34990323 0
2.0389729 1.5539718 -0.35028923 0
2.1379869 1.5347047 -0.35137263 0
2.2329266 1.5548706 -0.35251257 0
2.3507993 1.5390047 -0.3528851 0
2.431237 1.5424379 -0.35354996 0
-2.1124287 1.6339791 -0.32791114 0
-2.0417581 1.6423775 -0.32866916 0
-1.9580183 1.65362 -0.33048344 0
-1.8633366 1.6512345 -0.33017021 0
-1.7514279 1.6598624 -0.33068293 0
-1.6434851 1.6493623 -0.33094013 0
-1.5403292 1.6607358 -0.33149576 0
-1.4400297 1.6445696 -0.33253211 0
-1.334951 1.6393487 -0.33296561 0
-1.2561556 1.6501163 -0.33350298 0
-1.1500987 1.6592376 -0.33291122 0
-1.0532861 1.6474339 -0.33315969 0
-0.94360906 1.6469128 -0.33465797 0
-0.84195507 1.6511507 -0.3356033 0
-0.74449944 1.6417258 -0.33510035 0
-0.64030343 1.6233332 -0.33619797 0
-0.54197437 1.6440004 -0.33652124 0
-0.45081973 1.6553187 -0.33729264 0
-0.36346936 1.669875 -0.33809656 0
-0.23566674 1.6474055 -0.33877304 0
-0.15254726 1.6452787 -0.33812958 0
-0.053230159 1.6507139 -0.33980128 0
0.047816511 1.6515356 -0.34093687 0
0.15217754 1.6592216 -0.34018776 0
0.25345439 1.6448964 -0.34113434 0
0.35551035 1.6589432 -0.34224266 0
0.45249379 1.6689034 -0.34213522 0
0.55300146 1.6559972 -0.34395301 0
0.64368284 1.6376504 -0.3429552 0
0.74527568 1.6533946 -0.34261045 0
0.86348265 1.6463679 -0.345961 0
0.94861096 1.6505276 -0.3457303 0
1.0532779 1.6470984 -0.34518418 0
1.1616887 1.6556137 -0.34710449 0
1.2526679 1.6559306 -0.34678841 0
1.3622615 1.6485784 -0.34700045 0
1.4560879 1.6454339 -0.34855244 0
1.5658631 1.6641197 -0.34877974 0
1.6452677 1.6511828 -0.34937185 0
1.7459521 1.6465915 -0.34950384 0
1.8467747 1.6288439 -0.35009107 0
1.9349943 1.6580834 -0.35062492 0
2.0463669 1.6542574 -0.35110679 0
2.1615899 1.6474276 -0.35145316 0
2.2532473 1.6667967 -0.35249519 0
2.3500419 1.636535 -0.35370073 0
-2.045815 1.7378442 -0.32975596 0
-1.9398427 1.7358164 -0.33011708 0
-1.8446068 1.7481692 -0.33033696 0
-1.7534282 1.7597206 -0.33062416 0
-1.6571022 1.7442031 -0.33149064 0
-1.5632912 1.7596277 -0.33166072 0
-1.4478985 1.7523754 -0.33277115 0
-1.3361068 1.7400669 -0.33373156 0
-1.2373077 1.7367191 -0.33317542 0
-1.1434354 1.7603461 -0.33250841 0
-1.0484623 1.7480501 -0.33356795 0
-0.94818401 1.7466294 -0.33569372 0
-0.83943766 1.7561802 -0.33543473 0
-0.74951601 1.744661 -0.33544382 0
-0.63425976 1.7535092 -0.33670518 0
-0.55050212 1.7451303 -0.33711964 0
-0.44333827 1.7593261 -0.33757675 0
-0.33581287 1.7496796 -0.33872694 0
-0.25715894 1.7306854 -0.33847421 0
-0.15539715 1.7332306 -0.33830008 0
-0.056384947 1.7502785 -0.34043926 0
0.043953896 1.7574842 -0.34177044 0
0.14436716 1.7492471 -0.34121853 0
0.24389729 1.7356219 -0.34072858 0
0.34793204 1.7320297 -0.34351602 0
0.4385083 1.7392347 -0.34222344 0
0.52780014 1.743271 -0.34535024 0
0.64885646 1.7465045 -0.34396967 0
0.73576516 1.7610172 -0.34380224 0
0.84723651 1.7339938 -0.34472132 0
0.9528923 1.7611691 -0.3460384 0
1.0554856 1.7499452 -0.34627178 0
1.1533902 1.747862 -0.34685576 0
1.2623597 1.771946 -0.34809688 0
1.337461 1.7349437 -0.34769604 0
1.4528681 1.7582136 -0.348097 0
1.5495036 1.7440608 -0.34963933 0
1.6499792 1.7449535 -0.34972349 0
1.7489992 1.7303597 -0.35012913 0
1.8478703 1.7512509 -0.35041445 0
1.9511057 1.7711201 -0.35109186 0
2.0530665 1.742129 -0.35147485 0
2.148814 1.7543157 -0.35212895 0
2.2525816 1.7508556 -0.35281789 0
2.3034568 1.7039704 -0.35180303 0
-1.9586608 1.842963 -0.33043617 0
-1.8384323 1.8450065 -0.33020905 0
-1.7292868 1.8379593 -0.33150494 0
-1.6473036 1.8366951 -0.33121416 0
-1.5565212 1.8564628 -0.33277142 0
-1.4505131 1.861558 -0.33288571 0
-1.3466638 1.8340908 -0.33305651 0
-1.2387469 1.8485564 -0.33238736 0
-1.1401415 1.8703188 -0.33353519 0
-1.0461717 1.8323361 -0.33422717 0
-0.9592877 1.8612046 -0.33542183 0
-0.85583323 1.8516371 -0.33562335 0
-0.75278485 1.8533919 -0.33634895 0
-0.64399672 1.8632064 -0.33674163 0
-0.54121983 1.8380955 -0.3378551 0
-0.45011222 1.8416582 -0.33819434 0
-0.35825372 1.8665683 -0.33905238 0
-0.24095221 1.851487 -0.33900133 0
-0.1578041 1.8472602 -0.33932662 0
-0.058967043 1.8303993 -0.34063822 0
0.045970473 1.8378228 -0.34207916 0
0.14937121 1.843291 -0.34151244 0
0.25409809 1.8410419 -0.34141922 0
0.35392502 1.8452636 -0.34312946 0
0.45591483 1.8649992 -0.34293789 0
0.55293077 1.8538557 -0.34524378 0
0.64360148 1.8401507 -0.34470966 0
0.74871361 1.8592398 -0.34420946 0
0.86576861 1.8384126 -0.34501028 0
0.96252269 1.8675218 -0.3460649 0
1.0495219 1.8379928 -0.34696141 0
1.1514679 1.858833 -0.34739292 0
1.2406124 1.8286314 -0.34738293 0
1.3382255 1.8504119 -0.34842634 0
1.4440993 1.8531786 -0.3489137 0
1.5495169 1.8480629 -0.34912443 0
1.6481282 1.8286296 -0.35028645 0
1.7592279 1.8429853 -0.35098401 0
1.8728428 1.852881 -0.35134137 0
1.9739447 1.8707417 -0.35198891 0
2.0462368 1.8399557 -0.35139689 0
2.1440923 1.8639858 -0.35232425 0
2.2224677 1.8230927 -0.35295868 0
-1.8597854 1.9484892 -0.33114362 0
-1.7476851 1.9390969 -0.33148831 0
-1.6401848 1.9281859 -0.33258229 0
-1.5640326 1.9584208 -0.33289456 0
-1.4482155 1.9723996 -0.33286136 0
-1.3548166 1.9307055 -0.3328397 0
-1.266713 1.9600992 -0.33403257 0
-1.156831 1.9603527 -0.333698 0
-1.0507661 1.9357067 -0.33536413 0
-0.93771189 1.9367423 -0.33594278 0
-0.85150325 1.9402522 -0.33589306 0
-0.76011342 1.9677805 -0.33687222 0
-0.64191675 1.94713 -0.33674148 0
-0.54304767 1.9531437 -0.33971879 0
-0.46200117 1.9379013 -0.33863097 0
-0.34555653 1.9506087 -0.3393485 0
-0.24765009 1.9668082 -0.33945003 0
-0.13804387 1.9559096 -0.34088337 0
-0.048848014 1.9504099 -0.34067783 0
0.058158454 1.9430676 -0.3424153 0
0.15603544 1.9503121 -0.34223816 0
0.25005454 1.964534 -0.34255967 0
0.35351232 1.9556327 -0.34368289 0
0.44667977 1.9484026 -0.3430573 0
0.54782557 1.9376894 -0.34488901 0
0.64577109 1.9397322 -0.34583741 0
0.75245637 1.9483829 -0.3449977 0
0.84881538 1.9449428 -0.34539554 0
0.9535023 1.9614556 -0.3462114 0
1.0583889 1.9166631 -0.34726289 0
1.1576186 1.961598 -0.34756222 0
1.2502214 1.9446868 -0.34840131 0
1.3467752 1.9487352 -0.34853622 0
1.4455479 1.9490668 -0.34921244 0
1.5474113 1.9470133 -0.34960604 0
1.6466466 1.9356502 -0.34995994 0
1.7523288 1.9442557 -0.35166106 0
1.8494101 1.9562922 -0.35196087 0
1.9465367 1.944039 -0.35191131 0
2.0491498 1.9514655 -0.352808 0
2.1118498 1.9448926 -0.35252032 0
-1.7643046 2.0443304 -0.33176827 0
-1.6650811 2.044735 -0.33287165 0
-1.5543406 2.0546565 -0.33292952 0
-1.4535176 2.0713735 -0.33288771 0
-1.3462443 2.0404961 -0.33379284 0
-1.2478304 2.0357888 -0.33345687 0
-1.1603165 2.0664053 -0.33483648 0
-1.0504589 2.0381906 -0.33600721 0
-0.9387002 2.0697191 -0.336344 0
-0.85439235 2.0371749 -0.33644617 0
-0.74409914 2.0472732 -0.33695641 0
-0.64621651 2.0386093 -0.33743978 0
-0.54831868 2.0708358 -0.33991966 0
-0.44996086 2.0629976 -0.33999473 0
-0.34517547 2.0329387 -0.33984306 0
-0.25766343 2.0463755 -0.33973837 0
-0.15506798 2.0608687 -0.34137949 0
-0.051854569 2.0704887 -0.34087506 0
0.041848823 2.053932 -0.34297773 0
0.15563762 2.0676007 -0.34256116 0
0.24461603 2.0624697 -0.34290445 0
0.34874433 2.0536363 -0.34373477 0
0.46232599 2.0490732 -0.34415108 0
0.55962598 2.058733 -0.34468779 0
