# .PCD v0.7 - Point Cloud Data file format
VERSION 0.7
FIELDS x y z intensity
SIZE 4 4 4 4
TYPE F F F F
COUNT 1 1 1 1
WIDTH 1366
HEIGHT 1
VIEWPOINT 0 0 0 1 0 0 0
POINTS 1366
DATA ascii
-2.2659173 0.29350936 -0.30420181 0
-2.1416931 0.27741835 -0.30599305 0
-2.0156679 0.27577573 -0.30779666 0
-1.9329542 0.26445937 -0.30900937 0
-1.8249811 0.28972274 -0.31078631 0
-1.748898 0.27764428 -0.31194407 0
-1.6679032 0.27701533 -0.31271595 0
-1.5780146 0.28033468 -0.31320667 0
-1.4463167 0.26789337 -0.31528869 0
-1.3407362 0.26240745 -0.31789231 0
-1.2518635 0.25662345 -0.31779152 0
-1.1661044 0.24551751 -0.31940192 0
1.290724 0.25267616 -0.35248485 0
1.3614185 0.24618907 -0.35325402 0
1.4633029 0.26905492 -0.35421115 0
1.5289627 0.24186788 -0.35651016 0
1.6487821 0.24271147 -0.35884172 0
1.7560257 0.25313339 -0.36007464 0
1.8351367 0.25107712 -0.36057556 0
1.9229878 0.24905288 -0.36213657 0
2.0483196 0.25041631 -0.36403748 0
2.1755424 0.25011778 -0.3660782 0
2.2595584 0.24339932 -0.36731425 0
2.3311698 0.25552163 -0.36827111 0
2.4601469 0.24151348 -0.37013984 0
2.5734186 0.24016553 -0.37099943 0
2.6613348 0.24836826 -0.37218925 0
2.7492514 0.25657097 -0.37337908 0
2.8370504 0.24428439 -0.37419444 0
2.9250071 0.25185597 -0.37537333 0
3.0367785 0.26146737 -0.37687254 0
-2.520335 0.36321458 -0.3003509 0
-2.430258 0.35023451 -0.30172032 0
-2.3444746 0.33787546 -0.30298546 0
-2.2590847 0.3586686 -0.30443287 0
-2.1766636 0.34558406 -0.30568346 0
-2.0621552 0.34248641 -0.30706605 0
-1.9246219 0.34531683 -0.30878553 0
-1.841571 0.35433546 -0.30972609 0
-1.7322955 0.33895749 -0.31107044 0
-1.6546546 0.34848735 -0.31245524 0
-1.5650187 0.35297871 -0.31400812 0
-1.4644939 0.337742 -0.31550077 0
-1.3471961 0.34195432 -0.31488886 0
-1.2461011 0.31879461 -0.31714636 0
-1.147438 0.30232993 -0.31794778 0
1.2646066 0.35268101 -0.35188565 0
1.3577802 0.35040593 -0.35362917 0
1.4708427 0.35656771 -0.35600618 0
1.5342237 0.34137332 -0.35640046 0
1.6537466 0.3483184 -0.35776013 0
1.7435013 0.3514843 -0.35916427 0
1.8275251 0.34634399 -0.36080137 0
1.9474577 0.34725976 -0.3623786 0
2.0569007 0.34163237 -0.36454886 0
2.1561193 0.35810757 -0.36557528 0
2.2794523 0.34521312 -0.36766759 0
2.3838685 0.36103401 -0.36912096 0
2.4730918 0.33833992 -0.3699986 0
2.5607069 0.35032663 -0.37131777 0
2.6512401 0.34340391 -0.37271407 0
2.7389536 0.35476542 -0.37404311 0
2.8302453 0.34600207 -0.37535405 0
2.9179993 0.35673141 -0.37664399 0
3.0369871 0.3492673 -0.37834603 0
-2.5134721 0.43599054 -0.30081752 0
-2.4145138 0.4545078 -0.30179802 0
-2.3447881 0.44138682 -0.30238926 0
-2.234226 0.4538008 -0.30390695 0
-2.1481247 0.45231822 -0.30478251 0
-2.0655544 0.45032302 -0.30619279 0
-1.9817817 0.44698039 -0.30744737 0
-1.8776934 0.45084655 -0.30834872 0
-1.7473329 0.45292807 -0.31112224 0
-1.6391387 0.43194374 -0.31317219 0
-1.5525875 0.42098537 -0.31526351 0
-1.4488155 0.40399879 -0.31485975 0
1.2504894 0.46047577 -0.35206622 0
1.3479151 0.44506687 -0.35326159 0
1.4624242 0.4433265 -0.35493311 0
1.5543302 0.44540364 -0.3567597 0
1.6432908 0.4608427 -0.35765749 0
1.7545391 0.45273939 -0.35898042 0
1.8305448 0.43777305 -0.36162719 0
1.9708468 0.44453493 -0.36270997 0
2.0536244 0.44779113 -0.36380261 0
2.1382816 0.45027328 -0.36523917 0
2.2527518 0.44743022 -0.36666214 0
2.3609912 0.46199837 -0.36830416 0
2.4579246 0.44444907 -0.36996898 0
2.5447752 0.46015552 -0.371115 0
2.6371231 0.43797255 -0.37230006 0
2.724247 0.45244336 -0.37350699 0
2.8195255 0.44764251 -0.37518004 0
2.9598439 0.45675507 -0.37710527 0
3.0522776 0.4398559 -0.37865311 0
-2.4509568 0.52509427 -0.30163085 0
-2.3746071 0.55820733 -0.3016924 0
-2.2474351 0.55093396 -0.30309337 0
-2.1253192 0.55995375 -0.30485639 0
-2.0405469 0.55327076 -0.30601332 0
-1.9548596 0.54512024 -0.30700958 0
-1.8677185 0.53818923 -0.30845156 0
-1.2497019 0.58665472 -0.31873187 0
-1.1473449 0.57134324 -0.31837082 0
-1.0548579 0.5485127 -0.31867155 0
1.1851219 0.57366115 -0.35282227 0
1.2473965 0.53905863 -0.35313126 0
1.3432325 0.55778629 -0.35464361 0
1.4361284 0.55028909 -0.35520869 0
1.5494496 0.54875124 -0.35664392 0
1.6653159 0.53983355 -0.35839239 0
1.7626821 0.54635352 -0.35929051 0
1.8491946 0.54433155 -0.3601824 0
1.9394196 0.54077327 -0.3621394 0
2.0497358 0.56218773 -0.36349735 0
2.1533141 0.54280996 -0.36482838 0
2.241796 0.54433435 -0.36656353 0
2.3347065 0.56192905 -0.36768964 0
2.4263752 0.54720044 -0.36870944 0
2.5462835 0.56168681 -0.37098393 0
2.6210492 0.53232718 -0.37243792 0
2.7597046 0.54804647 -0.37413725 0
2.8839183 0.5429101 -0.37540802 0
2.9707103 0.5592472 -0.3766256 0
3.0248964 0.54700774 -0.37745976 0
-2.4608407 0.64836085 -0.30024517 0
-2.3587217 0.65773064 -0.3008306 0
-2.2762949 0.63475084 -0.30209044 0
-2.1548679 0.64082831 -0.30367672 0
-2.0336611 0.66240072 -0.30625355 0
-1.9317809 0.64458954 -0.30803055 0
-1.8455358 0.64531446 -0.30969727 0
-1.5429797 0.67993861 -0.31190088 0
-1.458124 0.67481655 -0.31371254 0
-1.3457237 0.64649147 -0.31718108 0
-1.2328054 0.65226275 -0.31863746 0
-1.1570603 0.65837348 -0.31937951 0
-1.054446 0.6480158 -0.32094041 0
-0.98698735 0.67692453 -0.32070759 0
1.1512436 0.6574133 -0.35084739 0
1.2506979 0.6502583 -0.35314333 0
1.3691634 0.65172094 -0.35405773 0
1.4466268 0.63741803 -0.35669434 0
1.5631448 0.64918643 -0.35797879 0
1.6450735 0.64212394 -0.35911688 0
1.7347358 0.64857119 -0.36094236 0
1.8260005 0.65314174 -0.36196876 0
1.9453266 0.65783513 -0.36323071 0
2.0605259 0.64697289 -0.36492071 0
2.1635342 0.65367025 -0.36650357 0
2.2262681 0.63804817 -0.36682642 0
2.3317614 0.66826433 -0.36807352 0
2.452394 0.63663703 -0.36939403 0
2.5656214 0.65641779 -0.37151229 0
2.6785414 0.64466596 -0.37299871 0
2.762727 0.64393544 -0.37379813 0
2.8577964 0.64451128 -0.37558997 0
2.9527066 0.64379489 -0.37754068 0
3.0116625 0.65669286 -0.37848353 0
-2.4261639 0.79023486 -0.3010219 0
-2.3307402 0.77763247 -0.30198851 0
-2.2515547 0.73338073 -0.30251718 0
-2.1649656 0.73963171 -0.30436903 0
-2.0588953 0.73645329 -0.30624154 0
-1.9609258 0.75751245 -0.307863 0
-1.8577725 0.74988443 -0.30875653 0
-1.7815334 0.77742487 -0.30927971 0
-1.6513042 0.7505281 -0.31124395 0
-1.5432304 0.75678575 -0.31342724 0
-1.4321603 0.74102634 -0.31531212 0
-1.3437902 0.75725371 -0.31566617 0
-1.2431095 0.75163275 -0.31778723 0
-1.1490997 0.75007069 -0.31951153 0
-1.0463445 0.75374728 -0.32070893 0
-0.94998688 0.75940949 -0.3220526 0
1.0608482 0.76136845 -0.35002691 0
1.1449958 0.74594539 -0.35152057 0
1.2579358 0.76319391 -0.35129547 0
1.3367774 0.74271417 -0.35261065 0
1.4446529 0.75499254 -0.35532284 0
1.5480084 0.74940848 -0.35561237 0
1.6597037 0.74925703 -0.35793585 0
1.7409539 0.73599857 -0.36090618 0
1.8743845 0.74708682 -0.36219108 0
1.9632082 0.75006717 -0.36346897 0
2.0535896 0.75111371 -0.3646417 0
2.1699891 0.75871879 -0.36637533 0
2.2439771 0.74020076 -0.36781394 0
2.359602 0.74987638 -0.36950687 0
2.4746187 0.74770308 -0.37064961 0
2.5622997 0.75420213 -0.37129936 0
2.6499484 0.75946063 -0.37213013 0
2.7474413 0.74489099 -0.37371373 0
2.8400159 0.7482239 -0.37527508 0
2.9489429 0.74541414 -0.37671405 0
-2.4093156 0.82306987 -0.30045053 0
-2.3254182 0.86523461 -0.30202296 0
-2.2402556 0.84702742 -0.30366126 0
-2.1404281 0.85676688 -0.30510932 0
-2.0355201 0.84527075 -0.30642492 0
-1.9417982 0.85571647 -0.30737463 0
-1.8531923 0.84851724 -0.30850738 0
-1.7532407 0.84878045 -0.3102465 0
-1.6427367 0.85400754 -0.31146547 0
-1.5548279 0.85124195 -0.31254077 0
-1.4485248 0.82950765 -0.31389311 0
-1.3660742 0.84470016 -0.31423345 0
-1.2503548 0.84444237 -0.31793237 0
-1.1512719 0.84755474 -0.31884286 0
-1.0641276 0.85235918 -0.31954119 0
-0.95024264 0.86251438 -0.32093519 0
-0.86038303 0.85277534 -0.32279328 0
0.96846414 0.86667371 -0.34827957 0
1.0501877 0.85236359 -0.34977943 0
1.1462936 0.84429103 -0.35092255 0
1.2594931 0.85512972 -0.35372376 0
1.3545239 0.85939837 -0.35392442 0
1.445245 0.84585953 -0.35434946 0
1.5332664 0.85371339 -0.35656348 0
1.631693 0.85048819 -0.35822544 0
1.7333224 0.8576557 -0.35829845 0
1.8385746 0.84503615 -0.3608377 0
1.9396362 0.84662336 -0.36258611 0
2.0437348 0.85572642 -0.36421758 0
2.1340048 0.84624946 -0.36516851 0
2.2394898 0.85563755 -0.36689797 0
2.3348541 0.8539651 -0.36810562 0
2.4339848 0.85101342 -0.36959195 0
2.5319788 0.8447125 -0.37107578 0
2.6480403 0.86959273 -0.37249458 0
2.7250657 0.84465075 -0.37412995 0
2.8336501 0.85616165 -0.37498677 0
2.9320378 0.8402555 -0.37558317 0
-2.4622164 0.98139966 -0.30084541 0
-2.369195 0.96397734 -0.30179465 0
-2.2701433 0.96183372 -0.30342552 0
-2.1713531 0.95686883 -0.30400202 0
-2.0633111 0.94472009 -0.30546662 0
-1.9471318 0.9426173 -0.30661795 0
-1.8471014 0.95049512 -0.30878699 0
-1.7228893 0.9393959 -0.30965957 0
-1.6654764 0.96133465 -0.31041762 0
-1.5510876 0.94394457 -0.31145945 0
-1.4519173 0.94183999 -0.31418046 0
-1.3362401 0.94072533 -0.31617719 0
-1.2507167 0.95325208 -0.31807175 0
-1.1524577 0.9453395 -0.31800166 0
-1.0405771 0.94457918 -0.31882611 0
-0.95850879 0.96879619 -0.32127735 0
-0.84589618 0.95215541 -0.32267413 0
-0.76063013 0.94977289 -0.32358795 0
-0.69299513 0.98761284 -0.32327789 0
0.85923958 0.96720153 -0.34676048 0
0.94048083 0.94750035 -0.34687948 0
1.0461011 0.94964063 -0.35011846 0
1.1611568 0.95720506 -0.35073557 0
1.2307776 0.93118441 -0.35037312 0
1.3502803 0.95466185 -0.35371411 0
1.4567522 0.93890882 -0.35571387 0
1.5700206 0.94524646 -0.35692689 0
1.6732731 0.94749188 -0.3586753 0
1.7582508 0.96260017 -0.35967702 0
1.8588567 0.94964397 -0.360901 0
1.9485607 0.9432621 -0.36220428 0
2.0704291 0.95560026 -0.36431977 0
2.1469219 0.93708497 -0.36470681 0
2.2611768 0.95176411 -0.36733174 0
2.3688891 0.94422817 -0.36872476 0
2.4760661 0.96646786 -0.36995775 0
2.5644403 0.93795931 -0.37136155 0
2.6773195 0.95764369 -0.37266529 0
2.7719364 0.94693589 -0.37351882 0
2.874095 0.9588744 -0.37515694 0
2.9257376 0.92983919 -0.37694085 0
-2.4312987 1.0713905 -0.30157584 0
-2.3249567 1.0644652 -0.30178019 0
-2.2197173 1.0598925 -0.30228427 0
-2.1303899 1.0502596 -0.30421633 0
-2.0322092 1.0565625 -0.30517644 0
-1.9449226 1.0468438 -0.30677393 0
-1.8398745 1.0593905 -0.30759305 0
-1.7542106 1.0436661 -0.30900329 0
-1.6483692 1.0502925 -0.31111512 0
-1.5475985 1.0484731 -0.3123576 0
-1.4430879 1.0517981 -0.31475058 0
-1.3438927 1.0547985 -0.31620777 0
-1.2455066 1.0395888 -0.31677052 0
-1.147766 1.0484948 -0.3175517 0
-1.0487242 1.0610034 -0.31942138 0
-0.93711978 1.0397055 -0.31987616 0
-0.86410195 1.0611392 -0.32210535 0
-0.74900889 1.0460601 -0.32476217 0
-0.65588164 1.0478779 -0.32523218 0
-0.56238019 1.0724003 -0.32452977 0
0.67187673 1.0845339 -0.34185427 0
0.74969763 1.0521356 -0.34630802 0
0.8405506 1.0607579 -0.34739587 0
0.9503293 1.0466658 -0.34828767 0
1.0631989 1.0588162 -0.34940675 0
1.1446006 1.0445588 -0.35206169 0
1.2563397 1.0457696 -0.35264218 0
1.3495878 1.0533777 -0.35286236 0
1.4615382 1.0523078 -0.35415509 0
1.5393319 1.034415 -0.3555342 0
1.6444355 1.0500759 -0.35822764 0
1.7481792 1.057101 -0.35895902 0
1.8482214 1.046553 -0.3609567 0
1.9649423 1.0396369 -0.36206558 0
2.0425684 1.0433608 -0.36331958 0
2.140274 1.0549573 -0.36510858 0
2.2474244 1.0485834 -0.36714175 0
2.3395245 1.0510187 -0.3679935 0
2.4378252 1.0534366 -0.36986306 0
2.5372145 1.0535513 -0.37123045 0
2.6345286 1.0501164 -0.37255657 0
2.7338002 1.0445088 -0.37370428 0
2.8523078 1.052489 -0.37527436 0
-2.5132089 1.1074855 -0.30024165 0
-2.3900025 1.1359581 -0.30052087 0
-2.2475572 1.1482506 -0.30262977 0
-2.1620483 1.1537987 -0.30290431 0
-2.0654094 1.1696385 -0.30436122 0
-1.9607756 1.1476824 -0.30585957 0
-1.8547589 1.1578121 -0.30806181 0
-1.7527808 1.138427 -0.30962425 0
-1.6491443 1.139806 -0.31043661 0
-1.5732307 1.152872 -0.3122392 0
-1.4565033 1.1602217 -0.31453547 0
-1.3616054 1.1499361 -0.31498307 0
-1.2443838 1.1458704 -0.31760105 0
-1.145215 1.1438543 -0.31679097 0
-1.0478532 1.152738 -0.3199138 0
-0.9479636 1.1512299 -0.32082886 0
-0.83875042 1.1376674 -0.32329467 0
-0.75416243 1.151387 -0.3227132 0
-0.64152217 1.1553485 -0.32453442 0
-0.54337174 1.1430243 -0.32580945 0
-0.4594405 1.1521174 -0.32789508 0
-0.35903609 1.1732962 -0.32884091 0
0.44708291 1.1824021 -0.33878469 0
0.55090982 1.1600984 -0.34179541 0
0.65286386 1.1516442 -0.34471607 0
0.76156116 1.1500449 -0.34497893 0
0.85476011 1.1468313 -0.34724751 0
0.94726282 1.1623142 -0.34760585 0
1.0376247 1.1317893 -0.34990722 0
1.150153 1.1539735 -0.35126141 0
1.2477574 1.1527773 -0.35229781 0
1.3497455 1.1611389 -0.35397321 0
1.4376386 1.1414593 -0.35475308 0
1.5480914 1.1451597 -0.35592517 0
1.6465211 1.1466171 -0.35637504 0
1.7378787 1.1376764 -0.35869882 0
1.8358774 1.1463645 -0.36011714 0
1.9496375 1.1599879 -0.36109057 0
2.050246 1.1417043 -0.36391497 0
2.1781631 1.1523573 -0.3646498 0
2.2516921 1.1437322 -0.36591876 0
2.3580713 1.1555408 -0.36878273 0
2.4556658 1.1601641 -0.36971948 0
2.5608923 1.1504555 -0.37151009 0
2.6696053 1.1764005 -0.37360728 0
2.7493706 1.1572315 -0.37467751 0
2.8211823 1.1401812 -0.37502277 0
-2.4444151 1.2488055 -0.30044132 0
-2.3397563 1.2378126 -0.3008073 0
-2.226424 1.2607849 -0.30213568 0
-2.128742 1.2459664 -0.30327392 0
-2.0201561 1.2615623 -0.30540612 0
-1.9331732 1.2459888 -0.30701199 0
-1.8367269 1.2402292 -0.30818036 0
-1.7348127 1.2454727 -0.30963531 0
-1.6372674 1.2478187 -0.31172568 0
-1.5351156 1.2390803 -0.31314722 0
-1.4601774 1.2547185 -0.31437379 0
-1.3537898 1.2611783 -0.3154566 0
-1.2558521 1.2459774 -0.31606212 0
-1.1428465 1.2421515 -0.31918931 0
-1.0491601 1.2513826 -0.31917366 0
-0.9538421 1.2526845 -0.32176557 0
-0.84289932 1.2497927 -0.32095483 0
-0.73466259 1.2449648 -0.32364127 0
-0.64484251 1.2514266 -0.32516846 0
-0.55834353 1.2549047 -0.32546127 0
-0.44623116 1.2495751 -0.32743067 0
-0.35317183 1.2485691 -0.32988262 0
-0.25265086 1.242496 -0.33146238 0
-0.15321629 1.2563142 -0.33112866 0
-0.048819855 1.2423397 -0.33320856 0
0.049328756 1.2512975 -0.3356441 0
0.14760447 1.2433175 -0.33555359 0
0.25251901 1.2453539 -0.33801326 0
0.34894186 1.247655 -0.33912504 0
0.44365147 1.2546533 -0.33931217 0
0.55622572 1.2501473 -0.3421649 0
0.64384824 1.2489519 -0.34383991 0
0.75805038 1.2636076 -0.34406075 0
0.85422999 1.235903 -0.34632462 0
0.95302439 1.2598191 -0.34803313 0
1.0490772 1.2511792 -0.34926197 0
1.146961 1.2547312 -0.3506951 0
1.2549883 1.2670746 -0.35247913 0
1.3366622 1.2390244 -0.35310295 0
1.4354395 1.247818 -0.35472965 0
1.5454341 1.2493482 -0.35619336 0
1.6547205 1.2424383 -0.35750616 0
1.755298 1.2410951 -0.35847279 0
1.8659045 1.2601321 -0.35940754 0
1.9341828 1.2426258 -0.36159548 0
2.0613587 1.2466029 -0.36236173 0
2.1576459 1.2426026 -0.36441132 0
2.2317545 1.2427831 -0.36571002 0
2.3276594 1.2529092 -0.36699978 0
2.42155 1.2590195 -0.36828247 0
2.5370727 1.2506016 -0.37099221 0
2.6394482 1.2545366 -0.37226868 0
2.7530155 1.260457 -0.37408462 0
2.8084006 1.2136325 -0.37564832 0
-2.3508348 1.3312175 -0.30143511 0
-2.2735186 1.3526945 -0.30081803 0
-2.1470466 1.3407581 -0.30356884 0
-2.0713589 1.3560827 -0.30500263 0
-1.9627333 1.3459755 -0.30588716 0
-1.8709626 1.3431975 -0.30752945 0
-1.7705684 1.349416 -0.30955416 0
-1.6680318 1.3485186 -0.31112179 0
-1.5674999 1.3430835 -0.31256181 0
-1.4526161 1.3409237 -0.31423208 0
-1.3579895 1.3628987 -0.31594241 0
-1.261309 1.3480281 -0.31659764 0
-1.1525251 1.3586565 -0.31760272 0
-1.0405151 1.3552579 -0.3207736 0
-0.94074833 1.3405718 -0.32008743 0
-0.86006272 1.3631487 -0.32089582 0
-0.74873114 1.3560934 -0.32363966 0
-0.65596491 1.3427454 -0.32526952 0
-0.53929031 1.3390646 -0.32569563 0
-0.45393047 1.3498302 -0.32751691 0
-0.35323396 1.3607053 -0.32935753 0
-0.26152653 1.3673404 -0.32931709 0
-0.14426099 1.3530551 -0.33177257 0
-0.05277117 1.3423603 -0.33332163 0
0.048645951 1.3484455 -0.33570102 0
0.1495408 1.3443162 -0.33605373 0
0.24227044 1.342814 -0.3372958 0
0.34124839 1.3538288 -0.33861732 0
0.46185982 1.3532656 -0.34009531 0
0.54360181 1.3674839 -0.34237719 0
0.64879394 1.3401375 -0.34347552 0
0.73523086 1.3403304 -0.34462106 0
0.85659236 1.3488637 -0.34550092 0
0.95739174 1.3436728 -0.34707507 0
1.054988 1.353919 -0.34934914 0
1.1595428 1.3680862 -0.35017622 0
1.2434748 1.3356974 -0.35288364 0
1.339503 1.3443853 -0.35378996 0
1.4457228 1.3506198 -0.35479304 0
1.5585097 1.3548105 -0.35638228 0
1.6519487 1.3512862 -0.35733545 0
1.7645283 1.3583468 -0.35857955 0
1.828914 1.3472029 -0.36058328 0
1.9488031 1.3363554 -0.36132151 0
2.0404716 1.3566953 -0.36236522 0
2.1582429 1.3476121 -0.36452252 0
2.2624733 1.3461121 -0.36561742 0
2.3611262 1.3592809 -0.36709705 0
2.473165 1.3541536 -0.36871767 0
2.5588136 1.3303939 -0.37034637 0
2.6753747 1.3749123 -0.37221703 0
2.7243559 1.3349485 -0.37385502 0
-2.3241253 1.4745178 -0.30163091 0
-2.2370043 1.4417676 -0.30260733 0
-2.1316783 1.4395936 -0.30374902 0
-2.0362034 1.4397304 -0.30512613 0
-1.9642233 1.4575047 -0.30607837 0
-1.8490173 1.4514966 -0.30826983 0
-1.7487931 1.4555925 -0.30992875 0
-1.656758 1.4543839 -0.31061205 0
-1.5533364 1.4385786 -0.3126412 0
-1.443454 1.4486225 -0.315173 0
-1.3451006 1.450093 -0.31424683 0
-1.2495172 1.447723 -0.31582916 0
-1.1428516 1.4448125 -0.31831414 0
-1.046645 1.4690636 -0.31896785 0
-0.95623016 1.4494233 -0.31917486 0
-0.84804457 1.4391644 -0.32249382 0
-0.75872678 1.4625261 -0.32353443 0
-0.64958572 1.4476334 -0.3258203 0
-0.54008037 1.4605905 -0.32600698 0
-0.45034257 1.4471035 -0.32721972 0
-0.35613179 1.4568383 -0.32925355 0
-0.24608885 1.4396309 -0.33028248 0
-0.15935244 1.4308659 -0.33109909 0
-0.061918929 1.4420468 -0.33350489 0
0.050127827 1.4534429 -0.33607417 0
0.15415668 1.4491556 -0.33699849 0
0.25236985 1.4352027 -0.33673331 0
0.36152637 1.4342179 -0.33899444 0
0.44656968 1.4372275 -0.3408137 0
0.54952466 1.4535347 -0.34224647 0
0.65653533 1.4518661 -0.34432253 0
0.75032645 1.4556459 -0.34454581 0
0.8517496 1.4525436 -0.34585553 0
0.95999461 1.4472718 -0.34609088 0
1.0482073 1.4446287 -0.3481822 0
1.1445706 1.4365803 -0.3515203 0
1.2529589 1.4308839 -0.35107431 0
1.3536175 1.4384892 -0.35332054 0
1.4542741 1.4595457 -0.35509446 0
1.5512788 1.4492292 -0.35681179 0
1.6643324 1.4679157 -0.35681614 0
1.7374389 1.441039 -0.35860777 0
1.8484 1.4509238 -0.35933563 0
1.9554801 1.4465284 -0.36236459 0
2.078686 1.4475694 -0.36245748 0
2.1521473 1.453734 -0.36389455 0
2.2518363 1.4513812 -0.36620986 0
2.3602848 1.4504519 -0.3672772 0
2.4409213 1.4366611 -0.36815667 0
2.5515006 1.4530162 -0.3697091 0
2.6384711 1.4446211 -0.37075496 0
-2.4066112 1.5027609 -0.30003718 0
-2.3786428 1.5572143 -0.30068848 0
-2.2692404 1.5562419 -0.30178711 0
-2.1655881 1.5545563 -0.30331546 0
-2.0626948 1.5488157 -0.3047308 0
-1.9489799 1.5526927 -0.30679145 0
-1.8348554 1.5496083 -0.30804598 0
-1.7410092 1.5578898 -0.30928364 0
-1.639137 1.553442 -0.31127638 0
-1.5539675 1.5449771 -0.3129048 0
-1.4621347 1.553854 -0.31304047 0
-1.3432146 1.5412951 -0.31452134 0
-1.2446127 1.5509771 -0.31641766 0
-1.1512363 1.5446075 -0.31833312 0
-1.0452071 1.5597411 -0.31768882 0
-0.94242394 1.5460494 -0.32046819 0
-0.85072404 1.5560544 -0.32252869 0
-0.74270964 1.5576802 -0.32477647 0
-0.65152204 1.5344765 -0.32591471 0
-0.55385917 1.566373 -0.32591754 0
-0.44369569 1.5558439 -0.32769135 0
-0.35787025 1.5430015 -0.32901555 0
-0.25225461 1.5534616 -0.33008996 0
-0.14479694 1.5444964 -0.33219832 0
-0.050013222 1.552892 -0.33279523 0
0.041540064 1.5527762 -0.33551827 0
0.1523464 1.5546247 -0.33641168 0
0.24562958 1.544106 -0.3372308 0
0.34129962 1.5530103 -0.33886316 0
0.45127943 1.5537567 -0.33990222 0
0.55387062 1.5430447 -0.34289387 0
0.65241718 1.5612434 -0.34360892 0
0.76428652 1.5547252 -0.34530234 0
0.84147263 1.5498326 -0.34519547 0
0.95058972 1.5303694 -0.34772667 0
1.0499327 1.5428498 -0.34786659 0
1.1420945 1.5462768 -0.34953842 0
1.2429814 1.5263629 -0.35232186 0
1.3560907 1.5486015 -0.35255495 0
1.4645766 1.5564139 -0.35412496 0
1.5522844 1.5505897 -0.3570689 0
1.6372877 1.5516893 -0.35842612 0
1.7620913 1.5540911 -0.35908589 0
1.8591316 1.5475214 -0.36034963 0
1.9535793 1.5488571 -0.36079845 0
2.0492566 1.5465142 -0.36308169 0
2.1265464 1.5497147 -0.36437193 0
2.2401264 1.5599762 -0.36460054 0
2.3472154 1.5366197 -0.3670117 0
2.4486382 1.553486 -0.36871731 0
2.5560806 1.5606458 -0.37021795 0
2.6157212 1.506029 -0.37059981 0
-2.3414271 1.6555357 -0.30094981 0
-2.2179806 1.6407074 -0.30266464 0
-2.1480432 1.6615272 -0.303541 0
-2.0503311 1.6574768 -0.30554563 0
-1.9368896 1.6478786 -0.30626842 0
-1.8673881 1.6470715 -0.30699503 0
-1.7462195 1.6549153 -0.30952111 0
-1.6415224 1.6473985 -0.31011543 0
-1.5485507 1.645697 -0.31161729 0
-1.4412314 1.6378522 -0.31290039 0
-1.3562025 1.6490827 -0.31482685 0
-1.2398803 1.6469823 -0.31708482 0
-1.1399888 1.6306825 -0.31691828 0
-1.0677848 1.6697711 -0.31780478 0
-0.95121938 1.6385883 -0.3208991 0
-0.84164143 1.6501276 -0.32203874 0
-0.73617828 1.660697 -0.32410735 0
-0.64571863 1.6442302 -0.32479006 0
-0.55046964 1.6697583 -0.32620406 0
-0.45052499 1.6300633 -0.32736242 0
-0.34296197 1.6424797 -0.32863829 0
-0.25703448 1.6578072 -0.33088082 0
-0.15343691 1.665475 -0.33187023 0
-0.065859795 1.6697086 -0.33068839 0
0.056771692 1.6507252 -0.33613563 0
0.14889349 1.6597768 -0.33627856 0
0.25731313 1.6590836 -0.33819896 0
0.35286906 1.6463599 -0.33917937 0
0.45564172 1.6567678 -0.3397882 0
0.54316831 1.6609977 -0.34269956 0
0.64503837 1.6414589 -0.3440679 0
0.7545734 1.6258297 -0.34689331 0
0.83791018 1.654876 -0.34549791 0
0.9446162 1.6430922 -0.34708545 0
1.0495002 1.6413493 -0.34837997 0
1.1528783 1.647814 -0.34931603 0
1.262854 1.6501505 -0.35240179 0
1.3454491 1.6521969 -0.35351524 0
1.4534656 1.6758208 -0.35410991 0
1.531865 1.6279418 -0.35451835 0
1.6514812 1.6571876 -0.35760537 0
1.752875 1.6534672 -0.35983348 0
1.8441923 1.6502618 -0.35940021 0
1.9350631 1.6342686 -0.36186087 0
2.0475674 1.655277 -0.36234555 0
2.1556582 1.6427466 -0.36440971 0
2.2536278 1.6670719 -0.36556613 0
2.3671138 1.6484152 -0.36643943 0
2.4607472 1.6788756 -0.36764589 0
2.5243475 1.6353861 -0.36971906 0
-2.3503723 1.764835 -0.30087996 0
-2.2563741 1.7454373 -0.30235237 0
-2.1420362 1.7571026 -0.30396673 0
-2.0326171 1.7416697 -0.30473825 0
-1.9482831 1.7600679 -0.30638215 0
-1.8421575 1.7292686 -0.30877426 0
-1.7585375 1.7648647 -0.3076165 0
-1.6479406 1.7513207 -0.30980054 0
-1.5547795 1.7502307 -0.31139782 0
-1.4572215 1.7380667 -0.3137365 0
-1.3476455 1.744661 -0.31526449 0
-1.2463282 1.7761283 -0.31569603 0
-1.1498663 1.7429651 -0.31696135 0
-1.0374558 1.7295165 -0.31945339 0
-0.96039927 1.757225 -0.32022712 0
-0.85181922 1.7561867 -0.32141581 0
-0.75187659 1.7572138 -0.32369733 0
-0.65760058 1.7472439 -0.32516986 0
-0.54981995 1.75173 -0.3257927 0
-0.44821236 1.7563 -0.32765648 0
-0.35834095 1.732736 -0.32830018 0
-0.24520902 1.7439064 -0.33177707 0
-0.15327951 1.7363436 -0.33251339 0
-0.051844683 1.7333022 -0.33198416 0
0.043311819 1.7263548 -0.3357175 0
0.14143425 1.7314626 -0.33600533 0
0.24108942 1.7344511 -0.33737597 0
0.34921277 1.7332485 -0.33950898 0
0.43884265 1.7401239 -0.34103036 0
0.55111855 1.755721 -0.34229624 0
0.64177847 1.7353559 -0.34418911 0
0.73923808 1.7474301 -0.34497258 0
0.85161954 1.7434882 -0.34640986 0
0.93932754 1.7483221 -0.34679917 0
1.0428146 1.7384491 -0.348066 0
1.1395485 1.7543483 -0.35015804 0
1.2478451 1.75107 -0.35066131 0
1.34971 1.7665572 -0.35338521 0
1.4317197 1.7327182 -0.35418123 0
1.5439514 1.7379651 -0.35516602 0
1.6545594 1.7583377 -0.35663247 0
1.764246 1.7622439 -0.3600173 0
1.8328282 1.736963 -0.36065409 0
1.9475234 1.7426258 -0.3616831 0
2.0509813 1.7573152 -0.36262974 0
2.1677592 1.7524427 -0.36422375 0
2.2779717 1.7619786 -0.36594629 0
2.3300505 1.7236431 -0.36692941 0
2.4231143 1.7499157 -0.36756322 0
-2.4187636 1.8162023 -0.30054554 0
-2.3624499 1.8635387 -0.30086622 0
-2.2450924 1.8416672 -0.3022815 0
-2.1693318 1.8588173 -0.30291274 0
-2.0674379 1.8501409 -0.30450016 0
-1.9530221 1.850759 -0.30632433 0
-1.8302757 1.8368772 -0.30658212 0
-1.7130464 1.8416055 -0.30943951 0
-1.6628046 1.8718073 -0.31021577 0
-1.5396535 1.8633512 -0.31221712 0
-1.4374139 1.8447752 -0.31399798 0
-1.3485998 1.8461794 -0.31451094 0
-1.2672833 1.8621126 -0.31545967 0
-1.160805 1.8445647 -0.31730461 0
-1.0538819 1.8394392 -0.31898877 0
-0.93890631 1.8541845 -0.32083783 0
-0.84586263 1.8339432 -0.32074088 0
-0.76709563 1.8532182 -0.32336101 0
-0.6491282 1.8518986 -0.32448959 0
-0.5481565 1.8381999 -0.32614756 0
-0.44371849 1.8734013 -0.32709885 0
-0.35373721 1.8430309 -0.3283366 0
-0.24651825 1.8516661 -0.33131754 0
-0.15332086 1.8596302 -0.33093864 0
-0.051758993 1.851038 -0.33215371 0
0.046291642 1.8454225 -0.33538648 0
0.15435168 1.8480568 -0.33599153 0
0.25665814 1.8480076 -0.33797413 0
0.34034202 1.8587887 -0.33923462 0
0.45327485 1.8546242 -0.3398028 0
0.54765272 1.8364 -0.34174252 0
0.65176237 1.8341837 -0.34407625 0
0.75132692 1.8656707 -0.34512627 0
0.86183697 1.8301878 -0.34669736 0
0.94756204 1.871372 -0.34735644 0
1.0574479 1.8214464 -0.34802356 0
1.1494082 1.8733591 -0.34905085 0
1.245582 1.8302844 -0.35168678 0
1.3530855 1.8707147 -0.35265419 0
1.4444692 1.8265312 -0.355452 0
1.5494115 1.8480356 -0.35572234 0
1.6734816 1.8568321 -0.35664347 0
1.7572937 1.8588482 -0.35841426 0
1.853604 1.8337302 -0.36068597 0
1.9599968 1.8574823 -0.36220622 0
2.0485504 1.8417412 -0.36226663 0
2.1554494 1.8649186 -0.36443821 0
2.2421372 1.8484058 -0.36493006 0
2.3416882 1.8381962 -0.36686373 0
-2.3357425 1.9441602 -0.3010096 0
-2.2551215 1.9418682 -0.30163696 0
-2.1485624 1.9410019 -0.30339941 0
-2.0500433 1.9616594 -0.30470687 0
-1.9576181 1.9646764 -0.30507877 0
-1.8591822 1.9478672 -0.30679262 0
-1.7498164 1.94162 -0.30898899 0
-1.6265647 1.9400737 -0.31165949 0
-1.558768 1.9711506 -0.31125668 0
-1.4498405 1.9453365 -0.3137345 0
-1.3510661 1.9448451 -0.31501135 0
-1.2558854 1.9433422 -0.31590918 0
-1.1548649 1.95696 -0.31774962 0
-1.0455103 1.9258056 -0.31912005 0
-0.96345687 1.9720949 -0.31984711 0
-0.85960531 1.9321569 -0.32106513 0
-0.7472809 1.9349408 -0.3238683 0
-0.63933307 1.9447231 -0.32539833 0
-0.55073828 1.948263 -0.32555604 0
-0.46435204 1.9721912 -0.3261472 0
-0.34538111 1.9659002 -0.32837686 0
-0.25691336 1.9297222 -0.33071023 0
-0.14570838 1.9350476 -0.33010018 0
-0.048751086 1.9488559 -0.33239213 0
0.049271468 1.9644899 -0.33505553 0
0.14754026 1.9597391 -0.33552095 0
0.24653059 1.9581681 -0.33711654 0
0.34635893 1.9552059 -0.33915839 0
0.44510275 1.9405107 -0.33978724 0
0.55885708 1.9464506 -0.34110382 0
0.64855146 1.9487091 -0.34324831 0
0.75312871 1.9501774 -0.34492922 0
0.86104429 1.9503613 -0.34658906 0
0.95494556 1.9666437 -0.34706914 0
1.0517205 1.9283489 -0.34873202 0
1.1624776 1.9698845 -0.34925285 0
1.2552441 1.9322543 -0.35169747 0
1.3619055 1.9708037 -0.35309967 0
1.4544827 1.9372793 -0.3543455 0
1.5486449 1.9583063 -0.35593015 0
1.6463023 1.9542466 -0.35716629 0
1.7439233 1.9533988 -0.3572937 0
1.8488593 1.9368345 -0.3601208 0
1.9398552 1.9609227 -0.36206439 0
2.0390406 1.9418436 -0.36300182 0
2.1560748 1.9711422 -0.36403951 0
2.249886 1.9389435 -0.36524597 0
-2.3598323 2.051532 -0.30037555 0
-2.2436123 2.0662746 -0.30205154 0
-2.1489766 2.0364811 -0.30337402 0
-2.0575709 2.0649548 -0.30416292 0
-1.9592167 2.0622447 -0.30559763 0
-1.8695533 2.0743985 -0.30695283 0
-1.7727081 2.0540364 -0.30915895 0
-1.6460081 2.0511734 -0.31097865 0
-1.5336173 2.0332582 -0.31369948 0
-1.4608709 2.0639064 -0.31277412 0
-1.3458097 2.0397997 -0.31500289 0
-1.2492119 2.0492249 -0.31643119 0
-1.1549011 2.0567455 -0.31763685 0
-1.0677276 2.0358293 -0.31880701 0
-0.94651496 2.055444 -0.31948656 0
-0.85383487 2.0358748 -0.32174304 0
-0.74478495 2.067992 -0.32306179 0
-0.65565431 2.0380516 -0.32504347 0
-0.5421471 2.0475185 -0.32633522 0
-0.44017255 2.0359211 -0.32652467 0
-0.34682074 2.0430708 -0.32824185 0
-0.25773665 2.0476506 -0.32995695 0
-0.15457182 2.0542099 -0.32959604 0
-0.063298024 2.0512779 -0.33163133 0
0.051258016 2.0438681 -0.33483487 0
0.15351978 2.0391719 -0.33550009 0
0.25648955 2.0372717 -0.33709401 0
0.34923762 2.0709386 -0.33777237 0
0.45748574 2.0626211 -0.33918339 0
0.5525133 2.0662539 -0.34004885 0
0.64804053 2.0645881 -0.34297627 0
0.74554586 2.0382705 -0.3442353 0
0.84930944 2.0245032 -0.34668717 0
0.95416373 2.0644395 -0.34685585 0
1.048534 2.0343072 -0.34907305 0
1.1432322 2.0469458 -0.34932294 0
1.2476752 2.0466616 -0.35055 0
1.3383557 2.0602388 -0.35253373 0
1.4463564 2.0506117 -0.35364175 0
1.5552841 2.0557868 -0.35579512 0
1.6665438 2.0563631 -0.35766515 0
1.7477169 2.0249481 -0.35783252 0
1.849142 2.0517204 -0.35890925 0
1.9531696 2.0757136 -0.36220056 0
2.0256479 2.0328069 -0.36309767 0
2.1440711 2.0494766 -0.36448318 0
-2.3179951 2.1346803 -0.30052102 0
-2.2604222 2.1731043 -0.30185023 0
-2.148632 2.1563752 -0.30282366 0
-2.0313342 2.1589339 -0.30433214 0
-1.9298799 2.141335 -0.30603784 0
-1.8425432 2.1553612 -0.30811641 0
-1.7409865 2.1590574 -0.30862668 0
-1.6594826 2.1615729 -0.31076595 0
-1.5566852 2.1523221 -0.31142408 0
-1.4388977 2.1404128 -0.31430668 0
-1.3488482 2.1688371 -0.31519067 0
-1.2626208 2.1509244 -0.31550443 0
-1.1527169 2.1601713 -0.31779456 0
-1.0464664 2.1420486 -0.31859052 0
-0.94848251 2.1735861 -0.31976795 0
-0.85913783 2.1333134 -0.32210448 0
-0.76682061 2.1683199 -0.32254091 0
-0.65155596 2.1288052 -0.32472175 0
-0.56095344 2.1603806 -0.32594153 0
-0.45633534 2.1664343 -0.32659194 0
-0.34607366 2.1311007 -0.32828534 0
-0.23950326 2.1495202 -0.32915732 0
-0.14759658 2.1674554 -0.33050367 0
-0.044895075 2.1370015 -0.33272377 0
0.04706176 2.12903 -0.33459312 0
0.15759534 2.1396997 -0.33534867 0
0.25314251 2.1332386 -0.33750409 0
0.35078225 2.159528 -0.33851695 0
0.43781742 2.135612 -0.34026825 0
0.54388332 2.1578858 -0.3391813 0
0.64245516 2.1542869 -0.34264705 0
0.75270259 2.1283097 -0.34415549 0
0.8585577 2.1588078 -0.34645805 0
0.96003503 2.1577072 -0.34735987 0
1.0548964 2.1206138 -0.3483713 0
1.149878 2.1547472 -0.35007137 0
1.2576151 2.1541469 -0.35121456 0
1.3614737 2.162895 -0.35233691 0
1.4473159 2.1267238 -0.35472381 0
1.5409765 2.1630232 -0.35539278 0
1.6525474 2.1522739 -0.35694304 0
1.7589045 2.1286678 -0.35884181 0
1.8444138 2.1680944 -0.35938716 0
1.9476027 2.1608675 -0.36005974 0
2.0464299 2.1316648 -0.36372453 0
-2.3254128 2.2355876 -0.30104008 0
-2.2483554 2.256424 -0.30150944 0
-2.1695852 2.2730217 -0.30263755 0
-2.0661197 2.2597783 -0.30410036 0
-1.9493641 2.2587121 -0.30635118 0
-1.8473278 2.2356157 -0.30770606 0
-1.7558167 2.2528989 -0.30924791 0
-1.6652482 2.2679179 -0.30990136 0
-1.5416273 2.2653432 -0.31264547 0
-1.4314426 2.2386825 -0.31431699 0
-1.3612533 2.2693963 -0.31317475 0
-1.2515479 2.238035 -0.31631318 0
-1.1657798 2.2695155 -0.31725627 0
-1.0457362 2.2481544 -0.31868872 0
-0.95236254 2.2707567 -0.32017589 0
-0.85938406 2.2252309 -0.32168695 0
-0.74115002 2.2590289 -0.32321993 0
-0.64987147 2.2374091 -0.32425535 0
-0.55036384 2.2513759 -0.32602 0
-0.44232979 2.2597852 -0.32673913 0
-0.35533279 2.2372279 -0.32801503 0
-0.24901867 2.2349727 -0.32935339 0
-0.15342374 2.2530489 -0.33048704 0
-0.056754738 2.2686698 -0.33222681 0
0.048481494 2.2656307 -0.33490801 0
0.13781464 2.262279 -0.33519477 0
0.24425405 2.2675624 -0.3374621 0
0.33696055 2.2800353 -0.3381536 0
0.43587112 2.2705514 -0.33937886 0
0.54961812 2.2487192 -0.33991298 0
0.66718847 2.237221 -0.34292325 0
0.77250946 2.2351317 -0.34430039 0
0.86184406 2.2798336 -0.34569561 0
0.96355742 2.2517498 -0.34768856 0
1.0675441 2.2421634 -0.3480399 0
1.1502392 2.2714975 -0.34958661 0
1.2328255 2.2326982 -0.35079995 0
1.3399688 2.2706254 -0.35238194 0
1.4568412 2.2426445 -0.3536008 0
1.56034 2.2579448 -0.35568532 0
1.6497767 2.2469621 -0.35766143 0
1.7603599 2.2589915 -0.35794881 0
1.8560117 2.2680459 -0.36027136 0
1.9049377 2.239301 -0.36117548 0
-2.3396456 2.348074 -0.30056855 0
-2.2318499 2.3382516 -0.30182561 0
-2.1557813 2.3578019 -0.30203336 0
-2.0566571 2.359853 -0.30460402 0
-1.962039 2.3744397 -0.30562305 0
-1.8546382 2.3454092 -0.30745634 0
-1.758763 2.3249054 -0.30990535 0
-1.6653198 2.3492751 -0.31019318 0
-1.5604547 2.3650875 -0.31216425 0
-1.446015 2.3342197 -0.31334308 0
-1.3411554 2.3355436 -0.31502411 0
-1.2414988 2.3671741 -0.31635568 0
-1.1358132 2.3250759 -0.3177475 0
-1.04483 2.3482609 -0.3177785 0
-0.9542138 2.3693886 -0.3202416 0
-0.8640458 2.336349 -0.32129508 0
-0.75967664 2.361342 -0.32256642 0
-0.64743733 2.3535616 -0.32441366 0
-0.53653026 2.3397291 -0.3258687 0
-0.43751839 2.3708668 -0.32655272 0
-0.34761608 2.3525128 -0.32883465 0
-0.2519303 2.3391216 -0.32925045 0
-0.1592509 2.3386424 -0.33047047 0
-0.058905203 2.3544981 -0.33221009 0
0.042491365 2.3714154 -0.33450925 0
0.14430517 2.368685 -0.33517459 0
0.24706499 2.3712664 -0.33693448 0
0.34957823 2.365422 -0.33836761 0
0.45216095 2.3554204 -0.3396512 0
0.55359888 2.3373888 -0.34018597 0
0.65730709 2.3245449 -0.34233108 0
0.75539958 2.3475688 -0.34370416 0
0.85652304 2.3678429 -0.34519801 0
0.96369523 2.3443038 -0.34779271 0
1.0658156 2.3646595 -0.34809315 0
1.1529448 2.3599839 -0.34900838 0
1.2412447 2.3259559 -0.3508164 0
1.3508784 2.3657076 -0.3523654 0
1.4440619 2.3437974 -0.35440207 0
1.5399402 2.3705399 -0.35484138 0
1.6478704 2.3484836 -0.3566913 0
1.7411499 2.3478343 -0.3591466 0
-2.3622093 2.4747801 -0.30013046 0
-2.2485149 2.4592674 -0.30135009 0
-2.1406946 2.44471 -0.30335623 0
-2.0388107 2.4317322 -0.30495703 0
-1.9539043 2.4464281 -0.30522493 0
-1.8456984 2.4762957 -0.30788741 0
-1.7574106 2.4298599 -0.30880487 0
-1.6496406 2.4488039 -0.31101736 0
-1.5613074 2.480649 -0.31194091 0
-1.4600023 2.4340055 -0.31304514 0
-1.3532709 2.436758 -0.31453738 0
-1.2488339 2.4662428 -0.3158232 0
-1.1404166 2.4217541 -0.31695282 0
-1.0326202 2.436975 -0.31914899 0
-0.93922013 2.4320765 -0.32013676 0
-0.8419981 2.4553027 -0.32122904 0
-0.75111771 2.4541819 -0.32279781 0
-0.6418227 2.4718568 -0.32493269 0
-0.55566597 2.423172 -0.32584077 0
-0.45300472 2.4547966 -0.32624078 0
-0.33731771 2.4640341 -0.32916063 0
-0.25478929 2.4487593 -0.33002454 0
-0.16507804 2.4242356 -0.33045387 0
-0.06105566 2.4403267 -0.33219337 0
0.044026691 2.4572229 -0.33437911 0
0.14953513 2.454567 -0.33523345 0
0.25598499 2.4569252 -0.33701053 0
0.36219582 2.4508085 -0.33858165 0
0.45093209 2.4432797 -0.33979422 0
0.55199552 2.4463487 -0.3401435 0
0.64505947 2.4414766 -0.3415347 0
0.73574501 2.4670911 -0.34368253 0
0.8502658 2.460099 -0.34491453 0
0.95997041 2.4335842 -0.34715056 0
1.0491471 2.4518204 -0.34939724 0
1.1362184 2.4583113 -0.34869313 0
1.2571039 2.4390054 -0.3507461 0
1.3589751 2.4611456 -0.3522512 0
1.4417439 2.4700499 -0.35391402 0
1.5319453 2.4535191 -0.35534492 0
1.6170627 2.4130855 -0.35666427 0
-2.2688415 2.5785713 -0.30150455 0
-2.1507623 2.5652936 -0.30252829 0
-2.0561521 2.5248392 -0.30393708 0
-1.9466072 2.5602615 -0.30696914 0
-1.854946 2.5646849 -0.30705613 0
-1.7449199 2.5640678 -0.30936611 0
-1.6423684 2.528404 -0.31047374 0
-1.5472471 2.5514123 -0.31109646 0
-1.4379435 2.5607204 -0.3133463 0
-1.3422728 2.5153005 -0.3144331 0
-1.2551022 2.5692627 -0.31576061 0
-1.1444267 2.523277 -0.31678188 0
-1.0326567 2.5641301 -0.31896883 0
-0.93699837 2.5337627 -0.32002917 0
-0.746185 2.5241368 -0.3231906 0
-0.66425675 2.5586607 -0.3246001 0
-0.54739016 2.5543284 -0.325416 0
-0.45034695 2.5421906 -0.32634932 0
-0.36071241 2.5682595 -0.32892752 0
-0.24725816 2.5513377 -0.33049783 0
-0.15555467 2.5538263 -0.33057362 0
-0.063206129 2.5261552 -0.33217669 0
0.045562018 2.5430307 -0.33424902 0
0.15476511 2.5404489 -0.33529234 0
0.24580921 2.5364008 -0.33627149 0
0.33830047 2.5410111 -0.33836842 0
0.44861826 2.5323293 -0.34003052 0
0.54017699 2.5204301 -0.34071377 0
0.64966613 2.5775878 -0.34120667 0
0.74838984 2.5765362 -0.34386843 0
0.8406592 2.5497706 -0.34481752 0
0.9537217 2.5229008 -0.34649482 0
1.0389248 2.5623963 -0.34807742 0
1.1516969 2.5683756 -0.34925333 0
1.2399831 2.5381734 -0.34979671 0
1.3492867 2.528311 -0.3519021 0
-2.226804 2.6303637 -0.30171517 0
-2.1567755 2.6744254 -0.30183458 0
-2.044246 2.6626861 -0.30483845 0
-1.9325534 2.6319962 -0.30606556 0
-1.8575604 2.6472774 -0.307558 0
-1.7594529 2.6666896 -0.30884355 0
-1.6574972 2.6334741 -0.31013319 0
-1.5587621 2.6556079 -0.31164882 0
-1.4457355 2.6631603 -0.31269979 0
-1.3498973 2.6192064 -0.31433934 0
-1.2562549 2.6677418 -0.31511068 0
-1.1459037 2.6260931 -0.31677943 0
-1.0558395 2.6768019 -0.31831002 0
-0.95100474 2.629189 -0.31983137 0
-0.76010078 2.6169984 -0.3229377 0
-0.44523409 2.6229284 -0.32668385 0
-0.35395294 2.6580298 -0.32942039 0
-0.25913206 2.6735618 -0.3305009 0
-0.13835688 2.6747053 -0.33085632 0
-0.046824977 2.6175165 -0.33267272 0
0.04709734 2.6288385 -0.33411893 0
0.15999509 2.6263306 -0.33535114 0
0.25412482 2.6221981 -0.33645511 0
0.36193943 2.6444116 -0.33859167 0
0.45541748 2.6435802 -0.34041706 0
0.55429709 2.64095 -0.34082136 0
0.65158606 2.6655695 -0.34135902 0
0.75464785 2.669004 -0.34315833 0
0.85438186 2.6552875 -0.34489241 0
0.9425438 2.62938 -0.34599996 0
1.0395211 2.6352973 -0.3478612 0
1.1229167 2.624217 -0.35047266 0
-2.1253233 2.7409346 -0.30426833 0
-2.0505998 2.7788351 -0.30417871 0
-1.9482094 2.7347755 -0.30613187 0
-1.8515816 2.7486048 -0.30783352 0
-1.7714026 2.770216 -0.30799434 0
-1.6461296 2.7443178 -0.3101733 0
-1.5487406 2.7579589 -0.311165 0
-1.4516172 2.7677948 -0.31256875 0
-1.3529017 2.7198186 -0.31412557 0
-1.2567796 2.7710073 -0.31502822 0
-1.1462638 2.7329018 -0.31713983 0
-1.0336624 2.7541397 -0.31837249 0
-0.9634546 2.7243397 -0.31957743 0
-0.81080872 2.7915838 -0.32192409 0
-0.78545475 2.7042911 -0.32243091 0
-0.048403904 2.7058225 -0.3326022 0
0.048673689 2.7170637 -0.33398747 0
0.14604251 2.7185211 -0.33507639 0
0.24394892 2.7195194 -0.33648229 0
0.34328514 2.7268872 -0.33847374 0
0.4431892 2.7282565 -0.34016091 0
0.53462368 2.7149131 -0.34062299 0
0.64076227 2.7049387 -0.3413389 0
0.76448894 2.7041793 -0.3450444 0
-2.0237515 2.8406706 -0.30515322 0
-1.9536897 2.8708301 -0.3061552 0
-1.8391584 2.8313551 -0.30704737 0
-1.7510623 2.8572776 -0.30813918 0
-1.6523927 2.8465168 -0.30990469 0
-1.5323994 2.8227417 -0.3112905 0
-1.4533421 2.8701236 -0.31234762 0
-1.3541915 2.8231888 -0.31392127 0
-1.2730081 2.8611341 -0.31448072 0
-1.1427022 2.8373797 -0.31719521 0
-1.0436106 2.8852057 -0.31805533 0
-0.99371296 2.8099005 -0.31897703 0
-0.83616269 2.8788767 -0.32141727 0
-1.9253182 2.9180415 -0.30585742 0
-1.8571947 2.9507456 -0.30638039 0
-1.7403111 2.9484532 -0.30892032 0
-1.6390847 2.9684272 -0.30950025 0
-1.5552032 2.91431 -0.31056765 0
-1.473943 2.9631629 -0.31217617 0
-1.3523885 2.9259155 -0.31345317 0
-1.2539793 2.949712 -0.31570199 0
-1.1557765 2.9301722 -0.31674099 0
-1.0744793 2.9705443 -0.31746328 0
-0.86151659 2.9661694 -0.32091048 0
-1.8052649 3.0096247 -0.30704391 0
-1.7374685 3.0427804 -0.30897629 0
-1.6403754 3.0739138 -0.30902147 0
-1.5571716 3.0213747 -0.31056005 0
-1.4404553 3.0588899 -0.31227911 0
-1.3467664 3.026907 -0.31341439 0
-1.2481623 3.0567143 -0.31551257 0
-1.1466668 3.0336671 -0.31656155 0
-1.084488 3.0665832 -0.31717584 0
-0.88687056 3.053462 -0.32040367 0
-1.6411165 3.1291714 -0.30915388 0
-1.5561506 3.1474774 -0.31084135 0
-1.4664532 3.1727049 -0.31155038 0
-1.3432417 3.1392624 -0.31425899 0
-1.2557135 3.1835425 -0.31517196 0
-1.1574308 3.1297855 -0.31622252 0
-0.91222453 3.1407547 -0.31989685 0
-1.5153669 3.2179415 -0.31118733 0
-1.4493082 3.2574799 -0.31193459 0
-1.3568741 3.2349942 -0.31385216 0
-1.265327 3.2764335 -0.31521422 0
-1.1670853 3.2265611 -0.31568724 0
-0.9375785 3.2280474 -0.31939006 0
-1.3632623 3.3163466 -0.31370828 0
-1.2543904 3.3422928 -0.31464931 0
-1.1876302 3.3582361 -0.31512928 0
-0.96293247 3.31534 -0.31888324 0
-1.0134101 3.4891326 -0.31787422 0
-0.98828644 3.4026327 -0.31837642 0
-2.6689687 -2.1262097 -0.29856488 0
-2.7278972 -2.0484362 -0.29848722 0
-2.6986976 -2.0874624 -0.29909572 0
-2.5983925 -2.0699859 -0.29955566 0
-2.8151803 -1.9306294 -0.29897153 0
-2.7626686 -1.9533348 -0.29915246 0
-2.6874895 -1.9584671 -0.29893634 0
-2.8347075 -1.8558868 -0.29643601 0
-2.7462659 -1.8546673 -0.29895777 0
-2.9145961 -1.7060069 -0.29546434 0
-2.8516221 -1.7523446 -0.29628387 0
-2.7397506 -1.7475237 -0.29732201 0
-2.641973 -1.7567847 -0.29944956 0
-2.9599042 -1.6482776 -0.29640982 0
-2.8594255 -1.6463115 -0.29696634 0
-2.7645802 -1.644977 -0.2979638 0
-2.6571162 -1.6591369 -0.29913577 0
-2.5761845 -1.6086473 -0.29968169 0
-2.9523137 -1.5617629 -0.29590905 0
-2.8343558 -1.52566 -0.29798338 0
-2.7554312 -1.5431433 -0.29918507 0
-2.649147 -1.550631 -0.29879984 0
-3.0275302 -1.4656131 -0.29428601 0
-2.9538167 -1.4560317 -0.29513615 0
-2.8609104 -1.4357865 -0.29615444 0
-2.7615051 -1.4359001 -0.29786885 0
-2.6814482 -1.4186561 -0.29982471 0
-3.0396895 -1.3497519 -0.29314753 0
-2.9201565 -1.3370444 -0.29466447 0
-2.8575754 -1.3581934 -0.29703516 0
-2.751313 -1.3401827 -0.29833677 0
-2.6408079 -1.3333811 -0.2989186 0
-3.1154706 -1.2160069 -0.29259428 0
-3.0567405 -1.2606968 -0.29341418 0
-2.9432881 -1.2469269 -0.29496351 0
-2.8445952 -1.2536125 -0.29625908 0
-2.7562537 -1.238304 -0.29718423 0
-2.6656017 -1.2436281 -0.29953921 0
-2.521965 -1.2884244 -0.29981157 0
-3.1332908 -1.14607 -0.29189664 0
-3.0722287 -1.1488291 -0.29290965 0
-2.9851778 -1.1406238 -0.29423428 0
-2.8625641 -1.1487626 -0.29631504 0
-2.7483234 -1.1415751 -0.29833782 0
-2.6582975 -1.1414016 -0.29893726 0
-2.5908129 -1.1416829 -0.29902136 0
-3.13943 -1.047466 -0.29269043 0
-3.0194716 -1.0315113 -0.29415107 0
-2.9365001 -1.0503427 -0.29480892 0
-2.8203704 -1.0546589 -0.29650903 0
-2.7341375 -1.0447037 -0.298044 0
-2.6456718 -1.0326385 -0.29967436 0
-3.1589844 -0.95444202 -0.29212469 0
-3.0297999 -0.96297586 -0.29428828 0
-2.9442029 -0.93577254 -0.29526901 0
-2.8545732 -0.95243847 -0.29653782 0
-2.7599962 -0.94283706 -0.29747087 0
-2.6639643 -0.95286566 -0.29866418 0
-2.571981 -0.91995203 -0.2991575 0
-3.2173195 -0.84773779 -0.29110572 0
-3.1635432 -0.85780585 -0.29189745 0
-3.0682309 -0.85553378 -0.29306915 0
-2.9753497 -0.85262656 -0.29440892 0
-2.8787882 -0.84723848 -0.29575205 0
-2.782289 -0.84057593 -0.29662824 0
-2.6446133 -0.84056056 -0.29870161 0
-3.2343512 -0.72958326 -0.29008594 0
-3.1762247 -0.76439273 -0.29155493 0
-3.0599949 -0.74399835 -0.29320747 0
-2.939584 -0.7597124 -0.29502106 0
-2.8212416 -0.74338394 -0.29692081 0
-2.7232065 -0.75932264 -0.29811612 0
-2.6309094 -0.75391781 -0.29934579 0
-2.5143521 -0.77933651 -0.29941186 0
-3.2322645 -0.63248843 -0.29114693 0
-3.1400344 -0.66917986 -0.29181144 0
-3.0164299 -0.65771812 -0.29379734 0
-2.9253006 -0.65978384 -0.29459447 0
-2.8379903 -0.64008921 -0.2958743 0
-2.7474451 -0.64039654 -0.29738739 0
-2.651994 -0.65838808 -0.29887351 0
-3.2528131 -0.5402596 -0.29140365 0
-3.1197834 -0.5642032 -0.29224491 0
-3.0315773 -0.54825282 -0.29336858 0
-2.9409387 -0.55364341 -0.29491341 0
-2.8509483 -0.55783129 -0.29602474 0
-2.7629709 -0.54061639 -0.29715222 0
-2.6746056 -0.54327744 -0.29844382 0
-2.5748451 -0.56142771 -0.29946983 0
-3.2575588 -0.4456535 -0.29004189 0
-3.1469917 -0.45357093 -0.29207456 0
-3.0557837 -0.46278667 -0.29337573 0
-2.9673166 -0.4493905 -0.29469138 0
-2.8714037 -0.4558278 -0.29598176 0
-2.7641129 -0.43879855 -0.29779595 0
-2.6796067 -0.46480843 -0.29790217 0
-2.5612657 -0.45704129 -0.29928234 0
-3.3020101 -0.33193991 -0.29034403 0
-3.2552748 -0.35869989 -0.29025802 0
-3.1501765 -0.33942091 -0.29179293 0
-3.0619676 -0.35216412 -0.29309484 0
-2.9693027 -0.36309439 -0.29411858 0
-2.8804078 -0.35222632 -0.29532057 0
-2.7638977 -0.34452534 -0.29719293 0
-2.6550808 -0.35345891 -0.29833275 0
-3.301749 -0.28424522 -0.28993365 0
-3.2655487 -0.24970387 -0.28999031 0
-3.1597877 -0.24928212 -0.2915349 0
-3.0705223 -0.24224046 -0.29274678 0
-2.980962 -0.25666815 -0.29418668 0
-2.8471291 -0.24514627 -0.29599419 0
-2.7141397 -0.25324237 -0.29809624 0
-2.6191571 -0.26324186 -0.29888022 0
-2.5185146 -0.2896432 -0.29915133 0
-3.3116727 -0.18980926 -0.29020888 0
-3.2774436 -0.15647154 -0.28936759 0
-3.1802702 -0.15948164 -0.29134098 0
-3.062238 -0.16074176 -0.29359087 0
-2.9414988 -0.14032967 -0.29504862 0
-2.8234668 -0.14158979 -0.29729852 0
-2.7267132 -0.15620734 -0.29826283 0
-2.6324234 -0.15076348 -0.29907799 0
-2.5329781 -0.18158287 -0.29961336 0
-3.3086982 -0.071064845 -0.28954732 0
-3.2573154 -0.069954559 -0.29023951 0
-3.1677916 -0.068031982 -0.29144573 0
-3.0782676 -0.066109397 -0.29265195 0
-2.9887438 -0.064186811 -0.29385811 0
-2.8544576 -0.061302945 -0.29566741 0
-2.7201719 -0.058419071 -0.29747671 0
-2.6306479 -0.056496486 -0.29868293 0
-2.5411239 -0.054573908 -0.29988909 0
-3.3010774 0.070892707 -0.28888041 0
-3.26666 0.034991097 -0.28904736 0
-3.167743 0.045371663 -0.29061911 0
-3.0783291 0.044091448 -0.2919381 0
-2.9682927 0.04251061 -0.29370034 0
-2.8444672 0.040747344 -0.29527694 0
-2.7206724 0.038970582 -0.29721433 0
-2.631258 0.037690368 -0.29853335 0
-2.5382743 0.036369458 -0.29946202 0
-3.3080609 0.14213584 -0.28968441 0
-3.2643852 0.17155212 -0.28868005 0
-3.1662107 0.15879419 -0.29056829 0
-3.07693 0.15431944 -0.29192841 0
-2.9598973 0.15538512 -0.29367033 0
-2.8368397 0.13535477 -0.29562703 0
-2.7223556 0.15612172 -0.29765087 0
-2.6331663 0.15101166 -0.29907578 0
-2.5341833 0.10888502 -0.29932544 0
-3.2700636 0.25793549 -0.28858054 0
-3.1658142 0.24969798 -0.29032233 0
-3.0768094 0.24267654 -0.29181063 0
-2.9652598 0.24479038 -0.2936821 0
-2.8410368 0.25291011 -0.29550824 0
-2.71381 0.25321779 -0.29740494 0
-2.6248958 0.24492201 -0.29886144 0
-2.5544207 0.29377258 -0.2976422 0
-2.4207983 0.27840528 -0.29919541 0
-3.2571292 0.35097849 -0.28891277 0
-3.1455336 0.33889437 -0.29047728 0
-3.0569019 0.35155508 -0.29184562 0
-2.9620967 0.36222178 -0.2932106 0
-2.8732362 0.35135847 -0.29441959 0
-2.757246 0.34370482 -0.29628119 0
-2.6517713 0.3530643 -0.29785788 0
-3.2503572 0.44469798 -0.28901821 0
-3.1398134 0.45249259 -0.29092768 0
-3.0482025 0.46158257 -0.29238278 0
-2.9597769 0.44819242 -0.29371077 0
-2.8694246 0.45555687 -0.29504946 0
-2.7811325 0.44154045 -0.29641366 0
-2.6468682 0.43965504 -0.29859656 0
-2.5821979 0.48607883 -0.29822096 0
-2.4942122 0.46951622 -0.29942852 0
-3.2399688 0.5381459 -0.28941393 0
-3.1198783 0.56416363 -0.29086822 0
-3.031873 0.54824787 -0.29219031 0
-2.941781 0.55376703 -0.29390275 0
-2.8480024 0.5572899 -0.29525766 0
-2.7601311 0.5400967 -0.29647827 0
-2.6708319 0.54252005 -0.29788291 0
-2.5756757 0.56157368 -0.29914939 0
-2.4727101 0.5763672 -0.29948923 0
-3.2332113 0.64058906 -0.29011557 0
-3.1520476 0.65183955 -0.29086816 0
-3.0214009 0.63620692 -0.29312068 0
-2.9446325 0.67167777 -0.29303673 0
-2.8277085 0.659091 -0.29502246 0
-2.7406061 0.63878798 -0.29634157 0
-2.6398084 0.65528065 -0.29730347 0
-2.5494905 0.65223634 -0.29870385 0
-2.453563 0.64647114 -0.29941767 0
-3.2180729 0.75009423 -0.28911126 0
-3.1680937 0.76242775 -0.28958815 0
-3.0811229 0.74149823 -0.29088438 0
-2.9574621 0.7492547 -0.29302135 0
-2.8435512 0.74922621 -0.29438171 0
-2.7389572 0.74985385 -0.2959156 0
-2.6408806 0.7637679 -0.29727891 0
-2.5198965 0.741633 -0.29834148 0
-2.4259853 0.73293042 -0.29912436 0
-2.3313656 0.72261888 -0.29969057 0
-3.2025208 0.84380847 -0.28974628 0
-3.1588402 0.8647179 -0.29020002 0
-3.0504529 0.85062045 -0.29191247 0
-2.9594002 0.84807849 -0.29318649 0
-2.8638661 0.84287763 -0.29395753 0
-2.7694163 0.83668947 -0.29496011 0
-2.6776729 0.85108656 -0.29628795 0
-2.5686998 0.8367191 -0.29819995 0
-2.4869838 0.86951911 -0.29926026 0
-3.1432493 0.94962001 -0.29042786 0
-3.0191302 0.9596051 -0.29157585 0
-2.9285526 0.95394689 -0.29300258 0
-2.8424907 0.94837177 -0.29462105 0
-2.7494462 0.93923116 -0.29591227 0
-2.6516488 0.94847935 -0.29718807 0
-2.5583422 0.95667261 -0.29884231 0
-2.4746566 0.92529893 -0.29994082 0
-3.1335602 1.0373002 -0.29040182 0
-3.0539305 1.0597264 -0.29177773 0
-2.9444304 1.0531704 -0.29339868 0
-2.831135 1.0586503 -0.29492494 0
-2.7226868 1.0403392 -0.29670012 0
-2.6284986 1.0476756 -0.2982102 0
-2.5264435 1.0491041 -0.2989884 0
-2.4318833 1.0303407 -0.29981342 0
-2.3979719 1.0979531 -0.2996293 0
-3.1217742 1.1418476 -0.29082346 0
-3.0573528 1.1682116 -0.29174194 0
-2.9736862 1.1362435 -0.29298148 0
-2.8779213 1.1470895 -0.29425734 0
-2.7509947 1.1348252 -0.2955732 0
