# .PCD v0.7 - Point Cloud Data file format
VERSION 0.7
FIELDS x y z intensity
SIZE 4 4 4 4
TYPE F F F F
COUNT 1 1 1 1
WIDTH 1356
HEIGHT 1
VIEWPOINT 0 0 0 1 0 0 0
POINTS 1356
DATA ascii
-0.75658858 -1.347373 -0.32261342 0
-0.65771413 -1.3463509 -0.32245165 0
-0.5390864 -1.3338879 -0.32518953 0
-0.45329848 -1.3373429 -0.32326826 0
-0.34646651 -1.3474389 -0.32366464 0
-0.25057405 -1.3575511 -0.32323512 0
-0.15259708 -1.3700008 -0.32263997 0
-0.047763854 -1.3582147 -0.32401487 0
0.048456907 -1.3654799 -0.32277873 0
0.14672202 -1.357849 -0.3231096 0
0.24802712 -1.363086 -0.32460555 0
0.33997786 -1.3493704 -0.32433742 0
0.44277278 -1.3430299 -0.32525635 0
0.53185523 -1.3483729 -0.32688627 0
0.65612125 -1.3396333 -0.32534748 0
0.74694794 -1.3526068 -0.32568395 0
0.85675728 -1.3490196 -0.3271285 0
0.95960879 -1.359722 -0.32670867 0
1.0448149 -1.340699 -0.32815415 0
1.1488961 -1.3506247 -0.32623032 0
1.2515568 -1.3492553 -0.32667169 0
1.3535242 -1.3584545 -0.32654738 0
1.4560198 -1.3446176 -0.32616284 0
1.5516915 -1.3467767 -0.32660925 0
1.6725292 -1.3520541 -0.3271085 0
1.7552451 -1.3511581 -0.32751074 0
1.8486478 -1.3471372 -0.32803434 0
1.9413122 -1.3383212 -0.32774165 0
2.0474274 -1.3614163 -0.32758689 0
2.1451254 -1.3467569 -0.32798439 0
2.2346489 -1.3586745 -0.3273257 0
2.3108866 -1.3526878 -0.32878548 0
-3.4185736 -1.2227632 -0.31764236 0
-3.3601217 -1.2563832 -0.31769237 0
-3.2367904 -1.2102684 -0.31855851 0
-3.1239307 -1.2711245 -0.3203806 0
-3.039746 -1.2368698 -0.32093698 0
-2.9555614 -1.2026153 -0.32149336 0
-2.5550704 -1.2595549 -0.32065511 0
-2.4537563 -1.2535777 -0.32064918 0
-2.3440144 -1.2510736 -0.32040724 0
-2.2566855 -1.265618 -0.32083669 0
-2.1272936 -1.2451377 -0.32087749 0
-2.0257103 -1.2448218 -0.32126635 0
-1.9259858 -1.2413429 -0.32151905 0
-1.8360412 -1.2591392 -0.32159603 0
-1.7310891 -1.2615292 -0.3218644 0
-1.630151 -1.2461476 -0.32220066 0
-1.5560107 -1.2579056 -0.3211782 0
-1.4513109 -1.2472769 -0.32229328 0
-1.3517501 -1.2448354 -0.32190576 0
-1.2503127 -1.2475325 -0.32162827 0
-1.1352216 -1.2369822 -0.32238713 0
-1.0523795 -1.255159 -0.32214239 0
-0.94782567 -1.2529137 -0.32263717 0
-0.84218025 -1.2483985 -0.32251379 0
-0.7352829 -1.2526648 -0.32388046 0
-0.65735745 -1.2463125 -0.32416657 0
-0.56316161 -1.2533923 -0.3243494 0
-0.43921065 -1.2498378 -0.32402223 0
-0.35282707 -1.2549007 -0.32401663 0
-0.24267739 -1.2468071 -0.32527548 0
-0.14990111 -1.2635163 -0.32311472 0
-0.053570215 -1.241393 -0.32493675 0
0.04768699 -1.2548443 -0.32565528 0
0.14554937 -1.242496 -0.32526579 0
0.24547704 -1.2501935 -0.32604131 0
0.35691676 -1.2524675 -0.3255927 0
0.44467297 -1.2445723 -0.32643357 0
0.56206393 -1.2636175 -0.32591528 0
0.64931637 -1.251781 -0.32568893 0
0.74679798 -1.2307388 -0.32754502 0
0.85727984 -1.2406789 -0.32808861 0
0.9512735 -1.2389792 -0.32715395 0
1.0565124 -1.2702312 -0.3264325 0
1.1428379 -1.2347356 -0.32720602 0
1.2522304 -1.2388182 -0.32697049 0
1.342989 -1.2546895 -0.32625327 0
1.4479872 -1.2406486 -0.32683563 0
1.5611659 -1.2619529 -0.32734904 0
1.6424133 -1.2516202 -0.32802486 0
1.762311 -1.2460272 -0.32819125 0
1.8695805 -1.243147 -0.32821351 0
1.9700227 -1.2498105 -0.3280682 0
2.0715017 -1.2526479 -0.32852602 0
2.1740789 -1.2517923 -0.32877412 0
2.2641976 -1.2607981 -0.32882214 0
2.3603005 -1.2704043 -0.32953891 0
2.4003613 -1.2047091 -0.32976371 0
-3.4400806 -1.1751997 -0.31804517 0
-3.349782 -1.1711977 -0.31838024 0
-3.2640278 -1.1412156 -0.31896034 0
-3.1616879 -1.1564523 -0.31929371 0
-3.0763984 -1.1252556 -0.31990218 0
-2.9815774 -1.1148417 -0.32035083 0
-2.8713768 -1.1683606 -0.32204971 0
-2.7871921 -1.1341059 -0.32260609 0
-2.432802 -1.1992812 -0.32138693 0
-2.348104 -1.1658623 -0.32191098 0
-2.2786639 -1.1641482 -0.32167596 0
-2.1689551 -1.147547 -0.32203776 0
-2.0628765 -1.1424209 -0.32227293 0
-1.9633298 -1.1491748 -0.32206485 0
-1.8704338 -1.1679879 -0.32166949 0
-1.754076 -1.1425467 -0.32240787 0
-1.6554723 -1.1575385 -0.32229429 0
-1.5424026 -1.1444457 -0.32323828 0
-1.4335673 -1.1420559 -0.32162446 0
-1.3515594 -1.1482484 -0.32272908 0
-1.2444896 -1.1380143 -0.3229408 0
-1.1603224 -1.1549394 -0.3224203 0
-1.0518336 -1.1504421 -0.32285097 0
-0.950966 -1.1508614 -0.32341227 0
-0.84150028 -1.1413966 -0.32437941 0
-0.74921542 -1.1694857 -0.3244819 0
-0.64145738 -1.1553104 -0.32428974 0
-0.54633456 -1.1478767 -0.32530659 0
-0.45352083 -1.1498185 -0.32423848 0
-0.34701571 -1.163497 -0.32542554 0
-0.25428349 -1.1867106 -0.32526201 0
-0.15076204 -1.1973184 -0.32341954 0
0.055850614 -1.1990752 -0.32177091 0
0.17633402 -1.1927773 -0.32310992 0
0.26344103 -1.1877146 -0.32604772 0
0.35690835 -1.1664699 -0.3269555 0
0.45804259 -1.1339446 -0.32543325 0
0.53965259 -1.1459278 -0.32609308 0
0.64535481 -1.1496102 -0.32650942 0
0.76141846 -1.1646273 -0.32919127 0
0.84781909 -1.1387653 -0.32800964 0
0.94096011 -1.1556282 -0.32729688 0
1.049234 -1.1498092 -0.32777983 0
1.1675166 -1.155023 -0.32741255 0
1.2326024 -1.1333517 -0.32642046 0
1.3373353 -1.1458145 -0.32689646 0
1.447153 -1.1359371 -0.32884189 0
1.5542418 -1.149822 -0.32886842 0
1.6488816 -1.1482255 -0.32854623 0
1.7271183 -1.1484187 -0.32854339 0
1.8364178 -1.1466279 -0.32914603 0
1.9342923 -1.1508843 -0.32895708 0
2.0335317 -1.1515716 -0.32926765 0
2.1344805 -1.1488706 -0.32936022 0
2.2404308 -1.1444643 -0.3300842 0
2.3365483 -1.1517465 -0.33011016 0
2.4468751 -1.1330041 -0.33119148 0
-3.5006046 -1.0303537 -0.31925356 0
-3.4169192 -1.005722 -0.31982356 0
-3.1848907 -1.0880219 -0.31964943 0
-3.0374737 -1.053727 -0.32053044 0
-2.9151325 -1.0426912 -0.32129014 0
-2.8458555 -1.0487877 -0.32146788 0
-2.7146862 -1.0596333 -0.32265282 0
-2.6188231 -1.0655967 -0.32371885 0
-2.5346384 -1.031342 -0.3242752 0
-2.4124851 -1.022122 -0.32170483 0
-2.3448615 -1.0654464 -0.32120305 0
-2.2308047 -1.0603617 -0.32230929 0
-2.140135 -1.0549742 -0.32280257 0
-2.0514886 -1.0480946 -0.32308316 0
-1.9515364 -1.0504174 -0.32316643 0
-1.8532808 -1.0493091 -0.32339129 0
-1.7464728 -1.0372097 -0.3228541 0
-1.6488361 -1.0461035 -0.32266167 0
-1.5515909 -1.0425572 -0.32245603 0
-1.4628538 -1.050161 -0.32389128 0
-1.3453045 -1.0319344 -0.32298526 0
-1.2630875 -1.0572501 -0.32276788 0
-1.1520572 -1.0457337 -0.32414666 0
-1.039862 -1.0322068 -0.32537901 0
-0.93825364 -1.0460161 -0.32418871 0
-0.85322839 -1.063248 -0.32327133 0
-0.75151169 -1.0548375 -0.32471526 0
-0.65090352 -1.0507289 -0.32455945 0
-0.55502963 -1.0768243 -0.32470345 0
0.56525922 -1.0777495 -0.32613236 0
0.65503001 -1.0406896 -0.3274596 0
0.75219786 -1.0559107 -0.32764944 0
0.85451996 -1.0583961 -0.32730836 0
0.95247644 -1.0486902 -0.32839674 0
1.0451673 -1.0452604 -0.32850081 0
1.1501487 -1.0441606 -0.32734728 0
1.267252 -1.0609665 -0.32802504 0
1.3380723 -1.0333084 -0.32966954 0
1.4335107 -1.0446818 -0.32925144 0
1.5394491 -1.0524018 -0.3285889 0
1.645961 -1.0442772 -0.3288624 0
1.7682935 -1.0520908 -0.32943365 0
1.8501447 -1.0391084 -0.32923552 0
1.9450487 -1.0472624 -0.32951179 0
2.0487223 -1.0466336 -0.33007669 0
2.1636336 -1.0602889 -0.3309271 0
2.241205 -1.0327638 -0.33156028 0
2.360739 -1.0469239 -0.33190796 0
2.4656138 -1.0447472 -0.33174798 0
2.5148461 -1.0023649 -0.33240762 0
-3.3297429 -0.98006296 -0.32041731 0
-3.2425668 -0.95440388 -0.3210111 0
-3.1553907 -0.92874479 -0.32160485 0
-3.0682144 -0.90308571 -0.3221986 0
-2.9268894 -0.99988341 -0.32127139 0
-2.8408887 -0.97050393 -0.32181203 0
-2.7495024 -0.96132314 -0.32244098 0
-2.6562634 -0.95009613 -0.32292759 0
-2.5646615 -0.93807489 -0.3235532 0
-2.4608028 -0.96053791 -0.32438353 0
-2.3527114 -0.99679708 -0.32193202 0
-2.2645617 -0.9786002 -0.32164925 0
-2.1780555 -0.95975536 -0.32185152 0
-2.0540357 -0.94747865 -0.32253069 0
-1.9438022 -0.94688702 -0.32398486 0
-1.8340448 -0.9370079 -0.32425728 0
-1.7654076 -0.95584965 -0.32433352 0
-1.6412442 -0.94186193 -0.32414633 0
-1.5518684 -0.95369792 -0.32313132 0
-1.4388455 -0.93717045 -0.32349911 0
-1.3530315 -0.95181316 -0.32406732 0
-1.2414533 -0.96015435 -0.3246049 0
-1.1411356 -0.94992 -0.32533476 0
-1.0468507 -0.9457233 -0.32681933 0
-0.94604522 -0.94637233 -0.32630646 0
-0.84326243 -0.94629657 -0.32568991 0
-0.75582588 -0.95591033 -0.32440025 0
-0.68738902 -0.99464822 -0.32397473 0
0.75078404 -0.9635244 -0.32743266 0
0.84543067 -0.94720459 -0.32835406 0
0.94511521 -0.94860476 -0.32818121 0
1.0482496 -0.9500711 -0.32851925 0
1.145704 -0.93522877 -0.33023924 0
1.2605644 -0.94658631 -0.32996133 0
1.370245 -0.95423454 -0.32879174 0
1.4486206 -0.94010228 -0.32908392 0
1.5527797 -0.94820946 -0.32918149 0
1.6681617 -0.94775712 -0.32955199 0
1.7740145 -0.94394058 -0.32962468 0
1.8524443 -0.94806218 -0.33065996 0
1.9615358 -0.94954139 -0.33142677 0
2.0565898 -0.95948839 -0.33194566 0
2.1542094 -0.94922829 -0.33189178 0
2.2540295 -0.93594199 -0.33203793 0
2.3390818 -0.95173466 -0.33180195 0
2.4326372 -0.94950461 -0.33177978 0
2.5217757 -0.95528305 -0.33149794 0
-2.9810383 -0.87742662 -0.32279238 0
-2.8502741 -0.838938 -0.32368302 0
-2.7195098 -0.80044943 -0.32457367 0
-2.5425084 -0.84867167 -0.3232711 0
-2.468775 -0.86317199 -0.32422268 0
-2.341186 -0.81856114 -0.32444769 0
-2.2561181 -0.8069734 -0.32479581 0
-2.1173339 -0.89707226 -0.32282665 0
-2.0300591 -0.87726194 -0.32264012 0
-1.9442102 -0.8567071 -0.32273749 0
-1.8460418 -0.85062861 -0.32315972 0
-1.7535728 -0.84890437 -0.32452303 0
-1.6517956 -0.84996778 -0.32430026 0
-1.5423554 -0.85592777 -0.32446522 0
-1.4344171 -0.84968793 -0.32427433 0
-1.3501062 -0.85088283 -0.3240034 0
-1.2459227 -0.85452473 -0.32514894 0
-1.1375266 -0.8521741 -0.32711112 0
-1.054836 -0.85701418 -0.32660061 0
-0.95210743 -0.85193157 -0.32741639 0
-0.86787504 -0.85841888 -0.3271805 0
0.86834794 -0.85922754 -0.32739252 0
0.95114762 -0.84705806 -0.3293848 0
1.0532024 -0.83911157 -0.32997763 0
1.152212 -0.83965689 -0.33030444 0
1.2380298 -0.84899634 -0.32966429 0
1.3487266 -0.85162532 -0.32915947 0
1.4600226 -0.84063506 -0.32945982 0
1.5595876 -0.85383552 -0.33006424 0
1.6479254 -0.85669643 -0.33028951 0
1.7481234 -0.84625208 -0.33141136 0
1.8631114 -0.86010849 -0.33162066 0
1.942688 -0.83964676 -0.33231983 0
2.0425618 -0.84856987 -0.33222318 0
2.1432385 -0.84704792 -0.33220801 0
2.2570488 -0.83794373 -0.33140141 0
2.3654196 -0.82699323 -0.33243671 0
2.4659741 -0.86214143 -0.33237356 0
2.5667913 -0.85639668 -0.33290184 0
-2.6323335 -0.77479035 -0.32516745 0
-2.538554 -0.74718076 -0.32493234 0
-2.4536972 -0.76052094 -0.32443884 0
-2.3721473 -0.73524648 -0.32465816 0
-2.2583694 -0.73561567 -0.3244893 0
-2.1543205 -0.74760741 -0.32471123 0
-2.0549541 -0.73502052 -0.32515025 0
-1.8819562 -0.79734743 -0.32372126 0
-1.7416351 -0.79743785 -0.32397887 0
-1.6616235 -0.77520365 -0.32475895 0
-1.5482317 -0.73611361 -0.3254275 0
-1.4670957 -0.76275754 -0.32420287 0
-1.3655285 -0.74764639 -0.32531932 0
-1.2405734 -0.7333709 -0.32617119 0
-1.1538547 -0.76371706 -0.32601288 0
-1.041779 -0.75919491 -0.32603937 0
-0.95917451 -0.75311583 -0.32694149 0
0.96534204 -0.75795716 -0.32893381 0
1.0466951 -0.73996383 -0.33025759 0
1.1595329 -0.75029105 -0.33008036 0
1.2375926 -0.73832923 -0.33137494 0
1.3514031 -0.75229955 -0.33128509 0
1.4543151 -0.74051428 -0.33006743 0
1.5352196 -0.74335319 -0.3309198 0
1.6320975 -0.75017989 -0.33092582 0
1.7412494 -0.74645925 -0.3316305 0
1.8662477 -0.74381232 -0.33261222 0
1.9570433 -0.74779278 -0.33184466 0
2.0485172 -0.74925607 -0.33188415 0
2.1415637 -0.74872094 -0.33221051 0
2.2356913 -0.74593306 -0.33265319 0
2.3304729 -0.74060827 -0.33281305 0
2.443594 -0.76390654 -0.33281913 0
2.5510125 -0.75088769 -0.33230019 0
2.6125133 -0.72174901 -0.33295515 0
-2.5564566 -0.65410644 -0.32401308 0
-2.4633369 -0.65832531 -0.32446259 0
-2.33391 -0.64166152 -0.32532355 0
-2.2321959 -0.63968337 -0.32624841 0
-2.146873 -0.65201676 -0.32523301 0
-2.0400543 -0.64833212 -0.32535449 0
-1.9471698 -0.64971554 -0.3251577 0
-1.4404483 -0.67202437 -0.32557911 0
-1.3400692 -0.66066802 -0.32534882 0
-1.2497283 -0.6384787 -0.32540825 0
-1.1464818 -0.64435744 -0.32663193 0
-1.0530921 -0.65251535 -0.32754445 0
-0.99863517 -0.68485647 -0.32446158 0
1.053302 -0.6472016 -0.33138746 0
1.1419045 -0.6627208 -0.33165964 0
1.2557317 -0.65122473 -0.33029392 0
1.3359438 -0.63802874 -0.33163735 0
1.4415469 -0.64752978 -0.33103091 0
1.5555453 -0.65101427 -0.33167562 0
1.6443743 -0.63739306 -0.33253124 0
1.7541219 -0.65586215 -0.33275482 0
1.8342024 -0.65611529 -0.33213335 0
1.9566432 -0.66667295 -0.33234251 0
2.0383484 -0.63185245 -0.33297154 0
2.1568367 -0.65164959 -0.33296451 0
2.270746 -0.65072501 -0.33305502 0
2.3642251 -0.64096743 -0.33344808 0
2.4471152 -0.66344273 -0.33341363 0
2.5414321 -0.65024412 -0.33415806 0
2.6372247 -0.65465343 -0.33468294 0
-2.5394058 -0.55367607 -0.32332915 0
-2.4141893 -0.56275219 -0.32335261 0
-2.3312318 -0.54341525 -0.3237192 0
-2.2410514 -0.55626512 -0.32447913 0
-2.1582329 -0.53570402 -0.32471755 0
-2.0711114 -0.54577416 -0.32548881 0
-1.970021 -0.54076368 -0.32618901 0
-1.8476733 -0.51521939 -0.32713714 0
-1.236753 -0.58750886 -0.32520086 0
-1.1386849 -0.55646271 -0.32611769 0
-1.0790448 -0.56097949 -0.32590923 0
1.0853071 -0.57419431 -0.32900661 0
1.1434213 -0.55370504 -0.33144891 0
1.2419411 -0.54722667 -0.33224919 0
1.3413777 -0.54647017 -0.33264288 0
1.4514078 -0.55056781 -0.33328274 0
1.5552703 -0.5478155 -0.33269283 0
1.6325394 -0.55774438 -0.33229813 0
1.7501389 -0.55082053 -0.33224374 0
1.8566151 -0.54368579 -0.33289987 0
1.9577835 -0.54584122 -0.33353847 0
2.0322149 -0.55095661 -0.33367246 0
2.1248398 -0.54367417 -0.33384645 0
2.2520497 -0.55878347 -0.33383644 0
2.379642 -0.55467278 -0.33369541 0
2.4545033 -0.54457748 -0.33461255 0
2.5693579 -0.54091889 -0.33521488 0
2.6635263 -0.5607667 -0.33544254 0
-2.6141272 -0.43421406 -0.32538003 0
-2.5513201 -0.45213139 -0.3247788 0
-2.4455988 -0.46034005 -0.32517067 0
-2.3617394 -0.44455445 -0.32545504 0
-2.2664554 -0.46024418 -0.32481524 0
-2.1623549 -0.43912062 -0.32530588 0
-2.0270319 -0.44591779 -0.32527605 0
-1.962814 -0.4695982 -0.32530615 0
-1.8655688 -0.44902921 -0.32575411 0
-1.759509 -0.45019904 -0.32688501 0
-1.6375825 -0.43162435 -0.3280353 0
-1.537426 -0.40508497 -0.33135766 0
1.1534127 -0.45017305 -0.33186018 0
1.2500505 -0.4569141 -0.3321377 0
1.3646854 -0.44617376 -0.33316705 0
1.4518903 -0.46527848 -0.33228353 0
1.5505084 -0.45638216 -0.33313218 0
1.6462202 -0.44426295 -0.33311269 0
1.7475376 -0.46318966 -0.33309716 0
1.8483963 -0.43920073 -0.33248883 0
1.9418902 -0.45266473 -0.33355063 0
2.052073 -0.44318935 -0.33373013 0
2.1477575 -0.45214152 -0.33420408 0
2.2348485 -0.45383584 -0.33433563 0
2.3261364 -0.45515028 -0.3349627 0
2.4386013 -0.44099739 -0.33519876 0
2.5485282 -0.45129991 -0.33573216 0
2.6823719 -0.4553782 -0.33525261 0
2.7026219 -0.44889516 -0.336386 0
-2.6283519 -0.36600766 -0.32592809 0
-2.5477414 -0.34855163 -0.32579541 0
-2.4619215 -0.35480472 -0.32576227 0
-2.3772562 -0.34260371 -0.32585773 0
-2.2459507 -0.35659158 -0.32608387 0
-2.117655 -0.35179299 -0.32631671 0
-2.0333891 -0.35272026 -0.32688844 0
-1.9497108 -0.34411374 -0.32666436 0
-1.8601139 -0.34345376 -0.3260105 0
-1.7494023 -0.36266223 -0.32544258 0
-1.6285936 -0.34293786 -0.32553735 0
-1.5463319 -0.35597914 -0.32777295 0
-1.4657571 -0.34170514 -0.32982302 0
-1.3748294 -0.33532462 -0.3306205 0
-1.2505473 -0.31996965 -0.3289322 0
-1.1848286 -0.31218171 -0.32830846 0
1.1812892 -0.37542081 -0.33214799 0
1.244013 -0.34375393 -0.33411199 0
1.3604828 -0.36531907 -0.33387926 0
1.4346623 -0.34363115 -0.33429641 0
1.5528805 -0.35032564 -0.33339009 0
1.6529992 -0.35293478 -0.33217373 0
1.7426904 -0.34113249 -0.33494496 0
1.8485839 -0.34793651 -0.33467397 0
1.9426837 -0.3586055 -0.33450943 0
2.0585659 -0.34574446 -0.33500236 0
2.1437354 -0.34368631 -0.33572993 0
2.2577808 -0.34199142 -0.3346684 0
2.3429024 -0.35487959 -0.33478883 0
2.4279673 -0.34999943 -0.33442304 0
2.5367558 -0.3470645 -0.33492044 0
2.6336725 -0.36032367 -0.33531937 0
2.7087898 -0.3442935 -0.33585802 0
-2.2561216 -0.2922405 -0.32606643 0
-2.1289706 -0.27577037 -0.32631123 0
-2.0387769 -0.27891111 -0.32592601 0
-1.8235556 -0.28949642 -0.3276419 0
-1.7374325 -0.28854096 -0.32692325 0
-1.6463581 -0.27944809 -0.32645684 0
-1.5496268 -0.28028324 -0.32751161 0
-1.4239386 -0.26799375 -0.33137399 0
-1.3381637 -0.26182753 -0.33039838 0
-1.2412856 -0.24809617 -0.3295497 0
-1.1871488 -0.2856794 -0.32718417 0
1.2478178 -0.24912372 -0.3329922 0
1.3569362 -0.24542837 -0.33393115 0
1.4327488 -0.2563135 -0.3340905 0
1.5469757 -0.24082367 -0.33499107 0
1.6727701 -0.25880873 -0.33474725 0
1.7440087 -0.23889516 -0.33448943 0
1.8634869 -0.24136919 -0.3345685 0
1.9426349 -0.25161955 -0.33471942 0
2.0437019 -0.26192516 -0.33329982 0
2.1391006 -0.24594125 -0.33574262 0
2.2808115 -0.24577828 -0.33628282 0
2.3664465 -0.255005 -0.33638644 0
2.4520812 -0.26423171 -0.33649015 0
2.5414543 -0.23712288 -0.33684182 0
2.6272757 -0.24512939 -0.33700243 0
2.7236788 -0.2541087 -0.33718419 0
1.2433503 -0.15199843 -0.33570319 0
1.3400416 -0.14962913 -0.33578146 0
1.4477009 -0.15447304 -0.33663815 0
1.5539917 -0.16113748 -0.33585578 0
1.6469331 -0.13408893 -0.33510867 0
1.7401935 -0.14979078 -0.33448914 0
1.8747441 -0.14786862 -0.33517289 0
1.954605 -0.15416735 -0.33554721 0
2.0365293 -0.14595282 -0.33542728 0
2.120379 -0.15052174 -0.33562914 0
2.2535534 -0.15171811 -0.33619505 0
2.3720047 -0.15305227 -0.33618161 0
2.4580731 -0.1586016 -0.33640495 0
2.5439379 -0.14586726 -0.3364749 0
2.6300578 -0.15080068 -0.33671433 0
2.728457 -0.15638432 -0.33701688 0
1.2469585 -0.053464819 -0.33452782 0
1.3499529 -0.048287909 -0.33546695 0
1.4527938 -0.055243008 -0.3360315 0
1.5539535 -0.047067035 -0.33584121 0
1.6595852 -0.054448288 -0.33614364 0
1.7282811 -0.049539238 -0.33612427 0
1.8480204 -0.052954894 -0.33630374 0
1.9677594 -0.056370541 -0.33648321 0
2.0492074 -0.044059176 -0.33748898 0
2.1312537 -0.041409694 -0.33794352 0
2.2186854 -0.047626093 -0.33786806 0
2.3477547 -0.050396409 -0.3378543 0
2.4768245 -0.053166717 -0.33784056 0
2.5628707 -0.055013597 -0.33783141 0
2.6489172 -0.056860473 -0.33782223 0
2.7427111 -0.058857869 -0.33781362 0
1.2533699 0.053856701 -0.33624986 0
1.3525243 0.048338301 -0.33616537 0
1.4552535 0.055033647 -0.33658123 0
1.5309412 0.054754175 -0.33708701 0
1.6424594 0.046979368 -0.33774 0
1.7391615 0.049702711 -0.33823952 0
1.843388 0.061760232 -0.33800301 0
1.9535885 0.046797108 -0.33812705 0
2.0602298 0.044203956 -0.33784828 0
2.1320136 0.050208438 -0.3378931 0
2.238111 0.039881952 -0.33783442 0
2.3570623 0.057276227 -0.33852136 0
2.4768822 0.053252235 -0.33873382 0
2.563226 0.055105627 -0.33899271 0
2.6495695 0.056959022 -0.33925161 0
2.7504561 0.059111059 -0.33955541 0
1.2448812 0.15227358 -0.33611956 0
1.344924 0.1500753 -0.33703053 0
1.4518436 0.15634142 -0.33757517 0
1.5515276 0.16361554 -0.33726558 0
1.6461084 0.13676579 -0.33757776 0
1.7352452 0.15360016 -0.33702353 0
1.8435345 0.14538464 -0.33817685 0
1.9546404 0.15416266 -0.33877212 0
2.0521047 0.1471145 -0.33868811 0
2.1332366 0.1515317 -0.3390303 0
2.2212327 0.14325829 -0.339021 0
2.3402448 0.1509354 -0.33901259 0
2.4597757 0.15864541 -0.33956721 0
2.5683756 0.1472394 -0.33947426 0
2.6544204 0.15217078 -0.33952633 0
2.7508068 0.15769303 -0.33958477 0
-2.246207 0.29095626 -0.33111492 0
-2.1613576 0.27996549 -0.33137432 0
-2.076508 0.26897475 -0.33163372 0
-1.8483245 0.29342863 -0.33229873 0
-1.7702079 0.28102729 -0.33266318 0
-1.6718018 0.28377154 -0.331604 0
-1.5682825 0.28361785 -0.33277667 0
-1.434365 0.26799017 -0.33418277 0
-1.3482844 0.26389867 -0.33331731 0
-1.2489673 0.25381947 -0.33281273 0
-1.198573 0.29752529 -0.33090302 0
1.2453407 0.25049457 -0.33608082 0
1.3460667 0.2507056 -0.33778465 0
1.4402142 0.24984716 -0.33773658 0
1.5462801 0.25170395 -0.3379187 0
1.6607345 0.25150725 -0.33817062 0
1.7307428 0.2451521 -0.33816269 0
1.8463469 0.25615987 -0.33852974 0
1.9585248 0.25379997 -0.33872765 0
2.0377338 0.24920385 -0.33898509 0
2.125231 0.25984263 -0.33969632 0
2.2178349 0.23900723 -0.33979523 0
2.3465288 0.25287279 -0.33999848 0
2.4769421 0.24900758 -0.34044379 0
2.5618536 0.23907147 -0.34028998 0
2.647862 0.24709594 -0.34052077 0
2.7487659 0.25650731 -0.34079179 0
-2.6647348 0.36460084 -0.33024472 0
-2.5459428 0.34836259 -0.33070469 0
-2.4329321 0.35972375 -0.33110875 0
-2.3294051 0.33568987 -0.33138755 0
-2.2390013 0.35538495 -0.33171389 0
-2.1543207 0.34193897 -0.33181906 0
-2.058367 0.34574994 -0.33187646 0
-1.9392878 0.35069188 -0.33162251 0
-1.8318141 0.35849488 -0.33158547 0
-1.7540963 0.34329623 -0.33183244 0
-1.6580573 0.34915531 -0.33241543 0
-1.5530267 0.35033575 -0.33343154 0
-1.438754 0.3353692 -0.3340154 0
-1.3707672 0.35351312 -0.33306658 0
-1.264261 0.32346782 -0.33224213 0
-1.1992564 0.31598318 -0.33230633 0
1.1977699 0.36195853 -0.33530957 0
1.2489223 0.34410772 -0.3374289 0
1.3397065 0.34277418 -0.33881652 0
1.4385252 0.34765109 -0.33917391 0
1.5617104 0.33826306 -0.33932495 0
1.6490669 0.35955638 -0.34024936 0
1.7385492 0.35303804 -0.34097728 0
1.8767846 0.35331678 -0.33961591 0
1.9563659 0.35379377 -0.33917215 0
2.035995 0.35318875 -0.33921337 0
2.1328812 0.35440248 -0.33963764 0
2.257185 0.33530769 -0.33976805 0
2.3736963 0.35938755 -0.33973083 0
2.4680517 0.33769336 -0.33991346 0
2.5533826 0.3493692 -0.3398914 0
2.6387138 0.361045 -0.33986935 0
2.7294452 0.35350835 -0.33868149 0
-2.6585984 0.45336342 -0.33173043 0
-2.5709021 0.44599783 -0.33186015 0
-2.4570546 0.45028618 -0.33239421 0
-2.3533459 0.434441 -0.33183917 0
-2.2462611 0.46299154 -0.33105806 0
-2.1316128 0.44884205 -0.33159173 0
-2.0419195 0.44531214 -0.33103195 0
-1.9654516 0.44050223 -0.33160681 0
-1.854651 0.46039915 -0.33317652 0
-1.7371672 0.44449568 -0.33324733 0
-1.6470803 0.43089825 -0.33341038 0
-1.552083 0.42493495 -0.33300102 0
-1.4539552 0.40543199 -0.33214492 0
1.1753091 0.4586395 -0.33815217 0
1.2460859 0.44156933 -0.33925316 0
1.368758 0.44831485 -0.33992803 0
1.4373287 0.44777337 -0.34089667 0
1.5488135 0.43997419 -0.34063458 0
1.6707487 0.44854864 -0.34002605 0
1.7788293 0.44152775 -0.34074089 0
1.8585272 0.44717875 -0.34029153 0
1.9395914 0.4520396 -0.33995533 0
2.0680792 0.44558281 -0.33885035 0
2.1762166 0.45827448 -0.33913103 0
2.2695944 0.44400969 -0.3398858 0
2.354681 0.46065938 -0.34040785 0
2.4446218 0.44209549 -0.340487 0
2.5298719 0.45751277 -0.34095681 0
2.6203423 0.45457977 -0.34132549 0
2.7298803 0.4534204 -0.34194005 0
-2.6418061 0.54436463 -0.33197504 0
-2.5464599 0.55532736 -0.33226207 0
-2.4623699 0.53699148 -0.33205709 0
-2.3753481 0.55378526 -0.33230177 0
-2.2448108 0.55030501 -0.33338761 0
-2.1230862 0.55943894 -0.33398786 0
-2.0367658 0.54444605 -0.33402035 0
-1.9632818 0.53237557 -0.33439845 0
-1.8483723 0.5154143 -0.3344208 0
-1.2533264 0.59570068 -0.3359552 0
-1.1424856 0.56634372 -0.33571598 0
-1.0872902 0.59531641 -0.33214858 0
1.1484467 0.56611687 -0.33875859 0
1.2528051 0.54606456 -0.3388651 0
1.3611289 0.54104799 -0.33978489 0
1.4530983 0.55927724 -0.34021798 0
1.5412508 0.55381483 -0.34111866 0
1.6547822 0.54250544 -0.34156862 0
1.7522767 0.54323655 -0.34120637 0
1.8340838 0.53981233 -0.34100974 0
1.9436204 0.56314468 -0.34113389 0
2.0710604 0.54576051 -0.34135693 0
2.1698351 0.55522275 -0.34128675 0
2.2545614 0.54257947 -0.34062681 0
2.3387244 0.56283194 -0.34099817 0
2.4272907 0.54753327 -0.34114075 0
2.5420644 0.56080759 -0.34217072 0
2.6449363 0.53719842 -0.34228736 0
2.737452 0.55599976 -0.34298801 0
-2.6320953 0.64537871 -0.33323225 0
-2.5414109 0.65023994 -0.33305806 0
-2.4546325 0.64679188 -0.33318618 0
-2.3607233 0.65820462 -0.33313471 0
-2.2781532 0.63517946 -0.33332056 0
-2.1636848 0.65331072 -0.33407685 0
-2.0555224 0.63689268 -0.33405846 0
-1.9950479 0.68154788 -0.33391371 0
-1.54469 0.69370461 -0.33410364 0
-1.4463112 0.67481935 -0.3345513 0
-1.3287255 0.64915973 -0.3359144 0
-1.2510947 0.65931928 -0.3362309 0
-1.1539103 0.64263898 -0.33626637 0
-1.0697855 0.65726924 -0.33652762 0
1.0793986 0.6740315 -0.34102583 0
1.1484908 0.65040678 -0.34038422 0
1.2599139 0.6639545 -0.33918148 0
1.3312296 0.64588803 -0.34006417 0
1.4433595 0.64842957 -0.34015104 0
1.5525646 0.64472324 -0.34086251 0
1.6315793 0.65037364 -0.34149241 0
1.7429905 0.65172535 -0.34123519 0
1.8581741 0.63779414 -0.34150413 0
1.9543052 0.65204978 -0.3419126 0
2.0549018 0.65314168 -0.34168169 0
2.1465719 0.64852935 -0.34171799 0
2.2405052 0.64198685 -0.3422122 0
2.323617 0.66580611 -0.34242973 0
2.4163265 0.65523618 -0.34248793 0
2.5380113 0.64150649 -0.34200412 0
2.6753767 0.64384174 -0.34248376 0
2.71313 0.65287375 -0.34266266 0
-2.6089797 0.72750789 -0.33256307 0
-2.5450294 0.74908721 -0.33265156 0
-2.4250405 0.75178045 -0.3339738 0
-2.335995 0.76086789 -0.33474055 0
-2.2487459 0.75028956 -0.33460504 0
-2.1553802 0.75348091 -0.33452138 0
-2.065542 0.73877573 -0.33394161 0
-1.9726427 0.75376511 -0.33451042 0
-1.7417765 0.77731866 -0.33557305 0
-1.6375384 0.74978858 -0.33493266 0
-1.5442106 0.74763256 -0.33573878 0
-1.4450296 0.75142193 -0.33591929 0
-1.3454298 0.76179844 -0.33712867 0
-1.2461096 0.74539483 -0.33642957 0
-1.1482176 0.74600112 -0.33606002 0
-1.0504439 0.7476778 -0.33588076 0
-0.9888773 0.77623469 -0.33685964 0
0.98669088 0.78602207 -0.33802682 0
1.048136 0.74907744 -0.34017679 0
1.1545385 0.75582278 -0.34098998 0
1.2605726 0.75010824 -0.34137732 0
1.352151 0.75307769 -0.34068447 0
1.436048 0.74661195 -0.34061304 0
1.5621353 0.75148845 -0.34079549 0
1.6725826 0.75132132 -0.34130129 0
1.7651062 0.7477864 -0.34206909 0
1.850114 0.7528587 -0.3420673 0
1.9340384 0.75490779 -0.34233212 0
2.0188789 0.75491267 -0.34165487 0
2.1358364 0.74674547 -0.34192431 0
2.2522335 0.75172603 -0.3427074 0
2.3652334 0.75175798 -0.34265062 0
2.4776285 0.74855065 -0.34262815 0
2.5729523 0.73726434 -0.34308231 0
2.6630654 0.76310819 -0.3431817 0
2.7003479 0.73219222 -0.34353271 0
-2.6025906 0.80668646 -0.3345558 0
-2.5711968 0.84431219 -0.33493873 0
-2.45349 0.85141021 -0.33423623 0
-2.3599062 0.85693198 -0.33424744 0
-2.2523918 0.8606708 -0.33471709 0
-2.1417723 0.87152398 -0.33556563 0
-2.0393984 0.84698224 -0.33614111 0
-1.9415063 0.86502975 -0.33697382 0
-1.8561755 0.84988767 -0.33614922 0
-1.7469372 0.84576637 -0.3361809 0
-1.6458194 0.84107351 -0.33601072 0
-1.5374694 0.84187299 -0.33560401 0
-1.4675356 0.86538655 -0.33697578 0
-1.3591874 0.84867907 -0.33680487 0
-1.2413232 0.8304947 -0.33648956 0
-1.1667778 0.86143047 -0.33855695 0
-1.0445957 0.85688692 -0.3372938 0
-0.94509953 0.84836727 -0.33657965 0
0.94800323 0.84829682 -0.34096792 0
1.0449276 0.84467816 -0.34026775 0
1.1586461 0.859725 -0.34075129 0
1.2351238 0.8364948 -0.34191811 0
1.3434235 0.85231954 -0.34159258 0
1.4526092 0.84030259 -0.34177309 0
1.5410875 0.84384096 -0.34156764 0
1.6395041 0.86432266 -0.34196973 0
1.7519667 0.85454214 -0.34206834 0
1.8469187 0.84563458 -0.34248716 0
1.9719855 0.86187172 -0.34348032 0
2.0583363 0.84314346 -0.34346923 0
2.179137 0.83258158 -0.34287271 0
2.2601173 0.86352372 -0.34329054 0
2.350831 0.85993749 -0.34347427 0
2.4454284 0.85499048 -0.34399378 0
2.5381899 0.84680271 -0.34373716 0
2.6526744 0.85138446 -0.34364137 0
-2.5473077 0.95250887 -0.3347384 0
-2.4479859 0.95553714 -0.33507475 0
-2.3619201 0.96111566 -0.33565974 0
-2.2723336 0.96281743 -0.3362582 0
-2.1636746 0.95344836 -0.33684427 0
-2.0567999 0.95376992 -0.33635339 0
-1.936317 0.93738818 -0.33621109 0
-1.8544196 0.95703357 -0.33543941 0
-1.7335083 0.96205902 -0.33600882 0
-1.6388392 0.94365364 -0.33635452 0
-1.5457181 0.94989729 -0.33708507 0
-1.4416485 0.95600051 -0.33740041 0
-1.3526326 0.94800442 -0.33734041 0
-1.2520031 0.94585001 -0.33814797 0
-1.1349295 0.94260329 -0.33728763 0
-1.0607637 0.96289873 -0.33785972 0
-0.94904679 0.96145886 -0.33850691 0
-0.85429788 0.9377318 -0.33787128 0
-0.79047227 0.98498535 -0.33841455 0
0.79966396 0.99646056 -0.34234545 0
0.86045033 0.95457339 -0.34215841 0
0.95278758 0.94275689 -0.34339041 0
1.0594525 0.9515388 -0.34137768 0
1.1437894 0.9412396 -0.34171626 0
1.2528102 0.94369793 -0.34216765 0
1.3464793 0.95200723 -0.34232315 0
1.4600791 0.94498694 -0.34114569 0
1.5530529 0.93421388 -0.34232852 0
1.6719657 0.94680047 -0.34303045 0
1.7527047 0.9597019 -0.34264895 0
1.8498023 0.94502991 -0.34265104 0
1.938254 0.95549417 -0.34273037 0
2.0434158 0.95327765 -0.34380102 0
2.1427281 0.94418478 -0.3441405 0
2.2479155 0.9714309 -0.34461817 0
2.3270984 0.94696403 -0.3447597 0
2.4381013 0.95845491 -0.34419966 0
2.5359633 0.95525533 -0.34438482 0
2.6255493 0.93912888 -0.34546119 0
-2.5205088 1.0467298 -0.33584011 0
-2.4188564 1.0658938 -0.33651066 0
-2.3230824 1.0636191 -0.33645031 0
-2.2286899 1.059286 -0.33635083 0
-2.1356268 1.052802 -0.33620873 0
-2.0404856 1.0423604 -0.33578071 0
-1.9441786 1.0465252 -0.33614066 0
-1.8403449 1.0536416 -0.33601677 0
-1.763364 1.0491461 -0.33634081 0
-1.6556377 1.0472461 -0.33764309 0
-1.5519067 1.0479761 -0.33850536 0
-1.4643937 1.0672349 -0.33707631 0
-1.3655009 1.0448184 -0.33701694 0
-1.2470313 1.0487144 -0.33817059 0
-1.1417652 1.0515307 -0.33865681 0
-1.047462 1.0375006 -0.33958915 0
-0.96360886 1.0570959 -0.33747816 0
-0.85477769 1.0497664 -0.33892405 0
-0.75458837 1.0505048 -0.33860615 0
-0.66523612 1.0737613 -0.33852389 0
0.68021578 1.0806953 -0.34218004 0
0.75710285 1.0467973 -0.34189221 0
0.8577804 1.0534122 -0.34178767 0
0.96134108 1.0552747 -0.34187523 0
1.0493907 1.0402275 -0.34279361 0
1.1422817 1.0520301 -0.34222266 0
1.2387241 1.0439962 -0.34338197 0
1.3616134 1.058527 -0.34357402 0
1.4348037 1.0456245 -0.34366924 0
1.5339985 1.0487785 -0.34301868 0
1.6424816 1.0487957 -0.3426896 0
1.7465755 1.0561324 -0.34456918 0
1.8674788 1.0574812 -0.34356746 0
1.9466225 1.0477962 -0.34377465 0
2.0594473 1.046085 -0.34375164 0
2.1625936 1.0469167 -0.34419993 0
2.2672982 1.0776393 -0.34464931 0
2.3538756 1.0574626 -0.34497848 0
2.452611 1.0323104 -0.34602785 0
2.5582349 1.062348 -0.3460252 0
2.6151848 1.0424705 -0.34569895 0
-2.509326 1.1057745 -0.33669469 0
-2.4803302 1.1442668 -0.33633515 0
-2.37537 1.1499308 -0.33651367 0
-2.2704036 1.1598259 -0.33594933 0
-2.1786153 1.1526556 -0.33598635 0
-2.0548358 1.1442765 -0.33646867 0
-1.9648027 1.1690121 -0.33574802 0
-1.8507098 1.1370791 -0.33759272 0
-1.7717274 1.1625767 -0.33925465 0
-1.6531327 1.151139 -0.33855462 0
-1.555351 1.1506221 -0.33775347 0
-1.4395399 1.1522511 -0.33813381 0
-1.3363287 1.1333711 -0.33844838 0
-1.2622976 1.1550037 -0.33839729 0
-1.1489108 1.1529734 -0.33898452 0
-1.0453833 1.1434116 -0.33854124 0
-0.94609642 1.1327652 -0.34019014 0
-0.85837519 1.1639456 -0.3384693 0
-0.74078476 1.1584761 -0.33975825 0
-0.63641852 1.1527435 -0.33976322 0
-0.54811567 1.1424114 -0.33961809 0
-0.45796475 1.1856562 -0.34064025 0
0.44858393 1.1868591 -0.34004384 0
0.55187958 1.1506907 -0.34209368 0
0.6477648 1.1453635 -0.34268722 0
0.74731708 1.1503754 -0.34283367 0
0.86191314 1.1678908 -0.34287918 0
0.94558638 1.1421268 -0.34291634 0
1.0436581 1.1374197 -0.34383088 0
1.1597693 1.1473751 -0.34351611 0
1.2520524 1.1531287 -0.3438766 0
1.3421432 1.14704 -0.34430483 0
1.4484031 1.1539361 -0.34444028 0
1.5511458 1.1474583 -0.3444666 0
1.6386546 1.1586618 -0.34474277 0
1.7330868 1.1524889 -0.34406701 0
1.8431058 1.1507763 -0.34510148 0
1.9475937 1.1588575 -0.34559831 0
2.0473459 1.1400781 -0.3447316 0
2.1382582 1.1509646 -0.34491035 0
2.2301209 1.1595384 -0.34503505 0
2.32254 1.1656471 -0.34561288 0
2.4362226 1.1365566 -0.34569001 0
2.5505166 1.1544384 -0.34553137 0
-2.4370625 1.2362821 -0.33601013 0
-2.3475392 1.2420206 -0.33612955 0
-2.2347467 1.2444344 -0.33679253 0
-2.1437268 1.254743 -0.33685341 0
-2.0249918 1.2645849 -0.3378512 0
-1.9437342 1.2527915 -0.33893204 0
-1.8461084 1.246774 -0.33918512 0
-1.7362301 1.2463077 -0.33883858 0
-1.6332881 1.2447948 -0.33820021 0
-1.5397985 1.2449553 -0.33903331 0
-1.4440473 1.2553606 -0.33872283 0
-1.331615 1.2440578 -0.33892527 0
-1.233726 1.244156 -0.339425 0
-1.1502062 1.2580481 -0.33983541 0
-1.0493577 1.2515984 -0.34055087 0
-0.95020372 1.2428083 -0.33977032 0
-0.83402085 1.2380432 -0.33942446 0
-0.75292456 1.2633528 -0.3415702 0
-0.66547632 1.2559817 -0.33975002 0
-0.5617373 1.2385271 -0.3401683 0
-0.44780779 1.2495553 -0.34054285 0
-0.35224381 1.2530043 -0.3416926 0
-0.24860361 1.2472312 -0.34083825 0
-0.15075575 1.2717655 -0.34325638 0
-0.050162029 1.2740695 -0.34171993 0
0.050144438 1.2748176 -0.3419522 0
0.15005781 1.2659051 -0.34164238 0
0.25056908 1.2570001 -0.34354076 0
0.35152477 1.2510935 -0.34071407 0
0.44687033 1.2535239 -0.34204653 0
0.55807847 1.243893 -0.34207621 0
0.65082711 1.2439471 -0.34383014 0
0.75837761 1.2642889 -0.34318176 0
0.84165335 1.2398484 -0.34344196 0
0.95455927 1.2460196 -0.34343761 0
1.0475479 1.2496606 -0.34338215 0
1.1528833 1.2428526 -0.34334254 0
1.2517577 1.2547221 -0.34465128 0
1.3621802 1.2545366 -0.34470576 0
1.4560653 1.2476279 -0.34466171 0
1.5736949 1.2537477 -0.34443504 0
1.6617579 1.266503 -0.34469357 0
1.7690935 1.2528989 -0.34600717 0
1.8452324 1.2461841 -0.34475002 0
1.9539924 1.2528639 -0.34558067 0
2.03947 1.2400942 -0.34657636 0
2.1530282 1.2477543 -0.34637788 0
2.2750521 1.2668806 -0.34634343 0
2.3755405 1.2568272 -0.34605423 0
2.4586961 1.2339814 -0.34650782 0
2.5371354 1.2506547 -0.34732145 0
-2.4040201 1.3162565 -0.33652428 0
-2.3759959 1.3544825 -0.33721143 0
-2.2748103 1.3314607 -0.3375167 0
-2.1552377 1.34588 -0.33848286 0
-2.0538924 1.3515352 -0.3390317 0
-1.9486641 1.3502898 -0.33911613 0
-1.8685819 1.3616629 -0.33914825 0
-1.7685853 1.3479221 -0.33885032 0
-1.6634647 1.3480802 -0.33949539 0
-1.5559914 1.3526653 -0.33925301 0
-1.4487088 1.353458 -0.33939019 0
-1.3447516 1.3496425 -0.33982792 0
-1.2443556 1.3416426 -0.34034127 0
-1.1452997 1.3463959 -0.3405742 0
-1.0639818 1.3629668 -0.34147912 0
-0.94828963 1.3514405 -0.34026861 0
-0.85139066 1.3527163 -0.34091011 0
-0.75017947 1.3585323 -0.34153286 0
-0.65174973 1.3342859 -0.34120101 0
-0.54731143 1.3589081 -0.34149203 0
-0.46673939 1.360512 -0.34178632 0
-0.35174084 1.3547236 -0.34169364 0
-0.25376904 1.3466166 -0.34149992 0
-0.14933948 1.3412855 -0.34350333 0
-0.052855976 1.3428026 -0.34285435 0
0.050146122 1.351529 -0.34171787 0
0.15384898 1.3432205 -0.34231228 0
0.25092623 1.3547397 -0.34347987 0
0.34555104 1.3484575 -0.34295875 0
0.44813606 1.3483152 -0.34252492 0
0.54532456 1.3612601 -0.34247795 0
0.65264791 1.3420912 -0.34444699 0
0.73809612 1.3456447 -0.34633297 0
0.85048848 1.3425188 -0.34360367 0
0.95021665 1.3499018 -0.34456605 0
1.0498362 1.3472936 -0.34434342 0
1.1436877 1.3445821 -0.34432924 0
1.2551785 1.3532586 -0.34373179 0
1.3564298 1.3574111 -0.34532991 0
1.4573112 1.3615034 -0.34531671 0
1.5478466 1.3456255 -0.34517473 0
1.6565777 1.3549581 -0.34446782 0
1.7366096 1.3284625 -0.34488755 0
1.8270073 1.3514735 -0.34655285 0
1.9328288 1.3460189 -0.34638062 0
2.0291491 1.3493123 -0.34623811 0
2.1315541 1.3521986 -0.34660402 0
2.2404342 1.3548014 -0.34735516 0
2.3363888 1.3452774 -0.3474777 0
2.4493148 1.3546627 -0.34748739 0
2.5047703 1.3023179 -0.34663284 0
-2.3295155 1.4546541 -0.33886075 0
-2.2331102 1.4392899 -0.33875397 0
-2.1230242 1.4559507 -0.33916235 0
-2.0282385 1.4340318 -0.33917102 0
-1.9461651 1.4470663 -0.33928263 0
-1.8524475 1.4541603 -0.33962649 0
-1.7522687 1.4584672 -0.34117433 0
-1.6404819 1.4367222 -0.33871225 0
-1.5650872 1.4537517 -0.33992112 0
-1.4415455 1.4467187 -0.3405892 0
-1.3533359 1.4591444 -0.34070775 0
-1.2495129 1.4477944 -0.34110603 0
-1.1405748 1.442142 -0.34182858 0
-1.0418787 1.4349418 -0.34080237 0
-0.95006359 1.4625672 -0.34137055 0
-0.84787345 1.4604093 -0.34186935 0
-0.75365448 1.4370116 -0.34145123 0
-0.64720541 1.4540745 -0.34220561 0
-0.54888242 1.4520791 -0.34173262 0
-0.44714418 1.432501 -0.34157079 0
-0.35215724 1.4403833 -0.34161904 0
-0.24644007 1.4617831 -0.34305745 0
-0.14579223 1.4587771 -0.34340131 0
-0.057336893 1.4565707 -0.34438375 0
0.046125378 1.4663539 -0.34297204 0
0.15091608 1.4599941 -0.34312224 0
0.24873982 1.4591687 -0.34363857 0
0.34419513 1.4464916 -0.34426072 0
0.44590414 1.4300758 -0.34297618 0
0.53893846 1.443126 -0.34386238 0
0.65382749 1.4533587 -0.34417868 0
0.74149263 1.464337 -0.34509712 0
0.84339195 1.4423364 -0.34513813 0
0.95785725 1.4516842 -0.34425434 0
1.0549636 1.4369178 -0.34518826 0
1.1501945 1.4543928 -0.34509683 0
1.2507498 1.4533789 -0.34518221 0
1.3509524 1.4564195 -0.34466574 0
1.4502778 1.4553916 -0.34546381 0
1.560824 1.4581894 -0.34535441 0
1.6447526 1.4355228 -0.34643534 0
1.7404498 1.4487381 -0.34554419 0
1.8432811 1.4469002 -0.34494767 0
1.9418894 1.453751 -0.34689462 0
2.0752742 1.44521 -0.34718224 0
2.1621788 1.4602576 -0.34721056 0
2.2465181 1.4404167 -0.34757078 0
2.3591084 1.4497148 -0.34773466 0
2.4357584 1.44919 -0.34802747 0
-2.2707577 1.5572788 -0.3389757 0
-2.1580651 1.549123 -0.33951327 0
-2.0552289 1.5432892 -0.34018382 0
-1.9473314 1.5513972 -0.34095597 0
-1.8377239 1.5519223 -0.34118554 0
-1.7387031 1.5558171 -0.33939314 0
-1.621693 1.5369881 -0.3404372 0
-1.5399059 1.5308962 -0.34212783 0
-1.4675009 1.5597147 -0.34071895 0
-1.351463 1.5476534 -0.34139654 0
-1.2487226 1.5560427 -0.34144557 0
-1.161948 1.5406288 -0.34085593 0
-1.0548384 1.5499614 -0.34169531 0
-0.93844223 1.547451 -0.34162596 0
-0.85036135 1.5398977 -0.34197575 0
-0.76080924 1.562157 -0.34279642 0
-0.63819724 1.5524772 -0.34213969 0
-0.56017864 1.5417249 -0.34215319 0
-0.4471384 1.5528582 -0.34291723 0
-0.34844536 1.5482932 -0.34294349 0
-0.25862408 1.5493901 -0.34300396 0
-0.15041144 1.5528724 -0.34352049 0
-0.038666509 1.5372162 -0.34658819 0
0.050195478 1.5589725 -0.34372681 0
0.15032516 1.5512099 -0.34349561 0
0.25050494 1.5422707 -0.3440128 0
0.35452938 1.5460057 -0.34428778 0
0.43709162 1.5580975 -0.34509969 0
0.55638856 1.5380416 -0.34443331 0
0.65134293 1.5588424 -0.34426415 0
0.77069557 1.5652119 -0.34626111 0
0.84562182 1.550346 -0.34508193 0
0.93846089 1.5394595 -0.34551278 0
1.0442437 1.5343118 -0.34553736 0
1.146138 1.5610936 -0.34586695 0
1.2485533 1.5558171 -0.34518817 0
1.3540308 1.5551665 -0.346167 0
1.4599841 1.5516201 -0.34592241 0
1.5429467 1.5424579 -0.34586871 0
1.6488743 1.5626142 -0.34668896 0
1.7543461 1.5474079 -0.34726742 0
1.8600528 1.5482678 -0.34710091 0
1.9656428 1.5659018 -0.3460021 0
2.042855 1.5416894 -0.34744146 0
2.1462343 1.5560509 -0.34820235 0
2.2482092 1.5498952 -0.34796003 0
2.3510208 1.548692 -0.3485592 0
-2.2224607 1.635944 -0.34012067 0
-2.1576271 1.6523908 -0.34140468 0
-2.0505319 1.6498432 -0.34095252 0
-1.9537675 1.6499519 -0.34207743 0
-1.8513651 1.6566294 -0.34001684 0
-1.7471191 1.6558589 -0.34087053 0
-1.6538293 1.6361557 -0.34159446 0
-1.5470127 1.6441983 -0.3410241 0
-1.4347912 1.6384954 -0.34182537 0
-1.3587072 1.6624162 -0.34176725 0
-1.2514141 1.6541499 -0.34095126 0
-1.1585908 1.6511942 -0.34258223 0
-1.0539529 1.6584187 -0.3420682 0
-0.94254875 1.6560686 -0.34326443 0
-0.85260236 1.6483856 -0.34255242 0
-0.73218936 1.6455795 -0.34256449 0
-0.64560336 1.6367983 -0.34205949 0
-0.55139512 1.6662267 -0.34426585 0
-0.45807728 1.6655549 -0.34291098 0
-0.34040254 1.6573658 -0.34422919 0
-0.24383952 1.6499876 -0.34352243 0
-0.14511578 1.6448799 -0.34425253 0
-0.052833803 1.6440818 -0.34599218 0
0.052606691 1.6335903 -0.34451622 0
0.15175912 1.6559209 -0.34452718 0
0.26039672 1.645153 -0.34388456 0
0.34634796 1.6537687 -0.34553123 0
0.45429128 1.6521893 -0.34546188 0
0.55706739 1.6498233 -0.34495795 0
0.64802837 1.6486064 -0.34537902 0
0.7516982 1.6342949 -0.34586686 0
0.85053146 1.6504196 -0.34587559 0
0.94283855 1.6734078 -0.34631139 0
1.0536205 1.6424392 -0.34649271 0
1.158787 1.6514184 -0.34622967 0
1.2518015 1.6547277 -0.34663266 0
1.3549676 1.658942 -0.34485641 0
1.4471089 1.635408 -0.34659222 0
1.5564201 1.6540983 -0.34669459 0
1.6756774 1.6577802 -0.34714329 0
1.7545919 1.6551384 -0.34724703 0
1.8271596 1.6349739 -0.34831932 0
1.92369 1.6483337 -0.34815884 0
2.0438428 1.6523607 -0.3476477 0
2.1472266 1.6363145 -0.3479335 0
2.2552843 1.6683033 -0.34865546 0
2.3179035 1.63887 -0.34856457 0
-2.2058477 1.7062396 -0.34241253 0
-2.1427372 1.7474905 -0.3423104 0
-2.0374908 1.7544571 -0.34204611 0
-1.9482359 1.7432975 -0.33998108 0
-1.8606348 1.7464615 -0.34094203 0
-1.7510372 1.7572985 -0.34250256 0
-1.6521274 1.7559396 -0.34210196 0
-1.5493498 1.7439483 -0.3428773 0
-1.4521588 1.7486707 -0.34230396 0
-1.3375273 1.7419801 -0.34143862 0
-1.2480086 1.7626842 -0.34249166 0
-1.1546792 1.7500572 -0.34230968 0
-1.0481964 1.7469862 -0.34319001 0
-0.94287145 1.7668515 -0.34385329 0
-0.84591466 1.7315828 -0.34406614 0
-0.75630009 1.7675517 -0.34353852 0
-0.65915412 1.736352 -0.34297365 0
-0.55388284 1.7648035 -0.34431279 0
-0.45177934 1.7392162 -0.34507561 0
-0.35506952 1.7376592 -0.34481469 0
-0.25893167 1.7517872 -0.34425604 0
-0.15830134 1.7517349 -0.34526664 0
-0.056615222 1.7597423 -0.34627953 0
0.044153664 1.7575985 -0.34607866 0
0.14214785 1.7644672 -0.34521857 0
0.23820525 1.7537802 -0.3466492 0
0.34707952 1.7404523 -0.34501457 0
0.45105135 1.7314146 -0.34619343 0
0.5331561 1.7372695 -0.34662497 0
0.64562523 1.7456021 -0.34664118 0
0.74305558 1.749882 -0.34549436 0
0.85250473 1.7449924 -0.34693089 0
0.95992672 1.768145 -0.34685868 0
1.0506403 1.7457311 -0.34804612 0
1.1551423 1.7507048 -0.34754103 0
1.2675617 1.7637959 -0.34642571 0
1.3473544 1.7347722 -0.34700009 0
1.4461676 1.7500812 -0.34651184 0
1.5459418 1.7483889 -0.34775758 0
1.6475643 1.7509482 -0.34803867 0
1.7255487 1.7317166 -0.34773391 0
1.8384399 1.7422704 -0.34859186 0
1.9518881 1.7465783 -0.3487857 0
2.0556803 1.7614306 -0.3491393 0
2.1638827 1.7494372 -0.34897545 0
2.2343566 1.7540187 -0.34880343 0
-2.1209304 1.817295 -0.34294683 0
-2.034795 1.8631433 -0.34077346 0
-1.9352584 1.834165 -0.34152052 0
-1.8411268 1.8215423 -0.34268326 0
-1.7558862 1.8481306 -0.34212348 0
-1.6504588 1.8577818 -0.3436161 0
-1.539282 1.8628891 -0.34294552 0
-1.44526 1.827582 -0.34232521 0
-1.3526226 1.8512758 -0.34129062 0
-1.2539208 1.8710006 -0.34350833 0
-1.1472349 1.8344437 -0.34320873 0
-1.0661539 1.8671845 -0.34439129 0
-0.95437986 1.8518367 -0.34448594 0
-0.85218859 1.8437158 -0.34424677 0
-0.74706918 1.8548465 -0.34382573 0
-0.65329945 1.847204 -0.34420666 0
-0.55290872 1.8540087 -0.34521019 0
-0.43923441 1.8545593 -0.34497726 0
-0.35502464 1.8350296 -0.34494525 0
-0.24484034 1.8385117 -0.34517902 0
-0.15236579 1.8471009 -0.34526071 0
-0.059904382 1.8610365 -0.34657034 0
0.046761211 1.8611224 -0.34648257 0
0.15269095 1.8505574 -0.34583813 0
0.25884205 1.8437827 -0.34665942 0
0.35555533 1.8519713 -0.34557468 0
0.43869567 1.8519788 -0.34701362 0
0.5418064 1.8652136 -0.34745675 0
0.64543128 1.8250172 -0.34631577 0
0.74633342 1.8607147 -0.34739059 0
0.84771425 1.8341025 -0.34693322 0
0.93748474 1.8514532 -0.34759024 0
1.0519197 1.8422091 -0.34773237 0
1.1574497 1.8685244 -0.34946665 0
1.2456597 1.8343772 -0.34791055 0
1.348066 1.8358833 -0.34754848 0
1.4637086 1.8511364 -0.34750417 0
1.5584146 1.8498869 -0.34818411 0
1.649119 1.8472514 -0.34859967 0
1.7491521 1.8324906 -0.34888336 0
1.8489106 1.855566 -0.34947583 0
1.9621527 1.8595876 -0.34993482 0
2.0608809 1.8527937 -0.35007086 0
2.1521974 1.8441095 -0.34983179 0
-2.0091927 1.9317112 -0.34223074 0
-1.9538031 1.9607952 -0.34321707 0
-1.8462014 1.9341477 -0.34340361 0
-1.7377915 1.9281592 -0.34415954 0
-1.6551241 1.9548874 -0.3438659 0
-1.5526972 1.9634362 -0.34302685 0
-1.4528604 1.949347 -0.34213758 0
-1.3550252 1.9505612 -0.3445704 0
-1.2589412 1.9688891 -0.34381172 0
-1.1487063 1.9465553 -0.34471571 0
-1.026401 1.9280852 -0.34494516 0
-0.95510697 1.9551455 -0.34521773 0
-0.86179954 1.9632552 -0.34489655 0
-0.75011343 1.9423469 -0.34413859 0
-0.65960789 1.9536135 -0.34548491 0
-0.54709738 1.9348861 -0.34512788 0
-0.45040154 1.9638871 -0.34536815 0
-0.35445315 1.951243 -0.34580636 0
-0.25859776 1.9417667 -0.34508491 0
-0.14525715 1.9296352 -0.34605145 0
-0.048678339 1.9436256 -0.34699011 0
0.048769023 1.9415212 -0.34667435 0
0.14544009 1.9313868 -0.34619379 0
0.25307804 1.9414089 -0.34718522 0
0.3463268 1.9547875 -0.3465026 0
0.45218259 1.9716653 -0.3474195 0
0.5498696 1.9450401 -0.34841383 0
0.6547156 1.9391416 -0.34727129 0
0.75675231 1.9595848 -0.34769094 0
0.86203706 1.9373525 -0.34770137 0
0.94809723 1.9764873 -0.34789678 0
1.0435125 1.9311652 -0.34873441 0
1.1643074 1.9727092 -0.34952736 0
1.2540952 1.9507376 -0.34970918 0
1.3440744 1.9450861 -0.34813276 0
1.4384577 1.9590354 -0.34864271 0
1.5398587 1.9374804 -0.34809396 0
1.642251 1.9303818 -0.34900483 0
1.7554528 1.9477965 -0.34965655 0
1.869495 1.9585643 -0.3503015 0
1.9557117 1.9535633 -0.34994528 0
2.0511041 1.9439026 -0.35101706 0
2.1167984 1.921572 -0.35102752 0
-1.9328704 2.0249219 -0.34372383 0
-1.8597841 2.0635681 -0.34467235 0
-1.7497193 2.027252 -0.34443477 0
-1.6443819 2.0388834 -0.34398174 0
-1.544086 2.0717456 -0.3431429 0
-1.4423528 2.0557232 -0.3445015 0
-1.3465201 2.0407257 -0.34471405 0
-1.246523 2.0555718 -0.34526393 0
-1.1533341 2.0540617 -0.34619975 0
-1.0647763 2.0480695 -0.34567821 0
-0.95093286 2.0574052 -0.34564587 0
-0.84430832 2.0228653 -0.34579906 0
-0.75390279 2.0386605 -0.34482348 0
-0.64990288 2.0743575 -0.34600055 0
-0.55114341 2.0332603 -0.3453806 0
-0.45374364 2.0456274 -0.34560636 0
-0.34112987 2.0528166 -0.34718248 0
-0.24215364 2.0665128 -0.34584445 0
-0.14747831 2.04495 -0.34700415 0
-0.050691109 2.0239937 -0.34713998 0
0.041351702 2.0468128 -0.34680617 0
0.1545413 2.0522816 -0.34702304 0
0.24248306 2.0439076 -0.34858394 0
0.35091448 2.0667191 -0.34708077 0
0.45544624 2.0532711 -0.34832501 0
0.54320294 2.0321715 -0.34861794 0
0.65298915 2.0667725 -0.34777862 0
0.74720281 2.0656834 -0.34905711 0
0.84456897 2.0244999 -0.34821403 0
0.95778155 2.0722167 -0.34839901 0
1.0479529 2.0332134 -0.34923986 0
1.1387813 2.0624142 -0.35000402 0
1.2403935 2.0346963 -0.35057339 0
1.3551307 2.054008 -0.35006878 0
1.4556674 2.0745881 -0.3485482 0
1.5330396 2.0265615 -0.34954795 0
1.6379013 2.0410817 -0.34906486 0
1.7420998 2.0477908 -0.35034078 0
1.8409412 2.0426087 -0.35082251 0
1.9396639 2.0613496 -0.35145384 0
2.0161238 2.0233912 -0.35072696 0
-1.8225182 2.142395 -0.3453677 0
-1.7500538 2.1617584 -0.34459743 0
-1.6572953 2.1375206 -0.34331092 0
-1.5794833 2.1512551 -0.34395236 0
-1.4641277 2.1513398 -0.34572008 0
-1.3573307 2.1449707 -0.3446689 0
-1.2610415 2.1482649 -0.34567919 0
-1.1481078 2.1513007 -0.34623501 0
-1.0362734 2.1468513 -0.34642911 0
-0.94128865 2.1570666 -0.34598908 0
-0.84111226 2.1598248 -0.34605217 0
-0.75579721 2.1374238 -0.34589875 0
-0.64861965 2.1748657 -0.34633046 0
-0.54867846 2.1131063 -0.3459588 0
-0.45692837 2.1321547 -0.34582508 0
-0.35060751 2.1585922 -0.34711668 0
-0.24144383 2.1686969 -0.3461653 0
-0.14892061 2.1868262 -0.34828752 0
-0.054310545 2.1687298 -0.34741011 0
0.047161117 2.1742194 -0.34751463 0
0.1531124 2.1851249 -0.3477031 0
0.25831008 2.1772323 -0.34938151 0
0.35067421 2.158987 -0.34739581 0
0.44519937 2.1523347 -0.34920877 0
0.54269964 2.1274693 -0.34897083 0
0.63401765 2.1439047 -0.34972963 0
0.7470724 2.161499 -0.34905979 0
0.85410029 2.1424675 -0.34908321 0
0.94979459 2.1549358 -0.34970564 0
1.0562515 2.1234052 -0.3494049 0
1.1608772 2.1752756 -0.3508606 0
1.2637999 2.1413589 -0.35066015 0
1.3612462 2.1628437 -0.35121605 0
1.4593326 2.1551943 -0.35082307 0
1.5540479 2.1164305 -0.34978905 0
1.6518905 2.1515706 -0.35039249 0
1.7609692 2.1625009 -0.3505134 0
1.8509065 2.1445067 -0.35146767 0
1.9185524 2.128722 -0.35186458 0
-1.7035564 2.2187564 -0.34346688 0
-1.6396873 2.2536209 -0.34470767 0
-1.5550596 2.2502427 -0.34585512 0
-1.4462069 2.2617311 -0.34616223 0
-1.3405771 2.2349384 -0.34616768 0
-1.2427157 2.2377737 -0.34723154 0
-1.1387957 2.2491131 -0.34645331 0
-1.0411518 2.2525563 -0.34639186 0
-0.94508845 2.2531173 -0.34692684 0
-0.861 2.2777443 -0.34617811 0
-0.75426203 2.2339742 -0.34694347 0
-0.65760213 2.2639163 -0.3470858 0
-0.55450094 2.2399821 -0.34706527 0
-0.44400144 2.2270868 -0.34660462 0
-0.34954882 2.2535715 -0.34802225 0
-0.25145888 2.2585347 -0.34696308 0
-0.15536344 2.2810075 -0.34881416 0
-0.057094369 2.2800364 -0.34812829 0
0.040823989 2.2810321 -0.34820473 0
0.13863528 2.2756913 -0.34802565 0
0.23720984 2.2776897 -0.34953213 0
0.35010216 2.257966 -0.34873676 0
0.4643034 2.244611 -0.34980837 0
