# .PCD v0.7 - Point Cloud Data file format
VERSION 0.7
FIELDS x y z intensity
SIZE 4 4 4 4
TYPE F F F F
COUNT 1 1 1 1
WIDTH 1396
HEIGHT 1
VIEWPOINT 0 0 0 1 0 0 0
POINTS 1396
DATA ascii
-42.865871 3.6849897 2.2612469 9
-42.888294 4.3052344 2.2665696 9
-42.913181 4.9281974 2.272507 9
-42.817497 2.4504936 3.7564492 10
-42.85083 3.0673769 3.7639515 10
-42.853062 3.6838117 3.7695141 10
-42.861691 4.3024778 3.7764342 10
-42.889973 4.9254384 3.7858856 10
-42.898643 5.5487256 3.7944224 10
-42.800598 2.4494722 5.2681842 11
-42.818649 3.0650063 5.2763891 11
-42.835892 3.6822581 5.2856007 11
-42.856846 4.3019042 5.2963848 11
-42.866997 4.9227028 5.3069496 11
-42.891212 5.5476599 5.3203959 11
-42.413879 -13.791657 0.75916755 8
-42.437416 -13.131886 0.75679046 8
-42.445278 -12.472637 0.75433213 8
-42.470863 -11.823612 0.7523914 8
-42.481758 -11.17513 0.75038493 8
-42.506855 -10.534708 0.74882096 8
-42.524269 -9.8962975 0.7473098 8
-42.533653 -9.2598696 0.74584353 8
-42.550915 -8.6287098 0.74469858 8
-42.630291 -5.51366 0.74151897 8
-42.65218 -4.8978772 0.7415092 8
-42.67321 -4.2833958 0.74165505 8
-42.684761 -3.6692476 0.74180156 8
-42.720821 -3.058028 0.74254608 8
-42.726486 -2.445282 0.74293065 8
-42.742359 -1.8338066 0.74365962 8
-42.784134 -1.2233608 0.74500626 8
-42.411938 -13.123403 2.3078754 9
-42.43058 -12.467765 2.2996268 9
-42.440811 -11.814731 2.2914903 9
-42.459846 -11.168892 2.2843833 9
-42.478092 -10.527142 2.277776 9
-42.493507 -9.8887377 2.2715526 9
-42.521454 -9.2568455 2.2665236 9
-42.539219 -8.6260014 2.2614689 9
-42.621655 -5.5123525 2.243423 9
-42.638935 -4.8961926 2.2413347 9
-42.650612 -4.2809863 2.2394331 9
-42.667561 -3.6676517 2.2382851 9
-42.687744 -3.0555649 2.2377872 9
-42.710857 -2.4443133 2.2379186 9
-42.725796 -1.8330405 2.2380939 9
-42.744728 -1.2221974 2.2389517 9
-42.762642 0.00011493521 2.2410369 9
-42.409912 -12.461135 3.8489196 10
-42.432255 -11.811832 3.8359423 10
-42.4412 -11.163509 3.8226666 10
-42.466011 -10.523709 3.8117161 10
-42.473175 -9.8836031 3.8000643 10
-42.495544 -9.2508335 3.7906425 10
-42.515106 -8.6207771 3.7818251 10
-42.605358 -5.5100536 3.7495284 10
-42.617554 -4.8935714 3.7449901 10
-42.635826 -4.2793622 3.7417827 10
-42.657879 -3.6667011 3.739692 10
-42.680202 -3.0549288 3.738415 10
-42.671181 -2.4419672 3.7351778 10
-42.721992 -1.2215112 3.7370713 10
-42.741817 -0.61097372 3.7386959 10
-42.772621 0.00011692862 3.7420599 10
-42.780994 0.61155331 3.7442348 10
-42.787258 1.223424 3.7470074 10
-42.403343 -12.458642 5.4079423 11
-42.415398 -11.806623 5.3881311 11
-42.42614 -11.159068 5.369431 11
-42.449467 -10.519165 5.3535767 11
-42.468292 -9.882061 5.3383818 11
-42.490871 -9.249445 5.3248687 11
-42.497742 -8.6169195 5.3105826 11
-42.571186 -5.5054426 5.2614813 11
-42.599369 -4.8913174 5.2567282 11
-42.600304 -4.2756534 5.249723 11
-42.628891 -3.6640906 5.2472281 11
-42.637714 -3.0517905 5.2433987 11
-42.665504 -2.4415667 5.2429972 11
-42.692204 -1.8314887 5.2435465 11
-42.703098 -1.2209343 5.2432446 11
-42.719574 -0.61063689 5.2447124 11
-42.759232 0.61122841 5.25172 11
-42.764122 1.2227336 5.2550235 11
-42.790237 1.8357992 5.2620249 11
-42.232689 -20.780321 0.79606003 8
-42.241287 -20.040108 0.79111427 8
-42.289154 -18.601835 0.78255999 8
-42.306152 -17.892357 0.77852118 8
-42.336895 -17.196499 0.77496743 8
-42.34486 -16.498919 0.7712307 8
-42.357277 -15.810493 0.76780188 8
-42.38147 -15.133219 0.76480651 8
-42.106018 -25.410725 0.8301658 8
-42.122326 -24.606556 0.82364857 8
-42.155613 -23.824835 0.81777114 8
-42.183285 -23.051611 0.81208014 8
-42.184135 -22.275419 0.80616075 8
-42.218399 -21.527868 0.80116475 8
-42.265976 -18.590631 2.3957376 9
-42.28611 -17.882936 2.382617 9
-42.301273 -17.181137 2.3698859 9
-42.330761 -16.49259 2.3586149 9
-42.339203 -15.802962 2.3468106 9
-42.38237 -14.453497 2.3265209 9
-42.384563 -13.781484 2.3162167 9
-42.078331 -25.392365 2.5470419 9
-42.118523 -24.602762 2.5281222 9
-42.12281 -23.804802 2.5079253 9
-42.158386 -23.036596 2.4904432 9
-42.175259 -22.269398 2.4726717 9
-42.174786 -21.504364 2.4546945 9
-42.209908 -20.767918 2.4395664 9
-42.247707 -19.307547 2.4096541 9
-42.272816 -17.876368 3.9916277 10
-42.284206 -17.173317 3.9696271 10
-42.306564 -16.482323 3.9497426 10
-42.340343 -15.117065 3.9120965 10
-42.354771 -14.443395 3.8945706 10
-42.391006 -13.782932 3.8800309 10
-42.385284 -13.114557 3.8626173 10
-42.11219 -23.797312 4.2037377 10
-42.117931 -23.013075 4.1713204 10
-42.147942 -22.25363 4.1426687 10
-42.164421 -21.497814 4.1140041 10
-42.206936 -20.021547 4.0613995 10
-42.220486 -19.294037 4.036181 10
-42.241886 -18.579033 4.0128865 10
-42.346878 -14.440011 5.4726701 11
-42.356823 -13.77117 5.4486156 11
-42.373249 -13.110229 5.4267468 11
-34.670383 -6.0047393 0.60484612 8
-34.698982 -5.5002031 0.60460454 8
-34.707108 -4.9941788 0.60414833 8
-34.637047 -6.5098157 1.8368722 9
-34.655807 -6.0019917 1.8338174 9
-34.682148 -4.9904089 1.8283327 9
-34.642353 -5.9994378 3.0663342 10
-34.660206 -5.493659 3.0613666 10
-34.676456 -4.9894137 3.0569201 10
-34.618965 -6.5059199 4.3145943 11
-34.632401 -5.9974904 4.3058581 11
-34.639091 -5.4901104 4.2972231 11
-20.708805 22.61001 0.57836467 8
-20.726574 22.630354 1.6518174 9
-20.186039 15.823701 0.47837865 8
-20.336885 22.851667 0.57751334 8
-20.181004 15.820276 1.3748808 9
-20.329546 22.844448 1.6465168 9
-19.856541 16.265427 0.47953725 8
-19.855873 16.265263 1.3769798 9
-18.253019 8.6654644 0.36931491 8
-18.085752 8.90522 0.36899871 8
-18.094616 9.3976927 0.37401378 8
-18.112282 9.9051685 0.37945926 8
-18.254791 8.666317 1.0758905 9
-18.069302 8.8971434 1.0728831 9
-18.07836 9.3892536 1.0859703 9
-18.104048 9.9007282 1.1007717 9
-18.279991 8.6782875 1.7875255 10
-18.046099 8.8857498 1.7774436 10
-18.086828 9.3938055 1.801769 10
-18.083694 9.8896637 1.8228997 10
-18.283657 8.6800404 2.5025709 11
-18.042713 8.8841095 2.4872847 11
-18.066601 9.3832827 2.5186636 11
-11.622753 2.5319166 -0.2030755 7
-11.697055 3.4397256 -0.20650122 7
-11.738087 4.3851376 -0.21053664 7
-11.735444 5.3686733 -0.21511631 7
-11.684783 6.3922472 -0.22029687 7
-11.890867 2.1482725 0.21483678 8
-11.905233 2.638418 0.2177289 8
-11.924494 3.0480406 0.22050974 8
-11.923552 3.414078 0.22289056 8
-11.882945 2.1468804 0.6368705 9
-11.902979 2.63796 0.64397484 9
-11.902855 3.0425186 0.64967126 9
-11.918281 3.4124589 0.65626854 9
-11.879526 2.1461613 1.0602982 10
-11.894961 2.6360891 1.0711131 10
-11.906645 3.0434744 1.0811656 10
-11.910401 3.4101725 1.090629 10
-11.870844 2.1446457 1.485431 11
-11.88685 2.634227 1.5002933 11
-11.898109 3.0411613 1.5140202 11
-11.913376 3.5031679 1.5317944 11
-11.902694 3.6858048 1.5374067 11
-11.222323 2.9613202e-05 -0.19590113 7
-11.380415 0.81494361 -0.19776762 7
-11.5133 1.6575261 -0.20012541 7
-11.597221 7.4680166 -0.22645321 7
-11.464877 8.6010675 -0.23365223 7
-11.272164 9.7902975 -0.24182767 7
-10.813483 -1.5561998 -0.19311765 7
-11.037182 -0.79021937 -0.19443552 7
-11.006762 11.034915 -0.25099432 7
-10.557691 -2.2986145 -0.19201669 7
-10.679259 12.359113 -0.26173869 7
-10.289191 -3.0234349 -0.19145295 7
-10.270124 13.761912 -0.27405807 7
-9.6776533 -4.4221067 -0.19121452 7
-9.9999676 -3.7322328 -0.1912688 7
-9.7696934 15.254839 -0.28825161 7
-9.8571587 5.5782652 1.4023161 11
-9.7147522 5.7765126 1.399864 11
-9.3309364 -5.0974302 -0.19144873 7
-9.5414429 5.9544473 1.3934008 11
-9.3781462 6.1840596 1.3923243 11
-8.9562731 -5.7579231 -0.19190067 7
-9.1564474 16.835152 -0.30437911 7
-8.8299904 -1.8232639 1.4247711 12
-8.8972559 -1.3777561 1.42347 12
-8.9253645 -0.99269688 1.4205317 12
-8.9534941 -0.60893565 1.4202627 12
-8.9461384 -0.22395527 1.4170123 12
-8.9358368 0.19148925 1.4161782 12
-8.894207 0.60483021 1.4132884 12
-8.843626 0.98393935 1.4114721 12
-9.0083561 6.6105547 1.3858407 11
-8.8239546 6.8221574 1.3837137 11
-8.5576944 -6.4078436 -0.19266851 7
-8.4095011 18.498898 -0.32254428 7
-8.6651974 -2.5792503 1.4275181 12
-8.7527924 -2.2020574 1.42564 12
-8.7503662 1.4199376 1.4071342 12
-8.6652718 1.7906832 1.4053448 12
-8.5425291 2.1838636 1.4013798 12
-8.4459829 2.4842317 1.3997402 12
-8.5965166 7.0485706 1.3797176 11
-8.106019 -7.0248861 -0.19308895 7
-8.1873951 15.058595 0.32629952 8
-8.0460615 9.8749466 1.1337839 10
-8.372941 2.6592669 1.397218 12
-8.2128315 3.0466919 1.3942082 12
-8.0633802 3.3467133 1.3901081 12
-8.1860895 7.4279742 1.3727775 11
-7.6646671 -7.6648216 -0.19469 7
-7.7768493 15.064661 0.32282844 8
-7.7528176 9.9434338 1.1225437 10
-7.9846873 3.5169408 1.3896 12
-7.8221231 3.7850008 1.3848149 12
-7.6277175 4.1044369 1.3809781 12
-7.7597041 7.7848811 1.3656907 11
-7.3696342 15.06167 0.31933704 8
-7.3654342 10.026125 1.1078773 10
-7.4995146 4.3167572 1.3800632 12
-7.2886982 4.586689 1.3741622 12
-7.5026078 7.9713445 1.3603828 11
-7.3198152 8.1197205 1.3588424 11
-7.1779199 -8.2828302 -0.19619833 7
-7.106266 19.160372 -0.32458141 7
-6.9772577 15.070229 0.31629658 8
-6.9862447 12.223498 0.76030827 9
-6.9790187 10.093988 1.0930631 10
-6.8105106 -2.4857244 1.4046729 13
-6.904283 -2.1896443 1.4039385 13
-7.0083532 -1.7897092 1.4026574 13
-7.085011 -1.3839377 1.4005843 13
-7.1521263 -0.94248188 1.4004445 13
-7.1761746 -0.59986889 1.3986524 13
-7.186893 -0.20568204 1.3972019 13
-7.1684403 0.15370418 1.3942283 13
-7.1267958 0.56171596 1.3910261 13
-7.0646706 0.96568185 1.3883567 13
-6.9884281 1.3316444 1.3860533 13
-6.8744698 1.7577416 1.3834813 13
-7.1621614 4.7618184 1.3726813 12
-6.9673214 5.0008168 1.3694862 12
-7.0520854 8.2883224 1.3529946 11
-6.8666744 8.4308844 1.3520466 11
-6.648262 -8.878705 -0.19766435 7
-6.5851102 15.064289 0.31310943 8
-6.5473833 12.257447 0.75055271 9
-6.5977511 10.152512 1.0786786 10
-6.7450004 -2.6822441 1.4061129 13
-6.7961855 1.9994147 1.3816626 13
-6.709219 2.2375314 1.3801377 13
-6.5564237 2.5762351 1.3754789 13
-6.4291968 2.8326566 1.3722706 13
-6.5929389 5.4083576 1.3626369 12
-6.59553 8.5890017 1.3468966 11
-6.0940628 -9.4784489 -0.19968076 7
-6.0723319 15.051216 0.3090319 8
-6.1184282 12.288854 0.74149507 9
-6.2359776 10.225449 1.0671593 10
-6.3308706 3.0086198 1.3697349 13
-6.1033592 3.3988905 1.3660777 13
-6.1970129 5.7904854 1.3559899 12
-6.3269935 8.747221 1.3428473 11
-6.1222591 8.8587408 1.3396486 11
-5.8294582 15.067253 0.30756193 8
-5.8048606 12.315928 0.73542136 9
-5.8657355 10.26906 1.0538507 10
-5.6463323 -2.1064072 1.3870728 14
-5.746913 -1.8001527 1.3868153 14
-5.84232 -1.4033588 1.3842652 14
-5.9220381 -1.0039424 1.3847286 14
-5.9648066 -0.62041849 1.3833548 14
-5.9801693 -0.21385999 1.3811746 14
-5.9669027 0.19192578 1.3790191 14
-5.9291515 0.61683017 1.378029 14
-5.8549881 0.99335748 1.3737876 14
-5.7519197 1.4053818 1.3707956 14
-5.6293783 1.7666353 1.3666835 14
-5.831768 3.7888603 1.3609554 13
-5.6257644 4.039907 1.3557299 13
-5.9665976 5.9898815 1.3519218 12
-5.7841353 6.1494594 1.350333 12
-5.8439274 8.996645 1.3347852 11
-5.4994669 -10.065157 -0.20186788 7
-5.2045417 0.74975348 -0.2743392 6
-5.5384188 19.001762 -0.3149882 7
-5.4555507 15.052778 0.30470815 8
-5.4934359 12.334929 0.72935051 9
-5.3841577 10.352004 1.0399276 10
-5.3118529 -2.801964 1.3812033 14
-5.4256434 -2.6352775 1.387723 14
-5.5755219 -2.3095632 1.3886646 14
-5.5646214 1.9453393 1.3658777 14
-5.4389768 2.243458 1.3642935 14
-5.2558889 2.5917025 1.3596575 14
-5.4372087 4.2702727 1.3539835 13
-5.2666368 4.4506893 1.3505762 13
-5.5377922 6.3272138 1.3451718 12
-5.3424931 6.4691901 1.3424602 12
-5.3822317 9.1208916 1.3178519 11
-4.8666611 -10.647166 -0.20440991 7
-4.8513064 -1.4254593 -0.26682559 6
-4.9649124 -1.0810306 -0.26776853 6
-5.0438046 -0.72600174 -0.26810035 6
-5.1167302 -0.36644694 -0.26939622 6
-5.1921697 0.18622382 -0.27216664 6
-5.1870189 1.1307997 -0.27630845 6
-5.1550813 1.5172731 -0.27899167 6
-5.0816264 1.9003323 -0.28096503 6
-5.0007315 2.2903619 -0.28413579 6
-4.8797097 2.6730125 -0.28671825 6
-4.9711585 15.047283 0.30140528 8
-5.0868177 12.362924 0.72203493 9
-4.9504862 -5.4652343 0.90043128 11
-5.0765319 10.389851 1.0305437 10
-4.9018722 10.407802 1.0252506 10
-4.8375673 -1.7653254 1.3759165 15
-4.9432802 -1.4138213 1.374671 15
-5.0440731 -0.98549128 1.3750629 15
-5.086731 -0.60260749 1.3712515 15
-5.1170421 -0.20126224 1.3719171 15
-5.1039357 0.18246156 1.3693548 15
-5.0517049 0.6172117 1.3657355 15
-4.979908 0.99237722 1.363584 15
-4.8623753 1.3932744 1.3595312 15
-5.1689024 2.7356732 1.3570735 14
-5.0092173 2.9818258 1.3537641 14
-4.824748 3.2606735 1.352594 14
-5.0539374 4.6577029 1.3468223 13
-4.8339195 4.8558393 1.3428278 13
-5.0730329 6.644486 1.3379821 12
-4.9466004 9.1144075 1.2904967 11
-4.418654 -2.4127474 -0.26631901 6
-4.5879126 -2.0957332 -0.26668134 6
-4.7202749 -1.7614009 -0.26616049 6
-4.7556243 3.0669563 -0.29092321 6
-4.6099486 3.4642632 -0.29579824 6
-4.6333718 -10.327026 0.19728933 8
-4.6103468 15.032373 0.29887062 8
-4.6848974 12.382365 0.71493423 9
-4.4563746 -5.6027846 0.87454021 11
-4.6440578 -5.5485029 0.88379014 11
-4.5873809 -4.5809011 1.021659 12
-4.6469193 10.442577 1.018609 10
-4.4618912 -2.5815067 1.3762044 15
-4.6469111 -2.2157507 1.375013 15
-4.7751451 -1.9379439 1.3764482 15
-4.7099333 1.7999389 1.3563967 15
-4.5199871 2.1892745 1.352126 15
-4.6580338 3.4488339 1.3468698 14
-4.4652777 3.6670055 1.3430954 14
-4.6053362 5.0422549 1.3389063 13
-4.5900674 6.9271927 1.3303375 12
-4.7062078 9.1339836 1.2787195 11
-4.1827035 -11.200834 -0.20688012 7
-4.0535121 -3.032706 -0.26781595 6
-4.2472095 -2.7287698 -0.26710203 6
-4.3862548 3.8170226 -0.29764706 6
-4.1821084 4.2020397 -0.30291441 6
-4.0664377 18.886175 -0.30848753 7
-4.1854482 -10.294362 0.19456764 8
-4.2611899 15.037121 0.29687837 8
-4.2617908 -8.2751141 0.48614153 9
-4.3878417 12.395987 0.70998442 9
-4.1906371 12.400561 0.70665008 9
-4.2081409 -5.6523948 0.86114788 11
-4.2369456 -4.7074885 0.99841201 12
-4.1854157 10.499505 1.0072438 10
-4.3130155 -2.7693791 1.3678505 15
-4.2814803 2.580653 1.3471473 15
-4.0677886 2.8797269 1.3432876 15
-4.2687635 3.8799939 1.3414578 14
-4.0542569 4.07516 1.3370129 14
-4.1566105 5.3683605 1.3316761 13
-4.2260303 7.1108828 1.3243256 12
-4.0395074 7.2027287 1.3220708 12
-4.2300467 9.1565399 1.2552172 11
-3.7160552 -3.4567442 -0.26842341 6
-3.9411335 4.5725818 -0.30793747 6
-3.6779819 4.9427862 -0.31385839 6
-3.7546728 -10.270467 0.19235189 8
-3.7968163 15.025534 0.29405993 8
-3.8328247 -8.2948427 0.478012 9
-3.6945038 -6.8653989 0.67988414 10
-3.7588563 12.42773 0.70074797 9
-3.7810669 -5.7466607 0.84128475 11
-3.8002934 -4.8448305 0.97094148 12
-3.7610424 -3.4452088 1.1723053 14
-3.8069925 10.525327 0.99722779 10
-3.9322281 3.0461271 1.3411061 15
-3.7130802 3.2808275 1.3364419 15
-3.8229556 4.2698388 1.3335489 14
-3.8814232 5.5410461 1.3269742 13
-3.6724684 5.6648302 1.324239 13
-3.7662816 7.3178244 1.3177649 12
-3.7975514 9.1505642 1.2328923 11
-3.4588339 -11.760398 -0.2099535 7
-3.3478477 -3.8570285 -0.26951805 6
-3.2598376 -0.58892232 -0.29067948 5
-3.3308742 -0.2386194 -0.29246515 5
-3.3617411 0.12089594 -0.29432943 5
-3.343616 0.60541493 -0.2965889 5
-3.2952595 0.97073829 -0.29905599 5
-3.2379198 1.212091 -0.30056459 5
-3.36885 5.2781787 -0.31864837 6
-3.4180396 -10.246092 0.19074123 8
-3.3407798 15.018549 0.29155537 8
-3.4093888 -8.2914114 0.46981147 9
-3.4289379 -6.8913293 0.67174214 10
-3.3291106 12.440484 0.69472742 9
-3.4337127 -5.8176455 0.82654148 11
-3.3748116 -4.9704566 0.9479301 12
-3.3485067 -3.6392591 1.1366644 14
-3.5186164 -3.5614669 1.150596 14
-3.3576343 10.565671 0.98755491 10
-3.4440253 3.5394316 1.3326432 15
-3.2664559 3.6866243 1.3291752 15
-3.4438233 4.5405436 1.3267087 14
-3.392102 5.808239 1.3196595 13
-3.4053376 7.4507041 1.3115253 12
-3.3854349 9.1622639 1.21536 11
-2.9506941 -4.240273 -0.27210596 6
-2.9576178 -1.4798912 -0.2907533 5
-3.124403 -1.0398542 -0.28931236 5
-3.1559398 1.447142 -0.30141237 5
-3.0325012 1.8085066 -0.30609062 5
-2.8671939 2.1583128 -0.31029537 5
-3.0423696 5.6162539 -0.32481283 6
-3.0503271 -10.22312 0.18927321 8
-3.0018394 15.008526 0.28971905 8
-3.0055864 -8.3009405 0.46352613 9
-3.0281572 -6.9317713 0.66092294 10
-2.9494858 12.437914 0.68927032 9
-3.058213 -5.8758841 0.81115001 11
-3.0115976 -5.0568895 0.92907655 12
-3.0162923 -3.784883 1.1128863 14
-3.0091074 -3.2679636 1.1853499 15
-2.8121223 9.2020998 1.1968143 11
-2.9948771 10.596448 0.98059064 10
-3.0484328 3.8473134 1.3251417 15
-2.8099508 4.0189981 1.3235885 15
-3.0820861 4.7588487 1.3195246 14
-2.9121623 4.8710985 1.3208818 14
-3.0614946 5.9565339 1.3137273 13
-2.8851953 6.0330052 1.311752 13
-3.0975516 7.5510054 1.3064872 12
-2.8794093 7.6351929 1.3061109 12
-2.9529648 9.1897526 1.2006941 11
-2.688489 -12.330185 -0.2137125 7
-2.5197871 -4.5979919 -0.27512515 6
-2.5057859 -2.167073 -0.290898 5
-2.7182055 -1.8852147 -0.29079995 5
-2.4047635 -0.52366972 -0.30259007 4
-2.4482138 -0.26346216 -0.30276182 4
-2.4681289 0.22132678 -0.30456254 4
-2.4309084 0.62316388 -0.30757454 4
-2.7332392 2.3830907 -0.31315112 5
-2.5711815 2.5891728 -0.31475303 5
-2.4111214 2.8045106 -0.31869683 5
-2.6880114 5.9416552 -0.33151224 6
-2.6564996 18.776379 -0.30425352 7
-2.6101966 -10.190852 0.18772234 8
-2.7778189 15.001647 0.28856072 8
-2.6124151 -8.3077784 0.45818061 9
-2.6642826 -6.9589996 0.65189421 10
-2.5292757 -5.9556298 0.79334176 11
-2.5788894 12.452683 0.68535691 9
-2.7743773 -5.937324 0.80299133 11
-2.6094797 -5.1419778 0.9109863 12
-2.5709274 -3.93945 1.082384 14
-2.6657872 -3.4257295 1.1584653 15
-2.5703535 9.232398 1.1918783 11
-2.6343739 10.615985 0.97377056 10
-2.5539079 4.1621184 1.3184472 15
-2.6026917 5.010839 1.3143644 14
-2.6155391 6.1333885 1.3079109 13
-2.5648043 7.7082715 1.3001281 12
-2.1971111 -4.788558 -0.27574122 6
-2.101593 -2.5982699 -0.29308504 5
-2.3489764 -2.3429508 -0.29114899 5
-2.0618396 -1.3230073 -0.30124414 4
-2.2210205 -1.0139675 -0.30080312 4
-2.3478017 -0.6897797 -0.30092987 4
-2.342834 0.97588474 -0.31053385 4
-2.1807692 1.3571666 -0.31400567 4
-2.1306143 3.0991077 -0.32386822 5
-2.2995632 6.2365775 -0.33790928 6
-2.2583697 -10.161131 0.186681 8
-2.2225761 14.976584 0.28574184 8
-2.2262595 -8.3039513 0.45328036 9
-2.2270648 -6.9835191 0.64230061 10
-2.0601101 -6.0059762 0.77955151 11
-2.2220855 -5.9874716 0.78375119 11
-2.2109442 12.462989 0.68175346 9
-2.1321359 -5.2197461 0.89167368 12
-2.3377497 -5.1885986 0.89947492 12
-2.2382329 -4.0405946 1.0630656 14
-2.1292529 -3.6258628 1.1226243 15
-2.3306952 -3.5518265 1.1339527 15
-2.188802 9.2598209 1.1829227 11
-2.1982334 10.634053 0.96624053 10
-2.1845639 4.3371553 1.3110507 15
-2.2192204 5.1612954 1.3073554 14
-2.04849 5.2227263 1.3052715 14
-2.1820986 6.2688622 1.3017948 13
-2.1560612 7.7942128 1.2938998 12
-1.8723726 -4.9895334 -0.2781077 6
-1.7280003 -2.8958321 -0.29507744 5
-1.749336 -1.7427834 -0.30377468 4
-1.9727054 -1.473487 -0.30269003 4
-1.6911497 -0.96100485 -0.30854085 3
-1.8537945 -0.58065248 -0.30831802 3
-1.9428875 -0.27981198 -0.31100506 3
-1.9483476 0.28121677 -0.31159592 3
-1.8874043 0.59448785 -0.31346092 3
-1.7574488 0.96748358 -0.31727767 3
-1.6372877 1.23667 -0.32351407 3
-1.9112074 1.7955017 -0.31943324 4
-1.7309551 2.0185149 -0.32330611 4
-1.8235284 3.3797622 -0.33018675 5
-1.8829783 6.5070753 -0.34451786 6
-1.8378943 -10.129715 0.18579404 8
-1.7854742 14.969864 0.28395754 8
-1.8495609 -8.3017664 0.44945464 9
-1.7985171 -6.9919081 0.63373494 10
-1.8313109 -6.0280023 0.77417976 11
-1.8449798 12.464931 0.67823988 9
-1.8305547 -5.2663622 0.88258892 12
-1.6811163 -4.6697454 0.9634276 13
-1.8177583 -4.1410165 1.0419135 14
-1.8229736 -3.7109597 1.1048414 15
-1.8111078 9.2798405 1.175053 11
-1.7689791 10.657925 0.96084744 10
-1.8415663 4.4800229 1.3075997 15
-1.7992753 5.3018942 1.3026234 14
-1.790686 6.3704271 1.297244 13
-1.8215905 7.8477793 1.288563 12
-1.5261439 -5.154953 -0.27964392 6
-1.2067609 -3.2000403 -0.29793531 5
-1.4238654 -3.0915902 -0.29700816 5
-1.2824003 -2.143157 -0.30612612 4
-1.4939896 -1.9835494 -0.30457389 4
-1.3919992 -1.385823 -0.31106678 3
-1.3736718 -1.0486343 -0.31221718 2.3333333
-1.4416268 -0.72032136 -0.31301734 2
-1.4551164 -0.31692505 -0.31406501 1.5
-1.4682255 0.32118481 -0.31727093 1.5
-1.3253895 0.66945541 -0.32276201 1.3333334
-1.3425682 0.97885162 -0.32278541 2
-1.4421306 1.4595605 -0.32364255 3
-1.239509 1.6805388 -0.32836512 3
-1.5201505 2.2189589 -0.32689989 4
-1.2918453 2.4041636 -0.33119601 4
-1.5921693 3.5365536 -0.33333567 5
-1.346687 3.6745946 -0.33629686 5
-1.4444336 6.7723908 -0.35248426 6
-1.2912222 18.674774 -0.30219439 7
-1.4261653 -10.097643 0.18525085 8
-1.3512151 14.955658 0.28222057 8
-1.4156591 -8.2792501 0.44509888 9
-1.3802358 -6.9945836 0.62702435 10
-1.4434897 -6.0423326 0.76454318 11
-1.4359701 12.458659 0.67449749 9
-1.4305351 -5.3036861 0.87067592 12
-1.4346324 -4.7054896 0.95590502 13
-1.4627374 -4.2117763 1.0280311 14
-1.4178605 -3.7989063 1.0845741 15
-1.4027052 9.2954645 1.1677397 11
-1.4183035 10.662126 0.95607573 10
-1.4099516 4.612649 1.30127 15
-1.369487 5.4029698 1.2961732 14
-1.416927 6.4370046 1.2915727 13
-1.3921958 7.9042759 1.2831453 12
-1.1736492 -5.3326063 -0.28301537 6
-0.98390484 -3.3017197 -0.29958627 5
-0.97239786 -2.3168292 -0.30735075 4
-0.98867559 -1.7149776 -0.31277329 3
-1.0622526 -1.374774 -0.31329408 2.3333333
-0.9847551 -0.9769851 -0.31657898 1
-1.0630209 -0.66152966 -0.31798086 0.33333334
-1.1773192 -0.25644788 -0.32237861 0
-1.1715646 0.25659919 -0.3216671 0
-1.0596844 0.68958044 -0.32628554 0.25
-0.95755237 0.97459477 -0.32749504 0.75
-0.98061043 1.3883474 -0.33046734 2
-0.99617827 1.8622597 -0.33227235 3
-1.0374702 2.5597167 -0.33517006 4
-0.96179777 3.8701582 -0.34295669 5
-0.97718424 7.0047903 -0.36047983 6
-1.0941541 -10.07028 0.185013 8
-0.91970283 14.938557 0.28061229 8
-0.981484 -8.2554436 0.44189879 9
-1.0484222 -7.0062399 0.62403935 10
-1.0199412 -6.0558262 0.75701928 11
-0.94059843 12.452903 0.67086375 9
-1.0393 -5.3360701 0.86288238 12
-1.0159914 -4.7509065 0.94537324 13
-1.0407809 -4.2606187 1.0125778 14
-1.0193484 -3.8649118 1.0703907 15
-0.99919355 9.3193951 1.1636151 11
-0.99411649 10.670899 0.95198703 10
-0.95874721 4.7063179 1.2948703 15
-0.9750855 5.4659843 1.290418 14
-0.97075158 6.4856415 1.2843758 13
-1.0191374 7.9318118 1.2778177 12
-0.75363135 -3.3923888 -0.30159497 5
-0.63895243 -2.4437838 -0.30825472 4
-0.61055589 -1.9016891 -0.31486353 3
-0.62509471 -1.3794227 -0.31843066 1.5
-0.6737482 -1.0508041 -0.32039729 0.25
-0.62395412 1.0566334 -0.32950234 0
-0.65281343 1.3931276 -0.33304551 1.3333334
-0.59486818 1.7745868 -0.33580935 2.3333333
-0.51070166 2.0930271 -0.33802891 3
-0.67023975 2.7221026 -0.34004983 4
-0.55133742 4.0201154 -0.34895939 5
-0.48375237 7.1985655 -0.36836529 6
-0.59737074 14.918343 0.27938145 8
-0.76728183 -6.9876652 0.62010449 10
-0.69053715 -6.0565534 0.75248653 11
-0.5822075 12.439674 0.66836506 9
-0.66966152 -5.3391657 0.85528994 12
-0.61795813 -4.7670255 0.93669939 13
-0.63669145 -4.2919765 1.003243 14
-0.55362648 -3.9046695 1.0581031 15
-0.59590596 9.32129 1.1588373 11
-0.60904187 10.653191 0.94717956 10
-0.59953713 4.7476921 1.2891054 15
-0.57869714 5.4993896 1.2842691 14
-0.57242548 6.513308 1.2796156 13
-0.58926213 7.940587 1.2715231 12
-0.36698574 -1.606318 -0.31777692 2
-0.36504626 -1.3634592 -0.32338181 1
-0.31875527 -1.1822385 -0.32531422 0
-0.18734416 1.3960692 -0.3421649 0.66666669
-0.19667724 1.7648795 -0.34260693 2
-0.21069734 2.194983 -0.34579784 3
-0.2001716 2.8561461 -0.35349727 4
-0.14528258 4.1140285 -0.36605763 5
-0.38424844 14.936058 0.27920365 8
-0.31444886 12.42426 0.6665141 9
-0.19494815 9.319335 1.1556585 11
-0.26521546 10.653071 0.9451912 10
-0.15926635 4.7539091 1.2736766 15
-0.18295 5.5078773 1.2788128 14
-0.22130325 6.5197802 1.2757744 13
-0.24634324 7.922822 1.2649287 12
0.0084988568 7.3189692 -0.41149276 6
0.35238317 -5.753984 -0.2939595 6
0.21023749 -3.5860832 -0.30903983 5
0.24931011 -2.6128106 -0.31821653 4
0.18948738 -2.0418246 -0.32148322 3
0.17961165 -1.6671801 -0.32343552 2
0.19612832 -1.3162638 -0.32841355 0.5
0.17332163 1.3194357 -0.35042775 0.33333334
0.14254843 1.7567477 -0.35414237 2
0.15280509 2.1891065 -0.3590638 3
0.27572089 2.886189 -0.36791754 4
0.27531007 4.1663518 -0.38056335 5
0.026745949 9.1834583 -0.19413552 7
0.22131427 9.1675987 0.12861295 8
0.21781914 9.1779356 0.61160457 9.5
0.22198343 -4.2852459 0.99564737 14
0.19941913 -3.9015715 1.0511473 15
0.21431577 9.1904926 1.0987325 11
0.17891324 9.1945839 1.4266025 12
0.14316513 9.1886549 1.7563089 13
0.27239087 9.1913567 2.0943727 14
0.14083934 9.2054729 2.0954781 14
0.13796742 9.1986485 2.4351254 15
0.27017501 9.2049618 2.4390578 15
0.54455876 7.4325328 -0.41455525 6
0.49561733 -3.6000094 -0.31176889 5
0.75727606 -3.5882082 -0.31382579 5
0.63151586 -2.5720272 -0.32010254 4
0.48985484 -2.0216508 -0.32556784 3
0.5756793 -1.7362232 -0.32712728 2.3333333
0.59153104 -1.4029998 -0.3292031 1.3333334
0.55016387 -1.1126678 -0.33280295 0
0.5761897 1.1237829 -0.35148066 0
0.49201536 1.3269962 -0.35429394 0.66666669
0.55984628 1.6945167 -0.35689923 2
0.51664424 2.167027 -0.36239707 3
0.58752632 2.8425181 -0.36615241 4
0.58152342 4.1783681 -0.3822197 5
0.68730032 9.1879177 -0.18911128 7
0.58512038 9.1845818 0.13228405 8
0.53193682 9.1889906 0.61618203 9.5
0.6831935 9.2012539 0.45667517 9
0.47805756 9.1830416 1.1015919 11
0.67846125 9.20753 1.1079165 11
0.47559214 9.1869307 1.4299749 12
0.67647046 9.2156935 1.4383355 12
0.5737471 9.20889 1.7678542 13
0.47092184 9.1975899 2.099812 14
0.67021477 9.2051172 2.1064179 14
0.46812871 9.1981955 2.4416611 15
0.6684829 9.2179432 2.4523103 15
1.1003793 7.5273147 -0.41862306 6
1.0239413 -14.418693 -0.2316014 7
0.8113277 -14.316423 -0.23046708 7
0.8156969 -5.8060508 -0.29741523 6
1.0218656 -3.5639338 -0.31645697 5
1.0074061 -2.4998958 -0.32483861 4
0.98731923 -1.8650297 -0.32989872 3
0.95949864 -1.4311585 -0.33262128 2
0.97056282 -1.0106936 -0.33530277 0.75
1.1100522 -0.56614786 -0.33806959 0
1.1154975 0.58079398 -0.3487348 0
0.94795662 0.94640702 -0.3517046 0.33333334
0.88851291 1.4332132 -0.35494852 1.6666666
1.0632271 1.992963 -0.36425105 3
0.82510453 2.0665882 -0.36040744 3
1.0114778 2.7755077 -0.36986637 4
0.80424196 2.831656 -0.36992452 4
1.0426214 4.1372523 -0.38335288 5
0.88418382 9.1892643 0.13531201 8
1.0859002 9.200963 0.13754627 8
0.88254023 9.1977129 0.45915216 9
1.0148884 9.2027512 0.67821562 9.666667
0.87711233 9.1971483 1.1106317 11
1.0785 9.2054424 1.1160674 11
0.9763025 9.2117767 1.4449806 12
0.80444086 9.1895552 1.7697407 13
1.0067515 9.2101727 1.7795707 13
0.97151238 9.2171316 2.1185975 14
0.96784955 9.2092314 2.4605331 15
1.2487582 -5.8329868 -0.30111966 6
1.418519 -3.4862337 -0.32021365 5
1.2806914 -2.4014769 -0.32714397 4
1.4619433 -2.3249161 -0.32968956 4
1.3137033 -1.674185 -0.33197632 3
1.3539258 -1.3934705 -0.33473608 2.5
1.3544322 -0.99441493 -0.33862498 1.75
1.3562373 -0.58573055 -0.34286505 1
1.3545673 -0.21902227 -0.34480327 0.5
1.3624841 0.18323833 -0.3477191 0.5
1.365337 0.59467334 -0.35132137 1
1.4252778 0.98870116 -0.35437533 1.8
1.4079022 1.4651833 -0.35930884 2.5
1.3679664 1.7806582 -0.36089158 3
1.3162618 2.6650012 -0.37033278 4
1.5085806 4.0644779 -0.38577864 5
1.3583134 9.2054405 -0.18527831 7
1.2868801 9.1963024 0.139616 8
1.4929045 9.2160854 0.14212546 8
1.3856772 9.1972952 0.4667238 9
1.3857876 9.2143154 0.79530036 10
1.3820047 9.2082081 1.1241894 11
1.3792083 9.2073479 1.4562277 12
1.3780801 9.2173939 1.7939335 13
1.3747196 9.2142715 2.1338315 14
1.3731852 9.2216368 2.4817722 15
1.6683455 7.5611153 -0.42149037 6
1.686637 -5.8162718 -0.30417699 6
1.8091954 -3.365761 -0.32365027 5
1.7181329 -2.1746562 -0.33232841 4
1.6704123 -1.3796566 -0.33775651 3
1.8698114 -1.1375245 -0.34124616 3
1.6723621 -0.6105116 -0.34484208 2
1.7653435 -0.26716375 -0.34686798 2
1.7910135 0.19646798 -0.35167649 2
1.6993638 0.58188677 -0.35228527 2
1.9945527 1.0743496 -0.35875228 3
1.7877707 1.3853357 -0.3605448 3
1.9692208 2.2735267 -0.3698321 4
1.7057762 2.4687653 -0.37114346 4
1.8083637 3.9661374 -0.38558686 5
1.8002105 9.2131033 0.14555304 8
1.7984531 9.2180252 0.47489053 9
1.7952236 9.2221117 0.97184652 10.5
1.7912244 9.2228661 1.4734839 12
1.7903888 9.2331028 1.8144149 13
1.787527 9.2322035 2.1580639 14
1.7840986 9.2301111 2.5068061 15
2.2405663 7.5310779 -0.42310703 6
2.1385431 -14.923332 -0.23769449 7
2.1418772 -5.8019433 -0.30907336 6
2.0737405 -3.2734976 -0.32739177 5
2.329762 -3.1541522 -0.33049545 5
2.1524701 -1.8305886 -0.33830181 4
2.3934476 -1.5662122 -0.34143525 4
2.0067153 -0.94042498 -0.34540984 3
2.1317573 -0.60227364 -0.34634346 3
2.2242601 -0.25009382 -0.35017157 3
2.2533817 0.20770343 -0.35516226 3
2.192915 0.53176534 -0.35526973 3
2.1095502 0.85267556 -0.35944539 3
2.2894611 1.9726034 -0.36913881 4
2.133055 2.1275353 -0.36919588 4
2.2480149 3.7801509 -0.38593945 5
2.0455964 9.2174921 -0.18224493 7
2.2201688 9.2271805 0.15068345 8
2.2167635 9.2242899 0.48331332 9
2.2145517 9.2324972 0.98602182 10.5
2.2103891 9.2327347 1.4928486 12
2.2090898 9.2391138 1.8366897 13
2.2074051 9.2444115 2.1853442 14
2.2047985 9.2455387 2.5388229 15
2.5909796 -5.724081 -0.31239983 6
2.5804718 -3.0159104 -0.33375987 5
2.5687833 -1.308714 -0.34414798 4
2.748796 -1.0448817 -0.35067451 4
2.7173367 1.3333982 -0.36631048 4
2.493588 1.7130755 -0.36811581 4
2.6698277 3.5478418 -0.38613063 5
2.7579994 9.2312794 -0.1801683 7
2.5762503 9.2328606 0.15513597 8
2.5718029 9.2275028 0.49102077 9
2.7602854 -47.726227 0.90086049 8
2.5712597 9.240551 0.99909991 10.5
2.5667925 9.2397709 1.5112016 12
2.5658965 9.2470789 1.8587822 13
2.5643387 9.2522287 2.211041 14
2.7548711 -47.709793 2.5709131 9
2.5621924 9.2550154 2.5686641 15
2.7494094 -47.692783 4.2460332 10
2.7452836 -47.6992 5.9332857 11
2.8244987 7.4766545 -0.42576846 6
3.0528181 -5.6348095 -0.31702045 6
2.8223858 -2.856673 -0.33693993 5
3.0438032 -2.6685159 -0.33895883 5
2.8145945 -0.84333587 -0.35044149 4
2.9081268 -0.53683281 -0.35313874 4
2.9667013 -0.22029011 -0.35536766 4
2.9810963 0.27714676 -0.35881808 4
2.9471025 0.60230577 -0.36109811 4
2.8747818 0.92300779 -0.36373082 4
3.176789 3.1477454 -0.3849009 5
2.9380436 3.3662977 -0.38649252 5
2.9756567 9.2367678 0.1602885 8
2.9734919 9.2391539 0.50079626 9
2.9705002 9.2431898 1.0147552 10.5
3.0440645 9.2555151 1.5396069 12
2.9667544 9.2543192 1.8859415 13
2.9655588 9.2598467 2.242835 14
2.9610553 9.2554455 2.603055 15
3.4040926 7.3597779 -0.427412 6
3.3442748 -15.403999 -0.24438314 7
3.5168855 -5.5110707 -0.32177693 6
3.2580118 -2.4669187 -0.34157366 5
3.464901 -2.2518389 -0.34483531 5
3.4256511 2.9345565 -0.38632935 5
3.506439 9.2508707 -0.1791625 7
3.388809 9.2467499 0.16592073 8
3.3900363 9.2579222 0.51203555 9
3.4441261 -47.714821 0.90390414 8
3.3848732 9.2521658 0.85859501 10
3.4211543 9.2593546 1.328166 11.333333
3.3806355 9.265089 1.9176744 13
3.3792267 9.2696762 2.2797263 14
3.4377232 -47.688206 2.5745726 9
3.2637956 9.2723255 2.6359582 15
3.433208 -47.687759 4.2519803 10
3.4265456 -47.658066 5.9361429 11
3.4214621 -47.650646 7.6364446 12
3.4157789 -47.635632 9.3537979 13
3.983639 7.2019005 -0.42931065 6
3.9771917 -5.3471684 -0.32639286 6
3.6560531 -2.0186062 -0.34801883 5
3.8404253 -1.7732954 -0.35209182 5
3.9914563 -1.5053852 -0.3547782 5
3.9905684 2.1343904 -0.38276902 5
3.7254171 2.5471473 -0.3842375 5
3.7726529 9.2492409 0.17124397 8
3.775799 9.2645044 0.52258325 9
3.7736294 9.2663717 0.87501997 10
3.7490957 9.2655077 1.4067144 11.5
3.8330872 9.2726555 1.8333519 12.666667
3.7658563 9.2775888 2.3169057 14
3.7617962 9.2757158 2.6887424 15
4.1159487 -1.2223961 -0.35690144 5
4.2359581 -0.93240702 -0.36045268 5
4.315949 -0.62849414 -0.3625128 5
4.3763447 -0.31783837 -0.36489058 5
4.3810415 0.89658165 -0.37386608 5
4.2910838 1.3760657 -0.37837431 5
4.1253481 1.8362784 -0.38060895 5
4.2967658 9.2632627 -0.17904289 7
4.2149477 9.2671471 0.17777154 8
4.2149911 9.2739344 0.53539079 9
4.1283665 -47.695446 0.90700334 8
4.2108469 9.2717485 0.89388782 10
4.2091141 9.2748718 1.2550383 11
4.2073665 9.2812929 1.8041304 12.5
4.2069793 9.2910347 2.3635807 14
4.1232061 -47.687618 2.579917 9
4.2039204 9.2915497 2.7430987 15
4.116859 -47.66634 4.2573624 10
4.1109667 -47.65057 5.9444304 11
4.1068034 -47.65514 7.6483359 12
4.0998569 -47.628204 9.3654737 13
4.5498242 6.9861274 -0.43049708 6
4.6431494 -15.833332 -0.25139067 7
4.4378834 -5.1519732 -0.33145699 6
4.4508381 0.25579074 -0.37139183 5
4.4353614 0.57814068 -0.37320387 5
4.5474486 9.2791586 0.18280374 8
4.5467992 9.2840719 0.54570931 9
4.5431256 9.2833433 0.90967679 10
4.4505739 9.2699165 1.2688894 11
4.4501395 9.2756252 1.6372672 12
4.5087123 9.2913418 2.1431086 13.333333
4.5633168 9.2990665 2.6602969 14.666667
4.7960973 -47.635342 5.9530048 11
4.7884049 -47.604511 7.652976 12
4.7840977 -47.607624 9.3765249 13
5.0967374 6.7146068 -0.43104598 6
4.8817167 -4.9086418 -0.33592352 6
5.150044 9.2866802 -0.18026173 7
4.8818488 9.2753735 0.18778588 8
5.0175304 9.2928467 0.56081551 9
4.8130193 -47.668774 0.91017133 8
5.0132556 9.2913113 0.93260604 10
5.0151801 9.3008413 1.3080177 11
5.0097194 9.2968798 1.6848841 12
5.0058198 9.2959394 2.0661919 13
4.8084116 -47.667629 2.5847676 9
5.0050664 9.3009024 2.4540858 14
5.0472031 9.3061275 2.8543384 15
4.8031268 -47.659977 4.2649908 10
5.3313813 -4.643332 -0.34158966 6
5.4188137 9.2971106 0.19635344 8
5.4999037 9.2883911 0.57646626 9
5.4997797 -47.649651 0.91369069 8
5.4144669 9.3011637 0.95336717 10
5.4075317 9.2951717 1.333838 11
5.4132037 9.310627 1.7209592 12
5.4088817 9.3090963 2.1096992 13
5.4944487 -47.642517 2.5898933 9
5.4071555 9.3123312 2.5047841 14
5.4070978 9.3181038 2.9072676 15
5.4877605 -47.623806 4.270854 10
5.4838653 -47.629433 5.9639997 11
5.4763246 -47.603882 7.6672587 12
5.4696312 -47.586079 9.3893452 13
5.6198707 6.391242 -0.43110847 6
5.772903 -4.3420968 -0.34762415 6
5.7887278 9.3048544 0.20232363 8
5.8350101 -26.788881 0.53226733 8
5.7906423 9.3132515 0.58745235 9
5.888154 9.3258505 0.97997928 10
5.8441324 -26.842428 1.4936345 9
5.7815342 9.309866 1.3617276 11
5.7848945 9.3208742 1.7554141 12
5.7835331 9.3243055 2.1525435 13
5.8547406 -26.902855 2.4630864 10
5.8733897 9.3250418 2.566572 14
5.7769208 9.3253546 2.9628749 15
5.8529019 -26.906485 3.4356534 11
5.8635077 -26.967159 4.4263201 12
5.8209333 -25.062365 5.0550165 13
5.8754225 -27.034023 5.4337139 13
5.8355746 -25.136015 6.0121245 14
5.8874593 -27.101679 6.459981 14
5.8415947 -25.172939 6.9800291 15
5.9025316 -27.183514 7.5118322 15
6.1117234 6.0165153 -0.43056971 6
6.0623355 -16.266535 -0.25977755 7
6.175755 -3.9865263 -0.35246748 6
6.0755749 9.3063774 -0.18268374 7
6.1720238 9.3114052 0.20861898 8
6.115521 -24.675056 0.49625209 8
6.1706142 9.314723 0.60089344 9
6.1894889 -47.639885 0.91760468 8
6.1646438 9.3111086 0.99404252 10
6.1093564 -24.65996 1.384071 9
6.1695423 9.3238277 1.3916255 11
6.1614771 9.3170719 1.7898656 12
6.1049328 -24.651876 2.2747934 10
6.1669254 9.3307638 2.1966555 13
6.181088 -47.610115 2.5951843 9
6.1669946 9.3364944 2.6078255 14
6.1037436 -24.656858 3.1721628 11
6.1637912 9.3372879 3.0244608 15
6.1783128 -47.623608 4.280858 10
6.0975542 -24.641823 4.0744009 12
6.1712098 -47.604084 5.9738297 11
6.1654043 -47.594818 7.6818128 12
6.1576962 -47.571301 9.4054823 13
6.5701079 5.5968385 -0.42967951 6
6.5814672 -3.6083925 -0.35875198 6
6.471848 9.3207865 0.21367279 8
6.4871073 -24.660141 0.49914977 8
6.4667449 9.3186617 0.61176628 9
6.5713353 9.3295336 1.0181996 10
6.4814348 -24.647808 1.3898466 9
6.5660467 9.3272343 1.4222077 11
6.566493 9.3330965 1.8309844 12
6.4791837 -24.648453 2.2842102 10
6.462081 9.3330078 2.2312877 13
6.5647559 9.3414078 2.6634748 14
6.4729962 -24.634241 3.1822743 11
6.5631251 9.3445721 3.0893934 15
6.4698572 -24.631655 4.0890646 12
6.4666686 -24.628986 5.0058303 13
6.4628477 -24.624041 5.9344807 14
6.4587774 -24.618303 6.8777466 15
6.9917059 5.1365514 -0.42853591 6
6.9412985 -3.1817107 -0.36397487 6
7.0939422 9.3240461 -0.18654706 7
6.9930496 9.3343258 0.22260275 8
6.8622985 -24.649572 0.50226253 8
6.9849319 9.3284311 0.631531 9
6.8802691 -47.62167 0.9215712 8
6.9891171 9.3389988 1.0431654 10
6.8601332 -24.650488 1.3967949 9
6.984777 9.3381834 1.4563684 11
7.0955186 9.3509731 1.8863525 12
6.8528748 -24.633211 2.293071 10
6.9908986 9.3565912 2.298866 13
6.8756433 -47.62101 2.6034055 9
6.8778839 9.351182 2.7097411 14
6.8538876 -24.64559 3.1975248 11
6.9811912 9.3543148 3.1603692 15
6.8671665 -47.593903 4.2891312 10
6.8461599 -24.626747 4.105557 12
6.8439789 -24.627865 5.0264878 13
6.8599405 -47.575581 5.9845333 11
6.8389134 -24.618769 5.9577127 14
6.8317518 -24.602295 6.9014397 15
6.8532591 -47.561275 7.694047 12
6.8463364 -47.545647 9.4214649 13
7.3584976 4.6305175 -0.42635334 6
7.2668395 -2.7191746 -0.36903241 6
7.5797696 -2.2313421 -0.37518466 6
7.4268861 9.3400402 0.23012313 8
7.2425075 -24.646826 0.50566632 8
7.4304276 9.3493643 0.64954519 9
7.5738969 -47.606571 0.92581534 8
7.5448184 9.3597174 1.0780606 10
7.2335629 -24.624741 1.402469 9
7.5393124 9.3577986 1.5037154 11
7.4235535 9.3553953 1.921072 12
7.22962 -24.619635 2.3026302 10
7.4250836 9.3623123 2.3543084 13
7.5667558 -47.590305 2.6099262 9
7.3130679 9.3647356 2.7760711 14
7.5281796 9.3589745 2.8074479 14
7.2264972 -24.617361 3.2083991 11
7.418817 9.3645496 3.237272 15
7.56043 -47.579235 4.299686 10
7.2253757 -24.621946 4.1230464 12
7.4084082 -24.601212 5.0547471 13
7.5527124 -47.559608 5.9980979 11
7.2188516 -24.616899 5.9831829 14
7.5973001 -24.600029 6.0064354 14
7.3989978 -24.586792 6.9426208 15
7.5483065 -47.560986 7.7133136 12
7.5396914 -47.536259 9.4426842 13
7.9462695 3.5277488 -0.42105338 6
7.6847854 4.0963264 -0.42424041 6
7.6062088 -16.662081 -0.26911408 7
7.8333039 -1.7066362 -0.38028136 6
7.7638927 9.3430262 0.23603489 8
7.6210275 -24.628527 0.50888366 8
7.7643356 9.3483067 0.66270494 9
7.883697 9.3581314 1.0990758 10
7.6169381 -24.623207 1.4098657 9
7.8807783 9.3594627 1.5328519 11
7.8827682 9.3665133 1.9715749 12
7.6111388 -24.612411 2.3133414 10
7.7661166 9.3697653 2.3994906 13
7.998898 9.3723679 2.430608 13
7.7637029 9.3718481 2.8457782 14
7.8030686 -24.615421 3.2315221 11
7.7556138 9.3672028 3.2970121 15
7.7952743 -24.598385 4.1485233 12
7.9847956 -24.594193 5.0894809 13
7.9797101 -24.58642 6.0319276 14
7.9734664 -24.575214 6.9882483 15
8.3064442 2.3347578 -0.41383997 6
8.1704636 2.9445641 -0.41841504 6
8.0637264 -1.1587006 -0.38626167 6
8.2275124 -0.58434236 -0.39118758 6
8.2458401 9.3561764 -0.19247586 7
8.0098372 9.3612795 0.24056844 8
8.1989927 -24.614174 0.51425004 8
8.2436209 9.3629513 0.6826641 9
8.2708969 -47.595104 0.93035096 8
8.2483635 9.3729725 1.1231875 10
8.1942158 -24.607267 1.4208889 9
8.234684 9.3622103 1.5637535 11
8.1948309 -24.616333 2.331955 10
8.2450562 9.3786745 2.0128143 12
8.2632742 -47.577515 2.6180072 9
8.2354889 9.3726435 2.4623787 13
8.1147747 9.3746853 2.9012048 14
8.3789196 -24.590429 3.2532182 11
8.2360163 9.3830452 3.3871841 15
8.2575798 -47.571095 4.3117733 10
8.3708334 -24.574093 4.1758876 12
8.3704519 -24.58036 5.112412 13
8.2489223 -47.547802 6.0134916 11
8.369216 -24.584238 6.0617175 14
8.3593674 -24.563028 7.019681 15
8.2393341 -47.519379 7.7275381 12
8.2335329 -47.512974 9.4631748 13
8.4092989 0.49166715 -0.40040293 6
8.4381914 1.1053886 -0.40543368 6
8.4047089 1.7223259 -0.40995264 6
8.6263428 9.3754349 0.25176284 8
8.7835627 -24.598909 0.51988149 8
8.616992 9.3699226 0.69840091 9
8.4954557 9.3778696 1.1394889 10
8.7826509 -24.603233 1.4333364 9
8.4905939 9.3771753 1.5876827 11
8.7510891 9.3893719 1.6120856 11
8.77425 -24.586681 2.3485677 10
8.613059 9.3794708 2.0543656 12
8.6159458 9.3874435 2.5165367 13
8.4890738 9.3897505 2.9635603 14
8.7684307 -24.577383 3.2692406 11
8.6140985 9.3950243 3.4599648 15
8.7679787 -24.583122 4.1998215 12
8.7629147 -24.576056 5.1386094 13
8.7560654 -24.564096 6.088594 14
8.7490492 -24.551783 7.053134 15
9.0047979 9.3732414 0.25862658 8
9.1802931 -24.594425 0.52395034 8
9.0095873 9.3827076 0.71540624 9
8.9677706 -47.566277 0.93476981 8
9.0191145 9.39711 1.1752634 10
9.1730223 -24.58161 1.4410295 9
9.0090675 9.3912554 1.6356796 11
9.171032 -24.582911 2.3619719 10
9.0018139 9.3883295 2.1000073 12
8.9615154 -47.557373 2.6262691 9
9.0080662 9.4041929 3.0511565 14
9.1619778 -24.565392 3.2862394 11
9.0066481 9.4075212 3.5369565 15
8.9547968 -47.546093 4.3232822 10
9.1611528 -24.569912 4.2210469 12
9.1589088 -24.570715 5.165915 13
8.9491787 -47.540798 6.0308151 11
9.1499729 -24.553722 6.119431 14
9.1415548 -24.538218 7.0877109 15
8.9383774 -47.508244 7.7483945 12
8.9311123 -47.494686 9.4867182 13
9.2797089 -16.996094 -0.27928439 7
9.25457 -5.0611567 -0.13368435 7
9.2246656 -4.2188153 -0.12717636 7
9.5552473 9.3850822 -0.20053636 7
9.26651 -5.4175968 0.23910056 8
9.2570972 -5.0207582 0.23537879 8
9.2542763 -4.6396289 0.23209903 8
9.2321148 -4.2232633 0.22835997 8
9.2325335 -3.7524366 0.22494124 8
9.4215794 9.3913574 0.26648715 8
9.271348 -5.420619 0.61580855 9
9.263175 -5.0240412 0.60513198 9
9.2466078 -4.6359358 0.59474593 9
9.2403631 -4.3063145 0.58682168 9
9.2278948 -3.8274763 0.57593662 9
9.2332582 -3.5990143 0.57169229 9
9.279314 9.3891773 0.72718364 9
9.2794085 -5.4255133 0.99476814 10
9.2633848 -5.0244174 0.97624618 10
9.2453718 -4.635416 0.95891643 10
9.2422857 -4.267674 0.94469911 10
9.2172031 -3.7456286 0.9242512 10
9.2320356 -3.5984321 0.92075968 10
9.2726173 9.386919 1.1917291 10
9.2682467 -5.3309894 1.3685971 11
9.2576885 -4.9781208 1.3463345 11
9.2502594 -4.7206917 1.3307798 11
9.2575016 -4.2746859 1.3077792 11
9.2315006 -3.8288701 1.2826934 11
9.5986862 -3.5826473 1.3155832 11
9.5529861 9.3961773 1.2114023 10
9.2659025 -5.3298197 1.7504367 12
9.2721634 -4.9858775 1.7248874 12
9.2610455 -4.6433072 1.6982862 12
9.2417564 -4.2674685 1.6697195 12
9.2330427 -3.803514 1.7592487 12.333333
9.5473375 9.3951235 1.6858869 11
9.2763138 -5.336081 2.1394157 13
9.2656574 -4.982605 2.1042101 13
9.25422 -4.6400232 2.0715489 13
9.2449894 -4.2689486 2.0387676 13
9.2373161 -3.8568437 2.2499375 13.666667
9.587081 -3.5780587 2.0505068 13
9.2768211 9.4002314 2.1334887 12
9.2795191 -5.338078 2.5327287 14
9.26546 -4.9826732 2.4900267 14
9.2630529 -4.6444559 2.4536383 14
9.2442236 -4.2283587 2.5343523 14.333333
9.2390156 -3.8316019 2.7438257 15
9.5875168 -3.5780735 2.426172 14
9.4156971 9.4080448 2.6322947 13
9.2824259 -5.251524 2.9209783 15
9.2780972 -4.9895287 2.8862121 15
9.2642384 -4.6451578 2.8404496 15
9.2549305 -4.3939624 2.8086808 15
9.5825052 -3.5760679 2.8065279 15
9.4139938 9.411026 3.120646 14
9.2770243 9.4144878 3.5906262 15
9.5441599 9.4104519 3.6423175 15
9.5570269 -24.560284 5.193501 13
9.549881 -24.548609 6.1531777 14
9.6365051 -3.5972257 -0.12777585 7
9.6133184 -3.5884926 0.23205924 8
9.6207209 -3.5910943 0.59260798 9
9.8490295 9.4077625 0.75264204 9
9.6696138 -47.547344 0.9396078 8
9.6043749 -3.5848966 0.9528113 10
9.8405037 9.4040747 1.2317178 10
9.6134739 -3.5879827 1.6847563 12
9.8349514 9.4032364 1.7137266 11
9.9974403 -3.5677171 2.1271157 13
9.8400517 9.4125795 2.2020311 12
9.664381 -47.544178 2.6355081 9
9.999856 -3.5683899 2.5172651 14
9.8427439 9.4196854 2.695926 13
9.9972515 -3.5672812 2.9126253 15
9.8413916 9.4230003 3.1958559 14
9.6569223 -47.530167 4.3365755 10
9.6470137 -47.504257 6.0457168 11
9.6391706 -47.488674 7.7695837 12
9.6330633 -47.481865 9.5134373 13
10.023217 -3.5777366 0.24090007 8
10.139507 9.4055157 0.28004459 8
10.023608 -3.5777001 0.61437207 9
10.140477 9.41078 0.76565284 9
10.020899 -3.5765638 0.98906881 10
10.030956 -3.5799506 1.3677273 11
10.14185 9.4164371 1.2534871 10
10.008774 -3.5719125 1.7449329 12
10.132014 9.4117622 1.7428322 11
10.136302 9.4201832 2.2388649 12
10.134839 9.4233389 2.7395988 13
10.137656 9.430521 3.2487285 14
10.139458 9.436841 3.7663677 15
10.48583 -3.5732617 0.25096524 8
10.59883 9.4130087 0.28883436 8
10.470778 -3.5679557 0.63873905 9
10.606467 9.4242296 0.78703022 9
10.468687 -3.5670357 1.0282274 10
10.474229 -3.5686955 1.4211175 11
10.59631 9.4194889 1.2859148 10
10.464477 -3.5651801 1.8152995 12
10.596198 9.4237661 1.7889031 11
10.451231 -3.5604804 2.2125494 13
10.595406 9.4275169 2.2963822 12
10.4349 -3.5547345 2.6136212 14
10.441017 9.4313202 2.7864723 13
10.440042 -3.5562484 3.0263472 15
10.753986 9.4363899 2.8345501 13
10.59776 9.4386377 3.3316193 14
10.60159 9.4466438 3.8628521 15
11.129991 -17.315071 -0.2913903 7
11.079391 9.4170227 -0.21145567 7
10.961719 -3.5599458 0.26130626 8
11.076477 9.4188347 0.29804102 8
10.96596 -3.56106 0.66591293 9
10.947956 -3.5550001 1.0702901 10
11.079443 9.4256401 0.80862057 9
10.949017 -3.5550878 1.4785286 11
11.082405 9.4324598 1.3216479 10
10.946701 -3.5540826 1.8899262 12
11.081716 9.4362154 1.8377962 11
10.938662 -3.5512309 2.3046765 13
11.07343 9.4335632 2.3570304 12
10.915336 -3.5434473 2.7208583 14
10.909415 -3.5412705 3.1472363 15
11.086062 9.4487162 2.8870149 13
11.088967 9.4556799 3.4227517 14
11.077625 9.4506149 3.9627357 15
11.427442 9.4373665 0.30499145 8
11.426388 9.4407749 0.82510751 9
11.438999 9.455451 1.3489437 10
11.415115 9.444459 2.4016764 12
11.426131 9.4579515 2.9409027 13
11.422997 9.4598408 3.484539 14
11.419115 9.4611864 4.0368013 15
11.782962 9.4620457 1.9103856 11
13.142826 -17.548216 -0.30467653 7
15.355355 -17.707293 -0.31983656 7
17.807817 -17.788517 -0.33746031 7
19.253895 -47.324921 1.0255598 8
19.248104 -47.32246 2.8116121 9
19.234129 -47.299973 4.6022801 10
19.225145 -47.289806 6.4040947 11
19.212978 -47.271919 8.2195225 12
19.992851 -47.243275 8.266346 12
20.037975 -47.303974 1.0340261 8
20.017618 -47.267315 2.8278859 9
20.013578 -47.269173 4.6295147 10
20.002151 -47.253666 6.4401703 11
20.49419 -17.733051 -0.35724437 7
20.785995 -47.225018 8.3172569 12
20.929678 -31.516005 0.78804183 8
20.906036 -30.525988 0.77261162 8
20.827581 -47.275204 1.0426271 8
20.998137 -33.665775 0.82226437 8
20.964661 -32.567753 0.80472922 8
21.003389 -33.679874 2.2106357 9
20.984404 -32.603725 2.1615326 9
20.94767 -31.54809 2.113189 9
20.926199 -30.560127 2.0687866 9
20.816671 -47.261406 2.8478954 9
20.983423 -32.60759 3.523021 10
20.956865 -31.566977 3.4446344 10
20.937555 -30.58145 3.3713813 10
21.016123 -33.705994 3.6067343 10
20.815676 -47.270126 4.6611576 10
20.962643 -31.58077 4.7852435 11
20.937174 -30.585699 4.6813407 11
21.018158 -33.715015 5.0111942 11
20.993956 -32.629353 4.896049 11
21.007822 -32.656342 6.2839165 12
20.971682 -31.599504 6.1397109 12
20.949696 -30.608805 6.0068359 12
20.801165 -47.248276 6.4822183 11
21.032236 -33.743374 6.432374 12
20.989239 -31.63113 7.5140815 13
21.04092 -33.763176 7.8699145 13
21.01437 -32.672039 7.6870141 13
21.032619 -32.70599 9.1158915 14
20.992302 -31.641027 8.9039907 14
21.064098 -33.806286 9.3353834 14
21.402502 -30.312302 0.77681035 8
21.379957 -30.285007 2.0726039 9
21.365627 -30.269341 3.3722911 10
21.363579 -30.271067 4.681478 11
21.358578 -30.268658 6.0014596 12
21.340916 -30.24839 7.3317814 13
21.587143 -47.2034 8.3699293 12
21.332062 -30.240635 8.6823349 14
21.641682 -47.279804 1.0522927 8
21.62664 -47.257568 2.86887 9
21.615782 -47.244476 4.6915188 10
21.998711 -30.24791 6.0611792 12
21.600138 -47.221016 6.5231118 11
21.979265 -30.225805 7.4038639 13
21.971476 -30.219753 8.7678423 14
22.024506 -30.265364 0.78554666 8
22.026491 -30.272533 2.0950637 9
22.005459 -30.248138 3.4066379 10
22.006153 -30.253593 4.7289963 11
22.695511 -30.268021 0.79591501 8
22.448946 -47.247211 1.0614628 8
22.685205 -30.258629 2.1183143 9
22.431633 -47.221031 2.8887062 9
22.668604 -30.240858 3.4439816 10
22.41864 -47.203968 4.7217522 10
22.658178 -30.231346 4.7777205 11
22.66325 -30.242502 6.126503 12
22.411097 -47.198425 6.5665312 11
22.635366 -30.209814 7.4806123 13
22.401514 -47.188671 8.4262409 12
22.626863 -30.202999 8.8581572 14
23.473 -17.539824 -0.380146 7
23.267979 -47.217941 1.0710434 8
23.363022 -30.247234 0.80603397 8
23.349104 -30.233442 2.1416914 9
23.255007 -47.201527 2.9104493 9
23.34178 -30.228193 3.4822121 10
23.242865 -47.186821 4.7557149 10
23.333115 -30.221233 4.8304152 11
23.317625 -30.205488 6.1880178 12
23.240568 -47.192154 6.6141739 11
23.309586 -30.199421 7.5619588 13
23.225857 -47.172386 8.4847708 12
23.302227 -30.194296 8.9546366 14
23.997086 -30.187136 7.6461926 13
23.98386 -30.174789 9.0518694 14
24.110081 -47.212666 1.0815208 8
