# .PCD v0.7 - Point Cloud Data file format
VERSION 0.7
FIELDS x y z intensity
SIZE 4 4 4 4
TYPE F F F F
COUNT 1 1 1 1
WIDTH 1339
HEIGHT 1
VIEWPOINT 0 0 0 1 0 0 0
POINTS 1339
DATA ascii
-0.24315564 -2.9476578 -0.31640169 0
-0.13794138 -2.9630315 -0.31750888 0
-0.05315578 -2.9723001 -0.3182857 0
0.038778186 -2.9611142 -0.32047877 0
-1.4305984 -2.859144 -0.3011325 0
-1.3371474 -2.8397849 -0.30221847 0
-1.2452825 -2.8535676 -0.30332819 0
-1.1437701 -2.8400414 -0.30503017 0
-1.0445883 -2.8878856 -0.3056764 0
-0.95557469 -2.8304274 -0.30731925 0
-0.85409069 -2.8640499 -0.30805787 0
-0.7668851 -2.8410923 -0.30935839 0
-0.65324765 -2.8485851 -0.31124011 0
-0.55163312 -2.8740864 -0.31237543 0
-0.45721018 -2.814971 -0.31453779 0
-0.3559964 -2.8272564 -0.31475633 0
-0.25619584 -2.8560433 -0.31688106 0
-0.15404931 -2.8681195 -0.31772926 0
-0.051531665 -2.8815236 -0.31882119 0
0.030368019 -2.8517857 -0.32084149 0
-1.5547612 -2.7229753 -0.30032861 0
-1.4739302 -2.7620087 -0.3005144 0
-1.3556645 -2.7252812 -0.30235502 0
-1.2638608 -2.7514203 -0.30395401 0
-1.1505742 -2.7429526 -0.30568814 0
-1.0350336 -2.7578161 -0.30609545 0
-0.94566065 -2.7362189 -0.3078545 0
-0.84843397 -2.7723844 -0.30872974 0
-0.7472735 -2.7175343 -0.31038424 0
-0.65288043 -2.7562838 -0.31203669 0
-0.55417508 -2.7797711 -0.31269357 0
-0.46151319 -2.7187071 -0.3149049 0
-0.3446773 -2.7373359 -0.31534481 0
-0.24809667 -2.765729 -0.31748492 0
-0.14917874 -2.7774651 -0.31823573 0
-0.042944048 -2.7616384 -0.31965849 0
0.022823533 -2.742409 -0.32111928 0
-1.5248986 -2.6267223 -0.30101854 0
-1.4528552 -2.6760912 -0.30154958 0
-1.3547251 -2.6286006 -0.30318636 0
-1.2767497 -2.6617689 -0.30351499 0
-1.1530756 -2.6422403 -0.30603591 0
-1.0400283 -2.6548283 -0.30661035 0
-0.95251167 -2.6333296 -0.30814028 0
-0.85982305 -2.6722088 -0.30912998 0
-0.74227744 -2.6257992 -0.31111103 0
-0.6498515 -2.6588519 -0.31236452 0
-0.55516028 -2.6841576 -0.31300354 0
-0.44637039 -2.6295149 -0.31565028 0
-0.35266283 -2.6479268 -0.31623542 0
-0.25824791 -2.6657405 -0.31716886 0
-0.14249635 -2.6528404 -0.31921789 0
-0.050837446 -2.6266594 -0.32024664 0
0.039462823 -2.623143 -0.32213587 0
0.15933891 -2.6152985 -0.32173526 0
0.25413218 -2.6215901 -0.32340744 0
0.34971753 -2.6257627 -0.32527173 0
0.44359422 -2.6130812 -0.32544413 0
0.5409584 -2.6148601 -0.32850575 0
0.65648144 -2.6044922 -0.32997012 0
-1.5539198 -2.5624969 -0.30044508 0
-1.436537 -2.5581691 -0.30281705 0
-1.3467939 -2.5237675 -0.30331129 0
-1.2577639 -2.5746143 -0.30441913 0
-1.1521845 -2.5406423 -0.30655655 0
-1.0445724 -2.5581186 -0.30780265 0
-0.93861884 -2.5381377 -0.30850932 0
-0.83618575 -2.5564935 -0.31041184 0
-0.74913049 -2.5447247 -0.31095266 0
-0.64648843 -2.5653751 -0.31303191 0
-0.53426772 -2.5430233 -0.31400076 0
-0.44912174 -2.5355606 -0.31618154 0
-0.35293835 -2.5452521 -0.31695324 0
-0.24804044 -2.5600994 -0.31783873 0
-0.1380915 -2.5720556 -0.31918725 0
-0.045651522 -2.5525827 -0.32074371 0
0.045751989 -2.5555601 -0.32219243 0
0.15601526 -2.5606976 -0.32205784 0
0.24883255 -2.5669818 -0.32383034 0
0.34031749 -2.5558126 -0.32550198 0
0.44993761 -2.5398867 -0.32604462 0
0.5610823 -2.5292828 -0.32886103 0
0.6675331 -2.5452244 -0.33055604 0
0.7403906 -2.5489173 -0.33088675 0
0.85504949 -2.5688484 -0.33269501 0
0.95798856 -2.5344002 -0.33384383 0
1.0606532 -2.5116339 -0.3355858 0
-1.6521327 -2.4276874 -0.30025208 0
-1.5447544 -2.454226 -0.30144459 0
-1.4490502 -2.4555151 -0.3023749 0
-1.3425438 -2.4312513 -0.30471852 0
-1.2435644 -2.4557724 -0.30517799 0
-1.1450926 -2.4319601 -0.30630037 0
-1.0458035 -2.4439263 -0.30848062 0
-0.94162065 -2.4382703 -0.30907074 0
-0.83437347 -2.4419827 -0.31091031 0
-0.7366966 -2.4248173 -0.31174704 0
-0.64378524 -2.4616358 -0.31365663 0
-0.56648421 -2.4704819 -0.31456128 0
-0.45178759 -2.4479086 -0.31624767 0
-0.35175771 -2.4399569 -0.31751511 0
-0.23695141 -2.4450369 -0.31871492 0
-0.14926642 -2.4521141 -0.31984484 0
-0.061878052 -2.4693081 -0.32102093 0
0.044227224 -2.4703372 -0.32246813 0
0.14974345 -2.4579539 -0.32285875 0
0.25639474 -2.4616888 -0.32508129 0
0.36394668 -2.4634244 -0.32617864 0
0.45325917 -2.456646 -0.3263348 0
0.54251558 -2.4455688 -0.32886294 0
0.64998227 -2.4314485 -0.33047682 0
0.76534754 -2.4383874 -0.33246395 0
0.85505891 -2.4741342 -0.33330333 0
0.94191015 -2.4387951 -0.33339828 0
1.0353509 -2.4196188 -0.33526108 0
1.1401494 -2.4667385 -0.33590981 0
1.2583791 -2.4415114 -0.33846709 0
1.3450569 -2.4085836 -0.33965912 0
-1.727299 -2.3881977 -0.30001909 0
-1.6383468 -2.3348262 -0.30125341 0
-1.5432203 -2.3389277 -0.30183241 0
-1.45441 -2.3477194 -0.30296692 0
-1.351019 -2.3528137 -0.30502057 0
-1.2620363 -2.3649402 -0.30517584 0
-1.1390181 -2.3315334 -0.30677441 0
-1.0338969 -2.3380249 -0.30987185 0
-0.94022477 -2.3346372 -0.30956078 0
-0.85504371 -2.3639252 -0.3106828 0
-0.74609262 -2.357528 -0.31212619 0
-0.64391184 -2.3416073 -0.31391022 0
-0.54387563 -2.3720212 -0.31539321 0
-0.46202064 -2.3175046 -0.31700915 0
-0.3612375 -2.3296893 -0.3180984 0
-0.26243263 -2.3564484 -0.31894222 0
-0.1610232 -2.3657134 -0.3199847 0
-0.058933981 -2.3514781 -0.32195511 0
0.042114515 -2.3519871 -0.32281983 0
0.15134117 -2.3482175 -0.32380095 0
0.24413948 -2.3438346 -0.32543004 0
0.3404187 -2.361089 -0.32658058 0
0.44316337 -2.3534091 -0.327223 0
0.55873543 -2.3585732 -0.3296887 0
0.64514703 -2.3460402 -0.33069339 0
0.75009269 -2.3313127 -0.33283281 0
0.85926074 -2.375663 -0.33302736 0
0.94943213 -2.3573844 -0.3337149 0
1.0368868 -2.3302529 -0.33608022 0
1.1411165 -2.3497043 -0.33649817 0
1.2499632 -2.3423059 -0.33893368 0
1.356856 -2.349848 -0.33975124 0
1.4461812 -2.3571537 -0.34173959 0
1.5271255 -2.3264072 -0.34307599 0
-1.7491218 -2.2446389 -0.30041185 0
-1.6223432 -2.2430837 -0.30277869 0
-1.5474553 -2.2504909 -0.30279121 0
-1.4397669 -2.2516098 -0.30394337 0
-1.3477287 -2.2468491 -0.30389273 0
-1.2534682 -2.2700338 -0.30639338 0
-1.1432401 -2.2260079 -0.30801329 0
-1.0656494 -2.2631581 -0.30799398 0
-0.95087641 -2.2484298 -0.31057793 0
-0.83698863 -2.2632725 -0.31127134 0
-0.74330163 -2.2445776 -0.31274965 0
-0.65093464 -2.2415972 -0.3137081 0
-0.54415804 -2.2603548 -0.31568241 0
-0.4455398 -2.2348411 -0.3179819 0
-0.34821793 -2.2457421 -0.31847325 0
-0.25307128 -2.2723744 -0.31969672 0
-0.14610443 -2.2629087 -0.32091609 0
-0.056004599 -2.2348635 -0.32257497 0
0.04000666 -2.2347727 -0.32326931 0
0.14245202 -2.2365139 -0.32422927 0
0.26423573 -2.227562 -0.3273598 0
0.35722122 -2.2401772 -0.32640272 0
0.45391589 -2.2764096 -0.32704997 0
0.53450012 -2.2563252 -0.32982486 0
0.64061803 -2.2656391 -0.33158731 0
0.73945302 -2.2429407 -0.33298364 0
0.85163271 -2.2528598 -0.33313853 0
0.96767884 -2.2614846 -0.33521858 0
1.0526125 -2.2353086 -0.33632237 0
1.1393732 -2.2499425 -0.33832464 0
1.2411944 -2.247757 -0.33900931 0
1.3471518 -2.2577946 -0.34034476 0
1.4518619 -2.2348702 -0.34237203 0
1.5546074 -2.2669659 -0.34278995 0
1.6504625 -2.2478216 -0.34443232 0
1.7278351 -2.2173333 -0.34515259 0
-1.826383 -2.1783652 -0.30013037 0
-1.7372555 -2.1333869 -0.30112872 0
-1.6453379 -2.1643829 -0.3016527 0
-1.5615072 -2.1591225 -0.30293748 0
-1.4512039 -2.1324365 -0.30458707 0
-1.3454274 -2.1375287 -0.30607897 0
-1.2502198 -2.1537797 -0.30693036 0
-1.163528 -2.1676807 -0.30750194 0
-1.0544735 -2.1584878 -0.30879101 0
-0.96204257 -2.1480708 -0.3115209 0
-0.85274076 -2.1620772 -0.31156608 0
-0.74904495 -2.1181252 -0.31349209 0
-0.65808398 -2.1504388 -0.31400213 0
-0.55320269 -2.1552548 -0.31604487 0
-0.45866188 -2.1407654 -0.31825292 0
-0.35097688 -2.1609604 -0.31893772 0
-0.23400077 -2.1558344 -0.32084432 0
-0.1521841 -2.1428227 -0.32083553 0
-0.053386014 -2.1299906 -0.32344028 0
0.053331394 -2.1284492 -0.3234818 0
0.161126 -2.1408405 -0.32591003 0
0.25420049 -2.1429899 -0.32784429 0
0.34521082 -2.1245701 -0.32710466 0
0.44445598 -2.1486228 -0.32738593 0
0.54577744 -2.1390049 -0.33056319 0
0.64425915 -2.1601539 -0.33281463 0
0.75688314 -2.1405346 -0.33269393 0
0.84551364 -2.1443355 -0.33351937 0
0.92571801 -2.1634152 -0.33537209 0
1.0485089 -2.1461325 -0.33735311 0
1.146405 -2.1482339 -0.33815598 0
1.2471207 -2.1482022 -0.33965689 0
1.35228 -2.1830287 -0.34089115 0
1.440775 -2.1499319 -0.34252918 0
1.551074 -2.1550934 -0.3437084 0
1.6371336 -2.1322353 -0.34501374 0
1.7519591 -2.1701944 -0.34522501 0
1.8518153 -2.1299374 -0.34768334 0
-1.8524656 -2.026062 -0.30063713 0
-1.7504975 -2.047621 -0.30209017 0
-1.6653945 -2.0753467 -0.30225214 0
-1.5534977 -2.0536156 -0.30400878 0
-1.4301255 -2.0380862 -0.30611822 0
-1.3634126 -2.0663545 -0.30607486 0
-1.2523489 -2.047684 -0.30692518 0
-1.1341689 -2.042239 -0.30950883 0
-1.0476533 -2.0690484 -0.30970836 0
-0.96129155 -2.0413172 -0.31094733 0
-0.84284794 -2.0585346 -0.31269714 0
-0.74936104 -2.0263286 -0.31382537 0
-0.64802909 -2.0646734 -0.31465268 0
-0.55987853 -2.0360093 -0.31685528 0
-0.45464247 -2.0506215 -0.31856811 0
-0.35187826 -2.0721991 -0.31901479 0
-0.25999457 -2.0351539 -0.32145038 0
-0.1524815 -2.0258989 -0.32181928 0
-0.051263005 -2.0451612 -0.32404515 0
0.051197283 -2.0432534 -0.32376209 0
0.15475486 -2.0562451 -0.32662013 0
0.23909399 -2.0505998 -0.32845691 0
0.3455964 -2.0353203 -0.32701844 0
0.44968203 -2.0269992 -0.3288725 0
0.54679191 -2.0281909 -0.33076793 0
0.64094704 -2.0289872 -0.33361232 0
0.7420873 -2.0517633 -0.33216795 0
0.85083318 -2.0283155 -0.33480054 0
0.9543342 -2.0646594 -0.33634174 0
1.0565639 -2.0499229 -0.33812785 0
1.1525626 -2.0524554 -0.3390277 0
1.247025 -2.0456965 -0.33962384 0
1.3459911 -2.0592775 -0.34169418 0
1.4563637 -2.0441828 -0.34315848 0
1.5561842 -2.0571008 -0.34445947 0
1.6539444 -2.0411174 -0.34441134 0
1.7491764 -2.0561521 -0.34684706 0
1.8496857 -2.0522971 -0.34733909 0
1.9388508 -2.0507429 -0.34847689 0
2.0179553 -2.0252924 -0.35105109 0
-1.8461692 -1.9620354 -0.30059955 0
-1.7740896 -1.9683845 -0.30108172 0
-1.6628486 -1.9547997 -0.30294836 0
-1.5467252 -1.9351026 -0.30491474 0
-1.455389 -1.9675031 -0.30448908 0
-1.3539031 -1.9591984 -0.30694485 0
-1.251938 -1.9272041 -0.3078168 0
-1.149986 -1.9486976 -0.30849013 0
-1.0489537 -1.9657695 -0.31052411 0
-0.95742476 -1.9248205 -0.31185251 0
-0.85364991 -1.9560568 -0.31337762 0
-0.76002353 -1.9270179 -0.31398383 0
-0.63806581 -1.9505259 -0.31570256 0
-0.53203797 -1.9347728 -0.31783417 0
-0.44601333 -1.945204 -0.31856605 0
-0.34945849 -1.9720446 -0.32015631 0
-0.24628659 -1.956543 -0.32173893 0
-0.13807824 -1.9563919 -0.3225773 0
-0.048802372 -1.9469367 -0.32426769 0
0.049053051 -1.9567438 -0.32459238 0
0.14730117 -1.9561304 -0.32685292 0
0.25126517 -1.9466285 -0.32791534 0
0.35848722 -1.9436504 -0.32840827 0
0.45160264 -1.9565767 -0.33005515 0
0.55423516 -1.9603742 -0.33259654 0
0.66301888 -1.9479574 -0.33314916 0
0.73847866 -1.9535409 -0.33200312 0
0.85250908 -1.9407278 -0.33592257 0
0.95352966 -1.9247227 -0.33722296 0
1.0471435 -1.962252 -0.33869806 0
1.1419333 -1.9349948 -0.33905107 0
1.248174 -1.9517159 -0.34041545 0
1.3531758 -1.9384885 -0.34265426 0
1.4501733 -1.945716 -0.34384775 0
1.5578825 -1.9700327 -0.34392452 0
1.6485729 -1.9564844 -0.34660879 0
1.7485656 -1.9400932 -0.34673643 0
1.8673533 -1.956274 -0.34874502 0
1.955855 -1.9537067 -0.35001436 0
2.0588796 -1.9512165 -0.35107535 0
2.1236818 -1.9278203 -0.35216895 0
-1.8446574 -1.8512472 -0.30067638 0
-1.7537671 -1.8639226 -0.30216527 0
-1.6394843 -1.8455263 -0.30401719 0
-1.5320276 -1.8449707 -0.30526984 0
-1.4409441 -1.8581458 -0.30660486 0
-1.3476124 -1.8631543 -0.3071833 0
-1.2465757 -1.8316841 -0.30847129 0
-1.1589875 -1.8509054 -0.30860889 0
-1.0603776 -1.8571459 -0.31044504 0
-0.94643682 -1.8364961 -0.31288582 0
-0.84387469 -1.8427807 -0.31394839 0
-0.7504158 -1.8328741 -0.31478241 0
-0.6600244 -1.8664085 -0.31590378 0
-0.5522598 -1.8632523 -0.31630513 0
-0.45885509 -1.8478162 -0.31881168 0
-0.3561101 -1.8551369 -0.32075953 0
-0.23762172 -1.8503671 -0.32146016 0
-0.1580549 -1.850206 -0.32297477 0
-0.058993056 -1.829632 -0.32466495 0
0.046114571 -1.8393774 -0.32573766 0
0.15187405 -1.8400074 -0.32777852 0
0.25707388 -1.8302128 -0.32791141 0
0.34040961 -1.8462759 -0.32911935 0
0.44448125 -1.8372873 -0.33066776 0
0.5381915 -1.8531007 -0.33323058 0
0.65317792 -1.8470118 -0.33325848 0
0.75348985 -1.84828 -0.33498365 0
0.84379184 -1.86044 -0.33575565 0
0.95871097 -1.8342844 -0.33820632 0
1.045117 -1.8645227 -0.33858076 0
1.1487498 -1.8178169 -0.33900785 0
1.2483011 -1.8627014 -0.34168804 0
1.3417646 -1.845602 -0.34328941 0
1.4520694 -1.8361766 -0.34391981 0
1.5505031 -1.8762187 -0.34508395 0
1.6472754 -1.8542569 -0.34614071 0
1.747347 -1.8305618 -0.34775838 0
1.835544 -1.8686804 -0.3488555 0
1.94769 -1.8458171 -0.35068291 0
2.0458257 -1.8395556 -0.35132089 0
2.1395249 -1.860041 -0.35151008 0
2.2337008 -1.8322595 -0.35473895 0
-1.9005119 -1.7005936 -0.30098253 0
-1.8502837 -1.7536346 -0.30090272 0
-1.7369732 -1.7431906 -0.30259526 0
-1.6592544 -1.763391 -0.30387717 0
-1.5447978 -1.7559661 -0.30473194 0
-1.4581149 -1.7646312 -0.30648598 0
-1.361097 -1.746837 -0.30774981 0
-1.2491941 -1.7480198 -0.30923408 0
-1.1395938 -1.7381833 -0.30962673 0
-1.041749 -1.7653604 -0.31060982 0
-0.94826549 -1.7270312 -0.31279948 0
-0.85815221 -1.7692906 -0.3142564 0
-0.74437392 -1.7572603 -0.31572792 0
-0.64870995 -1.7543423 -0.31646168 0
-0.54616958 -1.7401003 -0.31733853 0
-0.44206372 -1.7540058 -0.31976765 0
-0.34114262 -1.7639602 -0.32136738 0
-0.25685894 -1.7384802 -0.32090172 0
-0.15587053 -1.7389593 -0.32359755 0
-0.056458987 -1.7508827 -0.32495245 0
0.044155583 -1.7611332 -0.32650119 0
0.14537832 -1.7612256 -0.32798317 0
0.24610771 -1.7521093 -0.32827055 0
0.34799296 -1.745505 -0.33010697 0
0.45137361 -1.7381687 -0.33316696 0
0.55828851 -1.7349805 -0.33365107 0
0.65179724 -1.7623566 -0.33364767 0
0.76249993 -1.7403405 -0.33532137 0
0.84929448 -1.7704684 -0.33612406 0
0.94354004 -1.7379564 -0.33826953 0
1.0374607 -1.7579097 -0.33869901 0
1.1428283 -1.7452452 -0.34011933 0
1.248178 -1.7608371 -0.34263411 0
1.3372086 -1.7379731 -0.34360167 0
1.4532293 -1.7331041 -0.34481561 0
1.5506949 -1.7709843 -0.34600928 0
1.645411 -1.7486398 -0.34672412 0
1.742005 -1.7232736 -0.34844923 0
1.8478916 -1.7511771 -0.34971827 0
1.9735721 -1.7407576 -0.35046324 0
2.0757418 -1.7529471 -0.3517769 0
2.159246 -1.7627963 -0.35411528 0
2.2657986 -1.7611393 -0.35491911 0
2.3302143 -1.7237642 -0.35588965 0
-1.9311241 -1.6547194 -0.30015886 0
-1.8284266 -1.6361022 -0.30163634 0
-1.7569686 -1.6534624 -0.30215281 0
-1.6598539 -1.6497763 -0.30397406 0
-1.5567406 -1.654442 -0.30591369 0
-1.4500012 -1.6558398 -0.30654728 0
-1.3509562 -1.6349469 -0.3078973 0
-1.2586823 -1.6554741 -0.31019294 0
-1.1409274 -1.6339087 -0.31099162 0
-1.0436174 -1.6510981 -0.31047094 0
-0.94811267 -1.6658013 -0.31254089 0
-0.85240787 -1.654146 -0.31474981 0
-0.76063299 -1.6456375 -0.31570867 0
-0.65010595 -1.654824 -0.31695524 0
-0.55748886 -1.6380075 -0.31797776 0
-0.44602567 -1.6688021 -0.31997642 0
-0.35732406 -1.6370139 -0.32151845 0
-0.24651885 -1.6249095 -0.32113856 0
-0.14756016 -1.6459914 -0.32419044 0
-0.053480018 -1.6591854 -0.32535264 0
0.046175104 -1.6637629 -0.32721215 0
0.15299657 -1.6676191 -0.32815418 0
0.25692156 -1.6566944 -0.32906803 0
0.35402608 -1.6520144 -0.33184302 0
0.44798708 -1.6467562 -0.33383146 0
0.54925573 -1.6265886 -0.33375821 0
0.63972819 -1.6358179 -0.33512175 0
0.74478948 -1.6421754 -0.33520079 0
0.84420365 -1.6545956 -0.33699712 0
0.95450312 -1.6440698 -0.3386099 0
1.0462352 -1.6519823 -0.33935404 0
1.1566892 -1.6483692 -0.34136626 0
1.2532836 -1.6566488 -0.34296131 0
1.3556421 -1.6611761 -0.3433795 0
1.4337866 -1.6374348 -0.34535953 0
1.5540557 -1.6515162 -0.34593737 0
1.664085 -1.6700258 -0.34716281 0
1.7273829 -1.6370251 -0.34991059 0
1.8258629 -1.6574768 -0.35020187 0
1.9475832 -1.644757 -0.35097224 0
2.05703 -1.6628193 -0.35309514 0
2.157866 -1.6692252 -0.35357657 0
2.2514286 -1.6653686 -0.35510844 0
2.3577251 -1.6587353 -0.3569032 0
2.4190314 -1.6336153 -0.35840446 0
-2.016964 -1.5601364 -0.30077657 0
-1.9390414 -1.5254468 -0.3016611 0
-1.8715311 -1.5609421 -0.30130032 0
-1.7736689 -1.5643721 -0.30283985 0
-1.6565826 -1.5520281 -0.3047308 0
-1.5555049 -1.5611086 -0.30600336 0
-1.4424698 -1.5550287 -0.30738711 0
-1.3392303 -1.5293291 -0.30797631 0
-1.2395775 -1.5414106 -0.30994505 0
-1.1649791 -1.5631168 -0.31108269 0
-1.0435716 -1.5523676 -0.31248778 0
-0.94596338 -1.5521237 -0.31319019 0
-0.84788436 -1.5620605 -0.31415266 0
-0.74982768 -1.5348724 -0.31634039 0
-0.6400941 -1.5431368 -0.31794256 0
-0.54631793 -1.5349411 -0.31863216 0
-0.44934174 -1.573112 -0.32037416 0
-0.34224117 -1.5431561 -0.32240072 0
-0.25906613 -1.5472184 -0.32166472 0
-0.14948896 -1.5425489 -0.32408583 0
-0.050271899 -1.5615909 -0.32626098 0
0.050189652 -1.5604533 -0.32705957 0
0.15149024 -1.5631106 -0.32866019 0
0.25253046 -1.5540645 -0.32987514 0
0.35302633 -1.539299 -0.33129096 0
0.45585647 -1.5512742 -0.33308059 0
0.53953189 -1.5485622 -0.33440733 0
0.65656239 -1.5546455 -0.33523634 0
0.74064666 -1.5439235 -0.33517173 0
0.84695703 -1.5339129 -0.33841413 0
0.94955027 -1.5574856 -0.33907211 0
1.0488942 -1.5412592 -0.33977255 0
1.1433953 -1.5339892 -0.34165543 0
1.2451985 -1.551558 -0.34327295 0
1.3626993 -1.5561684 -0.34480789 0
1.4609632 -1.5662694 -0.34548354 0
1.5390866 -1.550526 -0.3464815 0
1.6444887 -1.5511767 -0.34915662 0
1.7639859 -1.5558884 -0.34925574 0
1.8596526 -1.563058 -0.34981856 0
1.9350145 -1.541458 -0.35229123 0
2.0484488 -1.5611773 -0.35243773 0
2.1569545 -1.548308 -0.35477683 0
2.2643235 -1.5528086 -0.35627168 0
2.3732495 -1.5537134 -0.3577427 0
2.4759371 -1.5582917 -0.35933101 0
-2.1469512 -1.4723632 -0.30085391 0
-2.0329168 -1.4373665 -0.30153134 0
-1.9686816 -1.4470584 -0.30075768 0
-1.8554502 -1.4565127 -0.30243284 0
-1.7499597 -1.4566712 -0.30343056 0
-1.6480387 -1.4535661 -0.30501047 0
-1.5477448 -1.4460416 -0.30674753 0
-1.4480122 -1.4532224 -0.30819166 0
-1.3382469 -1.4222263 -0.31016216 0
-1.2642251 -1.4570888 -0.30888245 0
-1.1483939 -1.4523773 -0.31176364 0
-1.0582745 -1.4459121 -0.31299838 0
-0.96296799 -1.4414108 -0.31443739 0
-0.85263938 -1.4685971 -0.3143056 0
-0.75199586 -1.437994 -0.31656218 0
-0.66118157 -1.4718027 -0.31735548 0
-0.55254114 -1.4307373 -0.31951183 0
-0.44455856 -1.4526737 -0.32209733 0
-0.35614571 -1.441244 -0.32264146 0
-0.24701469 -1.4549127 -0.32341778 0
-0.13514508 -1.4408607 -0.32476953 0
-0.047720611 -1.4377583 -0.32735321 0
0.046223503 -1.4376076 -0.32696828 0
0.14860521 -1.4386452 -0.32911548 0
0.24359496 -1.4342533 -0.33026603 0
0.35550591 -1.4490798 -0.33259711 0
0.45341668 -1.4442189 -0.33294463 0
0.5534786 -1.4465376 -0.33390212 0
0.6485287 -1.4575086 -0.33491284 0
0.76471466 -1.4402483 -0.33759952 0
0.85824126 -1.4700274 -0.33830264 0
0.94382119 -1.4530361 -0.33944374 0
1.040216 -1.4381536 -0.34000096 0
1.1523348 -1.4358323 -0.34263676 0
1.2585734 -1.4581676 -0.343894 0
1.3516183 -1.4571712 -0.34442845 0
1.4499733 -1.4552031 -0.34543085 0
1.5505469 -1.4569807 -0.34825107 0
1.6519145 -1.4417371 -0.34806776 0
1.7565154 -1.4618874 -0.34888723 0
1.8571389 -1.4579332 -0.35102117 0
1.9560992 -1.4615754 -0.3518326 0
2.0458891 -1.454022 -0.35382137 0
2.131814 -1.4396486 -0.3550221 0
2.2269933 -1.4579639 -0.35621405 0
2.3469632 -1.4422215 -0.35745928 0
2.448076 -1.4564623 -0.35879889 0
2.5393841 -1.4499402 -0.35921717 0
-2.0403106 -1.3568698 -0.30176857 0
-1.9331977 -1.3461788 -0.30228746 0
-1.8280669 -1.3524296 -0.3033222 0
-1.7345252 -1.341669 -0.30460522 0
-1.6451602 -1.3495802 -0.30497396 0
-1.5485628 -1.3462497 -0.30700499 0
-1.4403946 -1.3417339 -0.3089169 0
-1.368835 -1.3562683 -0.3095299 0
-1.2555931 -1.3536623 -0.31085408 0
-1.1477164 -1.3492861 -0.31201962 0
-1.0455292 -1.3417393 -0.31460038 0
-0.94457626 -1.331354 -0.31519949 0
-0.8567189 -1.3683841 -0.3157891 0
-0.75816381 -1.3500535 -0.31605437 0
-0.63751608 -1.3607856 -0.31786063 0
-0.53430402 -1.3422873 -0.32126719 0
-0.45207295 -1.3338653 -0.32234052 0
-0.34541118 -1.3492007 -0.32387978 0
-0.25142673 -1.3628331 -0.32438749 0
-0.16380154 -1.3713518 -0.32477152 0
-0.065124497 -1.36401 -0.32571268 0
0.037106421 -1.3458499 -0.32773063 0
0.15066685 -1.3522307 -0.32907385 0
0.26728854 -1.3616517 -0.33071953 0
0.34500071 -1.369997 -0.33129227 0
0.4452405 -1.3627005 -0.33319977 0
0.55073994 -1.3393255 -0.33419126 0
0.63602048 -1.3341619 -0.33583328 0
0.74286538 -1.345268 -0.33792031 0
0.83613461 -1.3497934 -0.33881369 0
0.9508391 -1.3460845 -0.33940056 0
1.0594772 -1.3599286 -0.34150064 0
1.1431382 -1.343771 -0.34311014 0
1.2470341 -1.3638909 -0.34396109 0
1.3438077 -1.3487171 -0.34480289 0
1.4593483 -1.3632882 -0.34714448 0
1.5527861 -1.3499074 -0.34693247 0
1.6492958 -1.3431922 -0.34913853 0
1.7428213 -1.3480798 -0.34976816 0
1.8581456 -1.3538927 -0.35109332 0
1.9667439 -1.3695111 -0.35335636 0
2.0484326 -1.3552557 -0.35414553 0
2.1494386 -1.3421518 -0.35578161 0
2.2632525 -1.3613901 -0.35652223 0
2.3254516 -1.3389032 -0.35886875 0
2.4297938 -1.3530428 -0.35895437 0
2.5480719 -1.3560529 -0.36124048 0
2.6201446 -1.3464404 -0.36193493 0
-2.1128931 -1.2367443 -0.300605 0
-2.010545 -1.2355976 -0.30047703 0
-1.9390386 -1.2367526 -0.30193922 0
-1.8503001 -1.249527 -0.30392444 0
-1.7418325 -1.2503817 -0.30424583 0
-1.6458998 -1.2544477 -0.30633286 0
-1.5436137 -1.2389495 -0.30640474 0
-1.4652295 -1.262526 -0.3081713 0
-1.3570715 -1.2498401 -0.31045458 0
-1.2489994 -1.2534684 -0.31205228 0
-1.142473 -1.2495935 -0.31311482 0
-1.0387094 -1.2389549 -0.31450319 0
-0.95248628 -1.254351 -0.31501001 0
-0.84311068 -1.2608351 -0.31779739 0
-0.74709165 -1.2455904 -0.3181169 0
-0.64743042 -1.2407491 -0.3182905 0
-0.54716092 -1.2540365 -0.32002544 0
-0.4381049 -1.2467791 -0.32322651 0
-0.35471481 -1.2545712 -0.32448322 0
-0.24272849 -1.242918 -0.32616395 0
-0.14832284 -1.2491893 -0.32785776 0
-0.049264103 -1.2520409 -0.32690617 0
0.053497601 -1.2519647 -0.32774779 0
0.153155 -1.2499067 -0.3293708 0
0.24830233 -1.2609725 -0.33238178 0
0.34331763 -1.2390442 -0.33327046 0
0.45951897 -1.251672 -0.33342737 0
0.54523367 -1.2494298 -0.33501831 0
0.66280818 -1.2636261 -0.33769178 0
0.75379324 -1.2507234 -0.33779258 0
0.8432461 -1.2390547 -0.33955631 0
0.95312023 -1.2413369 -0.33952332 0
1.0548471 -1.2399178 -0.34099421 0
1.1700143 -1.2613423 -0.34327635 0
1.2441748 -1.2468296 -0.34366941 0
1.3426574 -1.2421998 -0.34567603 0
1.4505154 -1.257476 -0.34595826 0
1.5468701 -1.2507398 -0.34863546 0
1.6447344 -1.2459452 -0.34895295 0
1.7467241 -1.2414156 -0.35088477 0
1.8294625 -1.2493844 -0.35189608 0
1.94437 -1.253122 -0.35336399 0
2.061538 -1.2464907 -0.35527936 0
2.1636753 -1.2458314 -0.35592484 0
2.2613363 -1.2592351 -0.35759577 0
2.3545849 -1.267266 -0.35844016 0
2.4617105 -1.2354699 -0.36041966 0
2.5778348 -1.247967 -0.36162782 0
2.6680298 -1.2602459 -0.36280265 0
2.7050595 -1.2152097 -0.36418962 0
-2.1410241 -1.17226 -0.30017778 0
-2.0619779 -1.1482911 -0.30137891 0
-1.9653368 -1.150322 -0.30249006 0
-1.8678733 -1.1477749 -0.30371106 0
-1.7633384 -1.1543534 -0.30513093 0
-1.6582696 -1.1547239 -0.30591461 0
-1.5534053 -1.1492189 -0.30727458 0
-1.4479793 -1.1534997 -0.30880988 0
-1.3396729 -1.1480142 -0.31072509 0
-1.2525052 -1.1535279 -0.31231111 0
-1.1416399 -1.1432507 -0.31393245 0
-1.0597889 -1.1517081 -0.314217 0
-0.95084792 -1.150699 -0.3160989 0
-0.84446704 -1.1545004 -0.31747779 0
-0.75051051 -1.1521103 -0.31994939 0
-0.65283418 -1.15775 -0.32013267 0
-0.55933899 -1.15526 -0.32085675 0
-0.45299524 -1.1483029 -0.32363784 0
-0.34633908 -1.1613342 -0.3248181 0
-0.2588743 -1.1876045 -0.32576239 0
0.27476296 -1.19805 -0.32935864 0
0.37167072 -1.1839927 -0.33253607 0
0.45025495 -1.1652886 -0.3348349 0
0.55672508 -1.1466643 -0.33570379 0
0.64245272 -1.1467206 -0.33714819 0
0.74275601 -1.1569855 -0.33795565 0
0.8569327 -1.1614881 -0.33868787 0
0.94460708 -1.135968 -0.33895448 0
1.0574534 -1.139962 -0.34243894 0
1.1467096 -1.1484855 -0.34354216 0
1.2640266 -1.1474503 -0.3440567 0
1.3523196 -1.1525241 -0.34549034 0
1.440438 -1.1403904 -0.34862289 0
1.5507464 -1.1471286 -0.34831449 0
1.652685 -1.1508873 -0.35008821 0
1.75879 -1.1513653 -0.35151613 0
1.8714218 -1.1660202 -0.35264891 0
1.9357531 -1.1357814 -0.35486549 0
2.0475702 -1.1402014 -0.354927 0
2.1379416 -1.1311293 -0.35696757 0
2.2455921 -1.167516 -0.35832691 0
2.335043 -1.1511244 -0.35934615 0
2.4387922 -1.1377282 -0.36070111 0
2.5390623 -1.1405677 -0.36198249 0
2.6393297 -1.1405846 -0.36299422 0
2.7415805 -1.1383073 -0.36466923 0
-2.3048341 -1.0954778 -0.30092782 0
-2.2228692 -1.0371609 -0.30118877 0
-2.1684086 -1.0562197 -0.3015376 0
-2.0437562 -1.0441536 -0.30180311 0
-1.9385769 -1.0614152 -0.30331826 0
-1.8356953 -1.0396076 -0.30521727 0
-1.7524374 -1.0597264 -0.30617014 0
-1.6374241 -1.044315 -0.30735728 0
-1.553439 -1.060813 -0.30801049 0
-1.4457016 -1.0454764 -0.30974352 0
-1.3496562 -1.0483853 -0.3114644 0
-1.2313844 -1.0377471 -0.31282723 0
-1.1611679 -1.0579923 -0.31366685 0
-1.0568928 -1.0455447 -0.31500661 0
-0.95345855 -1.0429229 -0.31684697 0
-0.851291 -1.0562794 -0.31704983 0
-0.74713135 -1.0486728 -0.31839025 0
-0.64788246 -1.0530994 -0.32134765 0
-0.5515855 -1.0701061 -0.32267997 0
-0.49711284 -1.0960695 -0.32248494 0
0.65125322 -1.0684364 -0.33534598 0
0.74717355 -1.0490599 -0.33817726 0
0.8591156 -1.0497484 -0.33910772 0
0.96897733 -1.0562258 -0.34146976 0
1.0466799 -1.0503771 -0.34287772 0
1.1542497 -1.0478204 -0.34325966 0
1.244055 -1.0484769 -0.34485483 0
1.349972 -1.0596974 -0.34659562 0
1.4464798 -1.0522848 -0.34783661 0
1.5547476 -1.0498253 -0.34955704 0
1.6547594 -1.0497072 -0.35073671 0
1.7493869 -1.0578436 -0.35221982 0
1.854153 -1.0499127 -0.35361156 0
1.9626985 -1.0563525 -0.35415384 0
2.0502429 -1.0383071 -0.35743079 0
2.1637564 -1.0475085 -0.35774803 0
2.26757 -1.077759 -0.35841879 0
2.3523457 -1.0487888 -0.36047998 0
2.4610612 -1.0359312 -0.36139992 0
2.5779781 -1.048996 -0.36359948 0
2.6774168 -1.0449728 -0.36542535 0
2.7773361 -1.0520247 -0.36618081 0
-2.2583165 -0.94156057 -0.30082819 0
-2.1575699 -0.95082408 -0.30140755 0
-2.0680382 -0.94681233 -0.30296972 0
-1.9694082 -0.95338035 -0.30369481 0
-1.8656855 -0.93969172 -0.3050625 0
-1.7535759 -0.94742167 -0.30702591 0
-1.6716629 -0.95238441 -0.3079749 0
-1.554913 -0.94031489 -0.30945849 0
-1.4575051 -0.95416325 -0.3113192 0
-1.3324516 -0.93852472 -0.31276342 0
-1.2656261 -0.9560644 -0.31347802 0
-1.1562576 -0.94849354 -0.3137559 0
-1.0459294 -0.94183052 -0.31547391 0
-0.94986093 -0.95676911 -0.31557539 0
-0.84662485 -0.94895107 -0.31752709 0
-0.75184619 -0.95078957 -0.31941468 0
-0.66771442 -0.98132628 -0.31806275 0
0.7995162 -0.99627644 -0.34228218 0
0.85614032 -0.94972914 -0.34055069 0
0.95470399 -0.94456112 -0.34217986 0
1.0598304 -0.96203613 -0.34267735 0
1.1492403 -0.94345331 -0.34389871 0
1.2444152 -0.94838297 -0.34497598 0
1.3400958 -0.95788765 -0.34708476 0
1.4550234 -0.96131057 -0.34810188 0
1.5331693 -0.95590174 -0.3500663 0
1.6341234 -0.94086379 -0.35137567 0
1.739983 -0.9559685 -0.35235977 0
1.8402464 -0.95681989 -0.35417593 0
1.9454107 -0.94880754 -0.35564524 0
2.0351567 -0.94506907 -0.35688317 0
2.1472554 -0.94613898 -0.35855222 0
2.2378728 -0.96709967 -0.35974288 0
2.3435156 -0.934048 -0.36084306 0
2.4316831 -0.94905615 -0.36213008 0
2.5210674 -0.9632197 -0.36312369 0
2.6205783 -0.95854312 -0.36432031 0
2.7157485 -0.94949746 -0.36543831 0
2.8216815 -0.95043391 -0.36667496 0
-2.3053412 -0.82457966 -0.30062196 0
-2.2738817 -0.84277838 -0.30046329 0
-2.1523092 -0.85796034 -0.30221683 0
-2.0368395 -0.86294365 -0.30378404 0
-1.9285358 -0.84990454 -0.30499682 0
-1.8327539 -0.85497642 -0.30605635 0
-1.7386347 -0.84166634 -0.30678421 0
-1.6489488 -0.85741156 -0.30833456 0
-1.5388741 -0.85694164 -0.31033283 0
-1.4543197 -0.85123062 -0.31153855 0
-1.3554393 -0.85030711 -0.31315598 0
-1.2525469 -0.85902005 -0.31410459 0
-1.1359081 -0.84033072 -0.31597829 0
-1.049624 -0.85539395 -0.31556362 0
-0.94901353 -0.85146409 -0.31664518 0
-0.85182703 -0.84902203 -0.31783372 0
-0.79563463 -0.88283741 -0.31845444 0
0.94327825 -0.85620588 -0.3414841 0
1.0441923 -0.84396672 -0.34416759 0
1.1434386 -0.85677624 -0.34451437 0
1.2359197 -0.84364367 -0.34637344 0
1.3390528 -0.85415792 -0.34755301 0
1.4327751 -0.85247356 -0.34913313 0
1.5597701 -0.8655799 -0.3509807 0
1.638718 -0.83722162 -0.35182029 0
1.7776479 -0.84490955 -0.35312092 0
1.8670909 -0.85476208 -0.35469639 0
1.9652967 -0.84921747 -0.35683194 0
2.0757515 -0.86203396 -0.35762012 0
2.151475 -0.83100766 -0.35888791 0
2.2576628 -0.8535856 -0.35976398 0
2.3530853 -0.83546418 -0.36109915 0
2.4669333 -0.86250657 -0.36236915 0
2.5683417 -0.85683268 -0.36376083 0
2.6646206 -0.84683162 -0.36474881 0
2.7579432 -0.85487962 -0.36564451 0
2.8670011 -0.84379858 -0.36802396 0
-2.4203503 -0.78834122 -0.30016631 0
-2.3324211 -0.74498546 -0.30102009 0
-2.2293165 -0.76155549 -0.30181989 0
-2.1453671 -0.75008488 -0.30277079 0
-2.0534306 -0.75105286 -0.30341053 0
-1.9678845 -0.75198543 -0.30498329 0
-1.8646133 -0.74620134 -0.30666348 0
-1.7740626 -0.75907767 -0.30701354 0
-1.6631389 -0.77593946 -0.30830902 0
-1.5566826 -0.7535426 -0.30951586 0
-1.4275107 -0.75132209 -0.31156901 0
-1.3445801 -0.74882853 -0.31295073 0
-1.2418299 -0.75451189 -0.31383783 0
-1.1406049 -0.74685705 -0.31451249 0
-1.0505179 -0.74769658 -0.31715763 0
-0.94744813 -0.75467902 -0.31782085 0
-0.88636291 -0.78175986 -0.31668544 0
1.0530887 -0.75337464 -0.34322804 0
1.1561775 -0.74374491 -0.34573013 0
1.2560931 -0.76093817 -0.3470256 0
1.329996 -0.74063617 -0.34795609 0
1.4447492 -0.7460807 -0.34925309 0
1.5444459 -0.74387497 -0.35042837 0
1.6445968 -0.75008577 -0.35178226 0
1.7395821 -0.75166464 -0.35348368 0
1.8348093 -0.74661344 -0.35509589 0
1.9358422 -0.75882906 -0.35595965 0
2.0536258 -0.75116009 -0.35768178 0
2.132158 -0.7406351 -0.358217 0
2.2354255 -0.74574703 -0.36024508 0
2.3464253 -0.75519049 -0.36126277 0
2.4327056 -0.73495054 -0.3632158 0
2.5348573 -0.76582015 -0.36402926 0
2.621727 -0.73108828 -0.36601165 0
2.7486215 -0.76647091 -0.36735225 0
2.8545573 -0.74499273 -0.36802331 0
2.9125891 -0.74512333 -0.36916304 0
-2.3553791 -0.65684056 -0.30057389 0
-2.2650645 -0.66670179 -0.30143145 0
-2.1657562 -0.63746846 -0.30320424 0
-2.0498757 -0.65146917 -0.30481368 0
-1.9335722 -0.64826626 -0.30581272 0
-1.8298523 -0.63977802 -0.30706275 0
-1.5283936 -0.69980156 -0.31085762 0
-1.4398291 -0.68426782 -0.31192595 0
-1.3510776 -0.6660226 -0.31277996 0
-1.2518562 -0.63459957 -0.3145335 0
-1.1677437 -0.65534508 -0.31473762 0
-1.054271 -0.63757747 -0.31734645 0
-0.98008454 -0.67208242 -0.31849167 0
1.093645 -0.68297344 -0.34549782 0
1.1517714 -0.64750516 -0.34649998 0
1.2515134 -0.63946658 -0.34773111 0
1.3535351 -0.65521401 -0.34892055 0
1.4461597 -0.64972246 -0.34954464 0
1.5390958 -0.65470827 -0.35068804 0
1.6674156 -0.66715425 -0.35295221 0
1.7489901 -0.63973123 -0.35485816 0
1.8630159 -0.63357902 -0.35561258 0
1.9580587 -0.65326887 -0.35671028 0
2.0470285 -0.65056628 -0.35796499 0
2.1663082 -0.65446824 -0.3606382 0
2.2731762 -0.65137035 -0.36158398 0
2.3703196 -0.64276302 -0.36300978 0
2.4565592 -0.64726114 -0.36355454 0
2.5499771 -0.65233594 -0.3650724 0
2.6413505 -0.65561545 -0.36614442 0
2.7295914 -0.65685993 -0.36686781 0
2.8221955 -0.65786397 -0.36815214 0
2.9229577 -0.65046471 -0.36896965 0
-2.4349699 -0.53094602 -0.30186084 0
-2.369597 -0.55698133 -0.30123317 0
-2.2516778 -0.55227029 -0.30197889 0
-2.1351316 -0.56258273 -0.30328164 0
-2.0333126 -0.55139613 -0.30498427 0
-1.9496192 -0.54371542 -0.30618736 0
-1.8631783 -0.53688467 -0.30797133 0
-1.2318145 -0.58547622 -0.31487441 0
-1.140398 -0.56534487 -0.31681487 0
-1.0526186 -0.54725569 -0.31798351 0
1.1720923 -0.55709577 -0.34783438 0
1.2510202 -0.5405972 -0.34742054 0
1.3493333 -0.56287259 -0.34791219 0
1.4329849 -0.54905277 -0.34989795 0
1.5657021 -0.54329699 -0.35231268 0
1.6537613 -0.55172092 -0.35308963 0
1.7335356 -0.55314344 -0.35389289 0
1.8231987 -0.55080289 -0.35547781 0
1.9481735 -0.55831295 -0.35704517 0
2.071449 -0.54266101 -0.35966355 0
2.1801469 -0.57119697 -0.36068773 0
2.2274556 -0.540995 -0.36122423 0
2.3515019 -0.54815078 -0.36297119 0
2.458003 -0.55483294 -0.36441517 0
2.5597949 -0.53896165 -0.36545163 0
2.6656504 -0.56123877 -0.36643004 0
2.7636251 -0.54073685 -0.36789098 0
2.8498337 -0.55760354 -0.36877927 0
2.9515352 -0.55559379 -0.37015355 0
-2.5125518 -0.43583089 -0.3007983 0
-2.418751 -0.41956005 -0.30218273 0
-2.3185036 -0.43640265 -0.30146316 0
-2.2313817 -0.45317516 -0.30280936 0
-2.1431985 -0.45118958 -0.3038128 0
-2.0547493 -0.44801703 -0.3046833 0
-1.9702612 -0.44440389 -0.30571708 0
-1.8751723 -0.45122591 -0.30672935 0
-1.7451329 -0.44647354 -0.30922413 0
-1.6295447 -0.42938343 -0.31133422 0
-1.5445184 -0.41881385 -0.31306592 0
-1.4593834 -0.40694568 -0.31487855 0
1.1990417 -0.49791595 -0.34788188 0
1.2508718 -0.45289919 -0.34860617 0
1.3503799 -0.44159827 -0.35004377 0
1.4458127 -0.45942375 -0.35110027 0
1.5437218 -0.45685524 -0.35187536 0
1.6557471 -0.4415873 -0.35363546 0
1.773519 -0.4365468 -0.3554967 0
1.8535066 -0.46006554 -0.35638514 0
1.9445095 -0.45325717 -0.35826522 0
2.0257215 -0.45687127 -0.35920128 0
2.1448195 -0.45812854 -0.3607567 0
2.2403626 -0.43835887 -0.36243513 0
2.3325808 -0.45640317 -0.36344957 0
2.4245501 -0.43844211 -0.36439136 0
2.532975 -0.45805243 -0.36560667 0
2.669327 -0.44337597 -0.36714888 0
2.7803636 -0.44139838 -0.36832011 0
2.8672366 -0.45519009 -0.36932349 0
2.9666123 -0.45797864 -0.37067515 0
3.0015085 -0.41064459 -0.37197146 0
-2.5195725 -0.36310291 -0.3002789 0
-2.4267879 -0.33557779 -0.30115831 0
-2.338613 -0.33697668 -0.30166548 0
-2.2477 -0.35682997 -0.30317354 0
-2.1651695 -0.34372723 -0.30426475 0
-2.0553987 -0.34636429 -0.30597565 0
-1.9279416 -0.33445859 -0.30791783 0
-1.8725076 -0.34914219 -0.30816254 0
-1.7522516 -0.35171032 -0.30985597 0
-1.6494606 -0.34733057 -0.31148422 0
-1.5563477 -0.35110143 -0.31243733 0
-1.449475 -0.35098779 -0.3137733 0
-1.3521016 -0.33801621 -0.31432533 0
1.2548366 -0.34996614 -0.34916759 0
1.3566219 -0.35179779 -0.34995139 0
1.4694132 -0.35221711 -0.35089365 0
1.5602926 -0.35179111 -0.35300344 0
1.6384814 -0.35716626 -0.35425639 0
1.7516316 -0.36146155 -0.35625455 0
1.8346425 -0.33686009 -0.35726163 0
1.9676677 -0.35584179 -0.35887524 0
2.0478454 -0.35528657 -0.35953429 0
2.1301184 -0.35385922 -0.3605803 0
2.2417221 -0.34596452 -0.36194223 0
2.3476598 -0.355508 -0.3632226 0
2.4362612 -0.35109329 -0.36411664 0
2.5241873 -0.34536615 -0.36499071 0
2.6114104 -0.35729852 -0.36608413 0
2.7441914 -0.35547113 -0.36795014 0
2.8640594 -0.33993345 -0.37057146 0
2.9815366 -0.3500956 -0.3714352 0
3.0269783 -0.32618058 -0.37381724 0
-2.541708 -0.21881384 -0.30095792 0
-2.4427736 -0.22785969 -0.3012442 0
-2.2674778 -0.29371148 -0.3033945 0
-2.1438167 -0.27769339 -0.30567181 0
-2.0120244 -0.27523106 -0.30720139 0
-1.9293607 -0.2639192 -0.30843389 0
-1.8213301 -0.28914315 -0.3096846 0
-1.7455244 -0.27710867 -0.31102464 0
-1.670446 -0.2774792 -0.31271988 0
-1.5815451 -0.28096697 -0.31424472 0
-1.4544059 -0.26954961 -0.31449342 0
-1.3393605 -0.26014057 -0.31447405 0
-1.2510564 -0.25822797 -0.31569701 0
-1.1635327 -0.23616235 -0.31818953 0
1.2799759 -0.25050461 -0.34954625 0
1.3490269 -0.24394891 -0.34995455 0
1.4534787 -0.25188869 -0.35172936 0
1.5277994 -0.25052157 -0.35280117 0
1.6593025 -0.25118658 -0.35457444 0
1.7479649 -0.25444624 -0.35519129 0
1.8287636 -0.25502062 -0.3565191 0
1.9567021 -0.24416177 -0.35848641 0
2.0668843 -0.25267613 -0.35986808 0
2.1477284 -0.24702294 -0.36092377 0
2.262908 -0.24380827 -0.36272711 0
2.3658421 -0.25485185 -0.36402693 0
2.4533787 -0.26428565 -0.36509404 0
2.5525436 -0.23811519 -0.36727536 0
2.6401851 -0.24629313 -0.36828756 0
2.7278271 -0.25447106 -0.36929986 0
2.818702 -0.24262753 -0.37004802 0
2.9501209 -0.25394017 -0.37142724 0
3.0197723 -0.25990301 -0.37216115 0
-2.5460272 -0.14593667 -0.30084109 0
-2.4529788 -0.14060019 -0.30170244 0
1.288859 -0.18574113 -0.34892488 0
1.3418026 -0.14035064 -0.35176668 0
1.4394356 -0.1550552 -0.35274929 0
1.5315809 -0.15234864 -0.35395238 0
1.6456306 -0.14664049 -0.3552101 0
1.750828 -0.15070918 -0.35567474 0
1.8259537 -0.15596919 -0.35645789 0
1.9500623 -0.15377609 -0.35841802 0
2.0740383 -0.14864753 -0.36050516 0
2.1593778 -0.13928998 -0.36215642 0
2.277971 -0.14694987 -0.36415374 0
2.3840675 -0.15379803 -0.36550507 0
2.4719474 -0.15946595 -0.36654937 0
2.559401 -0.14670551 -0.36741894 0
2.6473501 -0.15174681 -0.36849672 0
2.7352993 -0.15678811 -0.36957449 0
2.8261268 -0.14167677 -0.371277 0
2.9349201 -0.14713396 -0.37225103 0
3.0275862 -0.15174942 -0.37425026 0
-2.5522983 -0.036538996 -0.30112973 0
-2.4628143 -0.035257932 -0.3024261 0
1.293975 -0.083455406 -0.34743938 0
1.3546076 -0.044203229 -0.3532353 0
1.4509685 -0.051818885 -0.35315633 0
1.5267578 -0.054628469 -0.35359323 0
1.643047 -0.04703109 -0.35475248 0
1.7560031 -0.050263137 -0.35606623 0
1.8341674 -0.052487459 -0.35697746 0
1.9329727 -0.063894615 -0.35832936 0
2.0427253 -0.043859005 -0.3601875 0
2.1658256 -0.046503369 -0.36192521 0
2.2736766 -0.039415091 -0.36316371 0
2.3515668 -0.063696675 -0.36500832 0
2.472728 -0.053114608 -0.36641192 0
2.5610387 -0.055010695 -0.36772993 0
2.649349 -0.056906786 -0.36904797 0
2.7376595 -0.058802873 -0.37036595 0
2.8230138 -0.040362719 -0.37126276 0
2.9386208 -0.049174502 -0.37278643 0
3.0364215 -0.036259677 -0.37472954 0
-2.6472147 0.03790975 -0.30073813 0
-2.5575821 0.036626916 -0.30190781 0
-2.4679499 0.035344075 -0.30307749 0
1.3505176 0.048331246 -0.35336056 0
1.4541488 0.052029729 -0.35470694 0
1.5344422 0.05485972 -0.35576612 0
1.6558325 0.047381066 -0.35765815 0
1.7690198 0.050623562 -0.35897768 0
1.8486295 0.052913398 -0.35990819 0
1.932608 0.055323098 -0.36088338 0
2.0470121 0.049946912 -0.36228803 0
2.1592741 0.038836077 -0.36360994 0
2.2608469 0.048532978 -0.36485663 0
2.3358395 0.050195646 -0.36577049 0
2.4826386 0.05334571 -0.3675268 0
2.5707181 0.055235758 -0.36858058 0
2.6587973 0.057125796 -0.36963436 0
2.746877 0.05901584 -0.37068811 0
2.8341272 0.040588412 -0.37199771 0
2.9223089 0.041850679 -0.37314266 0
3.03143 0.043415032 -0.3745594 0
-2.744137 0.15728082 -0.30039638 0
-2.6457691 0.17059073 -0.30119079 0
-2.5502284 0.14622995 -0.30157408 0
-2.4606433 0.14109547 -0.30264544 0
1.2942727 0.15823759 -0.34938106 0
1.3432351 0.14854804 -0.35343117 0
1.4454139 0.15574798 -0.35448629 0
1.5266594 0.15348674 -0.35560739 0
1.6408638 0.14778417 -0.35634223 0
1.7577488 0.15139356 -0.35724047 0
1.8346609 0.15346935 -0.35828605 0
1.9475981 0.15933041 -0.35945171 0
2.0622232 0.13810919 -0.3622404 0
2.1701162 0.13986434 -0.36328661 0
2.2767472 0.14678644 -0.36435175 0
2.3563786 0.15196767 -0.36636192 0
2.4760795 0.15968408 -0.36753988 0
2.5681062 0.14722759 -0.36892813 0
2.6561544 0.15227383 -0.37006426 0
2.7442026 0.15732008 -0.37120041 0
2.8337052 0.14209116 -0.37196776 0
2.9216957 0.14650385 -0.37301567 0
3.0278876 0.15186827 -0.37428585 0
-2.6350284 0.24588419 -0.30075994 0
-2.5500319 0.25645506 -0.3025589 0
-2.4607809 0.24748372 -0.3036904 0
-2.2706189 0.2941184 -0.30563486 0
-2.1459589 0.27797091 -0.30710065 0
-2.0277157 0.27748406 -0.3097133 0
-1.944911 0.26615673 -0.31092218 0
-1.8411373 0.29228759 -0.31197244 0
-1.7659771 0.28035563 -0.31397638 0
-1.6597906 0.27169958 -0.31596613 0
-1.5848188 0.28660491 -0.31497851 0
-1.4554158 0.26957035 -0.31737182 0
-1.3462307 0.26345152 -0.31920266 0
-1.2529476 0.25173521 -0.3197642 0
-1.170638 0.24654329 -0.32064784 0
1.2911198 0.25259969 -0.3525849 0
1.3640622 0.24668734 -0.35370359 0
1.4541792 0.25961581 -0.35422793 0
1.5282242 0.2496756 -0.35503694 0
1.6577762 0.23653147 -0.35740662 0
1.7468973 0.2517108 -0.3589626 0
1.8323531 0.25068408 -0.36020574 0
1.9413906 0.24670283 -0.36064056 0
2.0604329 0.25192553 -0.36274081 0
2.1598279 0.24844107 -0.36363345 0
2.2594187 0.24351892 -0.36455727 0
2.3393238 0.25214496 -0.36721316 0
2.4688311 0.24811676 -0.36763284 0
2.556618 0.23852025 -0.36879811 0
2.6446409 0.24673282 -0.37016246 0
2.7326643 0.25494537 -0.37152681 0
2.8256648 0.24329767 -0.37308154 0
2.9416456 0.24606711 -0.37488487 0
3.0386753 0.26880121 -0.37617835 0
-2.8259039 0.32499468 -0.30028775 0
-2.7233601 0.35270295 -0.30092424 0
-2.6343234 0.34116897 -0.30199233 0
-2.5385618 0.34731802 -0.30259082 0
-2.4452312 0.35241544 -0.30389971 0
-2.3543701 0.33930099 -0.30506891 0
-2.2682307 0.36003867 -0.30653891 0
-2.168282 0.33643469 -0.30803922 0
-2.0530672 0.35615587 -0.30882177 0
-1.9249076 0.34693357 -0.31111869 0
-1.8366896 0.35661787 -0.31244856 0
-1.7462807 0.34175479 -0.31384549 0
-1.6660419 0.35083055 -0.31501362 0
-1.5783178 0.35600504 -0.31677699 0
-1.4495409 0.34860194 -0.31838226 0
-1.3430783 0.33926031 -0.31984764 0
-1.2673538 0.31840378 -0.32116824 0
-1.1705167 0.30841076 -0.32434276 0
1.2685165 0.3537496 -0.35297191 0
1.3414426 0.34323829 -0.35379544 0
1.4564496 0.35048449 -0.35602698 0
1.5383486 0.34683242 -0.35747468 0
1.6566761 0.34884453 -0.35793039 0
1.7338523 0.35217166 -0.35904467 0
1.8294499 0.34549463 -0.36034629 0
1.9606943 0.34887677 -0.36290106 0
2.0595655 0.33477616 -0.36415076 0
2.1600955 0.35881507 -0.36510122 0
2.2703981 0.34384561 -0.36601076 0
2.3731902 0.35940281 -0.36739096 0
2.4693117 0.33782843 -0.36902043 0
2.5566785 0.34978104 -0.3701129 0
2.6436398 0.34235486 -0.37099266 0
2.7311609 0.3536925 -0.37216449 0
2.8481033 0.34823871 -0.37345332 0
2.9527111 0.33934131 -0.37519148 0
3.032342 0.35599604 -0.3762379 0
-2.80199 0.46541953 -0.30042148 0
-2.7133923 0.45070398 -0.30147922 0
-2.6225536 0.45493618 -0.30272028 0
-2.5340331 0.43958107 -0.3037481 0
-2.4365454 0.45870224 -0.3051348 0
-2.3440506 0.44134131 -0.30627897 0
-2.2576611 0.45856309 -0.30752194 0
-2.1576543 0.43824539 -0.30916318 0
-2.0478649 0.44680914 -0.31051779 0
-1.9341314 0.45457387 -0.31114101 0
-1.849892 0.45106301 -0.31225914 0
-1.7398274 0.45338327 -0.31390244 0
-1.6512545 0.43505228 -0.31562826 0
-1.5629854 0.42378795 -0.31686926 0
-1.468498 0.40948725 -0.31760588 0
1.2496674 0.4605442 -0.35393414 0
1.3496426 0.4454042 -0.35501379 0
1.4685934 0.44531864 -0.35652086 0
1.5591605 0.44675079 -0.3579452 0
1.6342574 0.45559955 -0.35870162 0
1.7661535 0.4562656 -0.35970286 0
1.8438579 0.43004477 -0.36093202 0
1.9598541 0.45683321 -0.36172509 0
2.0461686 0.44620591 -0.3629525 0
2.1296749 0.44847968 -0.36391327 0
2.2463946 0.44612664 -0.36541897 0
2.3524454 0.46031377 -0.36693621 0
2.4460194 0.44233966 -0.36815181 0
2.5328677 0.45804414 -0.36934638 0
2.6294649 0.436656 -0.37095845 0
2.7165153 0.45111629 -0.37212595 0
2.8376563 0.45753586 -0.37403807 0
2.9645283 0.44893113 -0.37536117 0
3.0310097 0.43678164 -0.37601456 0
-2.8801589 0.56354594 -0.30012846 0
-2.7478507 0.53765863 -0.30164218 0
-2.6364725 0.56186444 -0.30262646 0
-2.5186923 0.54922742 -0.30444178 0
-2.4191597 0.55933863 -0.30548766 0
-2.3405206 0.55459988 -0.30618849 0
-2.2333848 0.55437726 -0.30768007 0
-2.1481185 0.54957068 -0.30879217 0
-2.061698 0.54324102 -0.30948949 0
-1.9599329 0.55395436 -0.3119511 0
-1.8898295 0.52703387 -0.31160453 0
-1.2340124 0.58642197 -0.32073638 0
-1.1354172 0.56984168 -0.3225266 0
-1.0709287 0.55688316 -0.3235285 0
1.1872643 0.57481837 -0.35347414 0
1.2499975 0.54019564 -0.35387757 0
1.3519797 0.53886306 -0.3552888 0
1.4354213 0.54847258 -0.35598958 0
1.5316862 0.55595452 -0.35729429 0
1.6525842 0.54742956 -0.35991928 0
1.7732006 0.54967785 -0.36163709 0
1.8605387 0.54759365 -0.36210597 0
1.9446388 0.55728722 -0.36327091 0
2.027262 0.54973072 -0.36371312 0
2.1522367 0.55068076 -0.3656472 0
2.2490437 0.54124707 -0.36640796 0
2.3349557 0.56192112 -0.36768821 0
2.4287453 0.54787296 -0.36898017 0
2.541652 0.56068683 -0.37018442 0
2.6389105 0.54266232 -0.37160829 0
2.7648249 0.54099286 -0.37270409 0
2.8751068 0.5412364 -0.37371951 0
2.9732282 0.56710708 -0.3748714 0
3.021302 0.52404755 -0.3765173 0
-2.8646488 0.66772473 -0.30096379 0
-2.7719536 0.64610773 -0.30115268 0
-2.6544421 0.63221282 -0.30294976 0
-2.5846486 0.66130269 -0.30353266 0
-2.447952 0.65561759 -0.30598554 0
-2.3443303 0.64459985 -0.30716532 0
-2.2374184 0.64968908 -0.30890363 0
-2.1319041 0.66079468 -0.31049952 0
-2.044137 0.64958978 -0.31128359 0
-1.9541494 0.65198404 -0.31216863 0
-1.865376 0.65218961 -0.31302345 0
-1.5712818 0.69241035 -0.31816438 0
-1.4746438 0.67507976 -0.31835231 0
-1.345781 0.65454578 -0.32013369 0
-1.2375363 0.65275788 -0.3217434 0
-1.1495357 0.64368874 -0.32250273 0
-1.0430309 0.6581614 -0.32450473 0
-0.9890815 0.69932646 -0.32457653 0
1.1424555 0.64679319 -0.35187832 0
1.2412536 0.65667593 -0.35442188 0
1.3608265 0.64587104 -0.35462797 0
1.4378318 0.64572531 -0.35739392 0
1.5642064 0.64960027 -0.35821819 0
1.6503245 0.64407271 -0.35930261 0
1.7327369 0.64918768 -0.36035427 0
1.8412669 0.66157407 -0.36242694 0
1.9354333 0.65366507 -0.36388811 0
2.0559521 0.64409107 -0.36545095 0
2.170213 0.65566969 -0.3659437 0
2.2359385 0.64583415 -0.3668361 0
2.3413346 0.65900666 -0.36840621 0
2.4531403 0.64638686 -0.36980152 0
2.5591981 0.65517491 -0.37145042 0
2.6592121 0.63994563 -0.37269428 0
2.7702558 0.64576775 -0.37415546 0
2.8598716 0.64511079 -0.37551507 0
2.9641612 0.65382272 -0.3769969 0
3.0129521 0.63441515 -0.37805554 0
-2.9325674 0.7726804 -0.30023745 0
-2.8441401 0.77122039 -0.30102944 0
-2.7574773 0.74772286 -0.30216545 0
-2.6643574 0.74295521 -0.30332148 0
-2.5715892 0.7569322 -0.30485353 0
-2.4795177 0.74918067 -0.3059631 0
-2.3791318 0.74486417 -0.30729693 0
-2.2594054 0.7358886 -0.30900216 0
-2.1408236 0.74853957 -0.31003773 0
-2.0325775 0.7600382 -0.31184751 0
-1.9268199 0.75210834 -0.31332541 0
-1.8420916 0.74955016 -0.31500807 0
-1.7341682 0.77394515 -0.31702772 0
-1.6277032 0.75945282 -0.31787992 0
-1.5479212 0.74941939 -0.3184793 0
-1.4546229 0.74690425 -0.32015142 0
-1.3466363 0.76249266 -0.3203865 0
-1.2575901 0.74832731 -0.32102349 0
-1.1622092 0.74305683 -0.32176429 0
-1.0464424 0.75991678 -0.32427621 0
-0.95196193 0.7585091 -0.32628003 0
1.0723335 0.75830787 -0.35195979 0
1.1459568 0.73860061 -0.35229862 0
1.2483962 0.75664711 -0.35376948 0
1.3415164 0.74699312 -0.35578421 0
1.4425912 0.754448 -0.35712305 0
1.5411891 0.75511485 -0.35869572 0
1.6610332 0.75254881 -0.36030045 0
1.7397976 0.7420364 -0.36121294 0
1.8668461 0.75955933 -0.36238658 0
1.9631176 0.75008392 -0.36408773 0
2.0499363 0.74981356 -0.36491016 0
2.164145 0.76660502 -0.36676857 0
2.2446978 0.7389456 -0.36878103 0
2.3809266 0.75679302 -0.37008563 0
2.4690411 0.74599171 -0.37056041 0
2.5576913 0.75281978 -0.37195915 0
2.6503069 0.75947523 -0.37321451 0
2.7454445 0.74442416 -0.37428179 0
2.8372636 0.74759167 -0.37510216 0
2.9512668 0.74596596 -0.37686688 0
-2.910368 0.85662574 -0.30049807 0
-2.8237276 0.85317409 -0.30177641 0
-2.7325001 0.84699756 -0.3030096 0
-2.6395261 0.85974568 -0.3047725 0
-2.5479612 0.85014528 -0.30587894 0
-2.4572954 0.83948916 -0.30688325 0
-2.3560989 0.84747624 -0.30839133 0
-2.2499886 0.84133786 -0.30935779 0
-2.1615198 0.84370732 -0.31033254 0
-2.0753498 0.84446925 -0.31185263 0
-1.9570879 0.8357023 -0.31423002 0
-1.83424 0.84394443 -0.31625754 0
-1.77139 0.8628729 -0.31670371 0
-1.6632435 0.83767593 -0.31713289 0
-1.5571419 0.8469364 -0.31891456 0
-1.4401836 0.84304351 -0.31913474 0
-1.3697742 0.86094034 -0.32073012 0
-1.2468172 0.84748697 -0.32190555 0
-1.1300994 0.85227573 -0.32332972 0
-1.0524184 0.86341029 -0.3251715 0
-0.95662302 0.84541577 -0.32661128 0
-0.86577821 0.86049443 -0.32720542 0
0.98113984 0.86544633 -0.35057971 0
1.0502135 0.84921366 -0.35323498 0
1.1565709 0.84703428 -0.35488838 0
1.2725253 0.85128427 -0.35495546 0
1.3464499 0.83644253 -0.35527477 0
1.4450473 0.85514706 -0.35790372 0
1.5529604 0.85030437 -0.35931119 0
1.6488851 0.84723455 -0.36146674 0
1.7397662 0.8575967 -0.36225021 0
1.8361092 0.85660332 -0.36426535 0
1.9379673 0.85065544 -0.36442548 0
2.0499167 0.85154086 -0.36515307 0
2.1418784 0.8492921 -0.3669861 0
2.2481089 0.85908145 -0.36847326 0
2.3404458 0.85605091 -0.36933145 0
2.4410315 0.85332614 -0.3711125 0
2.5395367 0.84731752 -0.37242389 0
2.6310749 0.85702777 -0.37373132 0
2.7448642 0.85811824 -0.37469757 0
2.8389606 0.84311575 -0.37666345 0
2.9450631 0.84403473 -0.37798855 0
-2.9439864 0.93597448 -0.30069029 0
-2.8469572 0.949907 -0.30269662 0
