# .PCD v0.7 - Point Cloud Data file format
VERSION 0.7
FIELDS x y z intensity
SIZE 4 4 4 4
TYPE F F F F
COUNT 1 1 1 1
WIDTH 1343
HEIGHT 1
VIEWPOINT 0 0 0 1 0 0 0
POINTS 1343
DATA ascii
-1.2593323 -2.1693001 -0.3278029 0
-1.1432613 -2.1424475 -0.32962865 0
-1.0356225 -2.1199319 -0.33175755 0
-0.94385558 -2.1629226 -0.33235279 0
-0.85535181 -2.1417921 -0.33283025 0
-0.74708009 -2.1616375 -0.33493701 0
-0.64304692 -2.1561513 -0.33594194 0
-0.55811954 -2.1492016 -0.33806887 0
-0.44996315 -2.17575 -0.33851051 0
-0.34548473 -2.1274521 -0.34181842 0
-0.2544249 -2.1454995 -0.34269229 0
-0.14749219 -2.1670363 -0.34458554 0
-0.054632008 -2.1827021 -0.34673038 0
0.039135199 -2.1865988 -0.3471258 0
0.14884399 -2.1854849 -0.34757221 0
0.25863752 -2.1799626 -0.34825733 0
0.35754797 -2.1753805 -0.35207683 0
0.44974649 -2.1743102 -0.35250112 0
0.54312748 -2.1548123 -0.35307819 0
0.64347631 -2.1353941 -0.35476011 0
0.73854589 -2.1367064 -0.35809061 0
0.84781051 -2.1340027 -0.35932207 0
0.95241719 -2.1403615 -0.35825762 0
1.0582749 -2.1429055 -0.36057794 0
1.1573375 -2.1689899 -0.36331201 0
1.2497774 -2.1407676 -0.36302352 0
1.358016 -2.1576471 -0.36526918 0
1.4505898 -2.1427453 -0.36709166 0
1.5382963 -2.1591473 -0.36856225 0
1.6509 -2.1606419 -0.37042484 0
1.7373625 -2.1334949 -0.37127984 0
1.8409952 -2.1640518 -0.37307188 0
1.9560658 -2.1493995 -0.37447104 0
2.0576949 -2.1557043 -0.37560111 0
2.1598935 -2.1491697 -0.37709063 0
2.2379074 -2.1208048 -0.37857687 0
-2.8219957 -2.0257361 -0.30392522 0
-2.7625754 -2.0589304 -0.30492467 0
-2.6640213 -2.0606401 -0.30633533 0
-2.5698776 -2.0473661 -0.30789176 0
-2.443054 -2.0632105 -0.30971086 0
-2.3478382 -2.0412507 -0.31126636 0
-2.2327824 -2.0562758 -0.31341347 0
-2.1252332 -2.0431371 -0.31502837 0
-2.0490503 -2.0564036 -0.31525871 0
-1.9497294 -2.0522587 -0.31637144 0
-1.8653336 -2.0697179 -0.31865323 0
-1.7655534 -2.0456898 -0.32006463 0
-1.6366876 -2.0439267 -0.32155296 0
-1.5492582 -2.0480866 -0.32276651 0
-1.4410827 -2.0537398 -0.32472289 0
-1.333639 -2.0421929 -0.32551512 0
-1.2360117 -2.0604935 -0.32779223 0
-1.1447331 -2.0386403 -0.3288601 0
-1.0370159 -2.0474224 -0.3312721 0
-0.93794662 -2.0680523 -0.33187029 0
-0.84661239 -2.0183961 -0.33297661 0
-0.7465657 -2.0642836 -0.33409342 0
-0.65289944 -2.0292821 -0.33572552 0
-0.55196452 -2.0584564 -0.3376044 0
-0.44270402 -2.0661688 -0.33847439 0
-0.36213401 -2.0603721 -0.33925998 0
-0.24428213 -2.0596764 -0.34225649 0
-0.13311613 -2.0616081 -0.34425187 0
-0.051359072 -2.04953 -0.345698 0
0.051579796 -2.0568342 -0.34639123 0
0.15488943 -2.0569229 -0.34736586 0
0.25148836 -2.0488575 -0.34842396 0
0.35639566 -2.0465813 -0.35145801 0
0.43990946 -2.0667307 -0.35228735 0
0.54891729 -2.0535297 -0.35278454 0
0.65459836 -2.0344036 -0.35512841 0
0.75044751 -2.0563922 -0.35772038 0
0.85358381 -2.0765219 -0.35732776 0
0.94824523 -2.0362563 -0.35741541 0
1.0453708 -2.0280602 -0.36139855 0
1.1569474 -2.0603609 -0.3614915 0
1.2615303 -2.047559 -0.36371198 0
1.3428464 -2.0672767 -0.36478159 0
1.4422008 -2.0446589 -0.3663342 0
1.550456 -2.0495727 -0.36832988 0
1.6518962 -2.0583825 -0.36959305 0
1.7556897 -2.044183 -0.37152028 0
1.8478136 -2.0502138 -0.37276754 0
1.9674412 -2.0611608 -0.37408805 0
2.0585949 -2.0563295 -0.37537253 0
2.1349916 -2.0234032 -0.37656677 0
2.2548337 -2.0468442 -0.37857771 0
2.3369141 -2.0315709 -0.38021421 0
-2.85039 -1.9428089 -0.30334249 0
-2.7277527 -1.9580865 -0.30500123 0
-2.6362247 -1.9502382 -0.30644804 0
-2.5265949 -1.9543196 -0.30839956 0
-2.418066 -1.9548116 -0.31001019 0
-2.3194413 -1.9305427 -0.31086054 0
-2.24157 -1.9487317 -0.31215757 0
-2.1601894 -1.9517606 -0.31396139 0
-2.0567315 -1.9492311 -0.31551161 0
-1.9494548 -1.9564372 -0.31580317 0
-1.8376745 -1.953179 -0.31760481 0
-1.7308456 -1.9483733 -0.32001555 0
-1.6610789 -1.9527261 -0.32083967 0
-1.5526164 -1.9346516 -0.32234651 0
-1.4407439 -1.9523935 -0.32397714 0
-1.3470875 -1.9591688 -0.32579848 0
-1.2565173 -1.9651957 -0.32708696 0
-1.1457074 -1.9413431 -0.32904208 0
-1.0399919 -1.9487628 -0.32929969 0
-0.94651818 -1.9732157 -0.33266741 0
-0.84113508 -1.9275156 -0.33311287 0
-0.74048793 -1.9592212 -0.33363494 0
-0.65432096 -1.9382315 -0.33513132 0
-0.55173826 -1.9622612 -0.33755314 0
-0.46260628 -1.9406601 -0.33788124 0
-0.34638816 -1.9555032 -0.33979791 0
-0.24642882 -1.957546 -0.34148028 0
-0.15287885 -1.9496657 -0.34321254 0
-0.04832831 -1.9283166 -0.3447741 0
0.048557706 -1.9360156 -0.34586459 0
0.14581494 -1.9363314 -0.34683666 0
0.24379846 -1.9357275 -0.34847286 0
0.35675135 -1.9329633 -0.35130185 0
0.455192 -1.9471633 -0.35176075 0
0.54253912 -1.9728262 -0.35255525 0
0.657583 -1.9478364 -0.35467538 0
0.76684982 -1.9440845 -0.35698521 0
0.83837295 -1.9593589 -0.3566547 0
0.94545972 -1.9352078 -0.35841995 0
1.064526 -1.9718632 -0.36054894 0
1.1520382 -1.9520468 -0.36057261 0
1.2464454 -1.92628 -0.36256894 0
1.3548981 -1.9605623 -0.36465481 0
1.4441013 -1.947493 -0.36682606 0
1.5411159 -1.948782 -0.36773127 0
1.6531849 -1.9717736 -0.36913687 0
1.739025 -1.9479398 -0.37074089 0
1.845637 -1.9335564 -0.37189499 0
1.9502087 -1.9571232 -0.37334287 0
2.0708551 -1.9626219 -0.37533277 0
2.1513462 -1.9529335 -0.37644756 0
2.2251594 -1.9344196 -0.37803501 0
2.3451691 -1.9519908 -0.37932336 0
2.4281483 -1.9343083 -0.38118464 0
-2.910291 -1.8367496 -0.30154791 0
-2.8543358 -1.8396312 -0.3035872 0
-2.7515686 -1.8488601 -0.30425718 0
-2.6782324 -1.8650548 -0.30539846 0
-2.5810862 -1.8528041 -0.30667585 0
-2.4616423 -1.8484384 -0.30890322 0
-2.3684354 -1.8592839 -0.31020969 0
-2.2626534 -1.8560559 -0.31166884 0
-2.1667128 -1.8298206 -0.31269231 0
-2.0523608 -1.8365526 -0.31457809 0
-1.9398922 -1.8385029 -0.31640482 0
-1.8464588 -1.832167 -0.31704128 0
-1.7672074 -1.8627599 -0.31794447 0
-1.6407658 -1.8470694 -0.32100713 0
-1.5398086 -1.8365721 -0.32260773 0
-1.445762 -1.8552728 -0.32362503 0
-1.3454849 -1.8602974 -0.32528743 0
-1.2447343 -1.8576978 -0.32642621 0
-1.1416891 -1.8431469 -0.32928014 0
-1.0477775 -1.8500867 -0.32986003 0
-0.951231 -1.8590142 -0.33194739 0
-0.86763072 -1.865378 -0.33298886 0
-0.74797618 -1.8417362 -0.33339652 0
-0.64291382 -1.8602254 -0.33554769 0
-0.54807431 -1.8378967 -0.33657074 0
-0.43785447 -1.8490289 -0.33816379 0
-0.34559229 -1.8725699 -0.3390764 0
-0.24808061 -1.8481381 -0.34088084 0
-0.15116866 -1.8329229 -0.34232199 0
-0.059540033 -1.8474367 -0.34415883 0
0.046542972 -1.8554698 -0.34551355 0
0.153203 -1.8565068 -0.34679604 0
0.24713592 -1.8549684 -0.34837642 0
0.34209999 -1.8535674 -0.35101733 0
0.44733882 -1.8302891 -0.35102192 0
0.55129534 -1.8490753 -0.35246199 0
0.64484262 -1.8660212 -0.35417429 0
0.7431221 -1.8451207 -0.35624257 0
0.84832639 -1.848943 -0.3558588 0
0.9546178 -1.8520107 -0.3595992 0
1.048197 -1.8475691 -0.35849923 0
1.158496 -1.8405361 -0.36132982 0
1.2471118 -1.8609955 -0.36230668 0
1.3436836 -1.857637 -0.36446857 0
1.4386446 -1.8246701 -0.36543751 0
1.5421329 -1.8392732 -0.36736196 0
1.6555873 -1.8634951 -0.36918017 0
1.7551122 -1.8565817 -0.37030974 0
1.8251438 -1.8316764 -0.37107182 0
1.9436684 -1.8419942 -0.37296161 0
2.0488975 -1.8598884 -0.37469813 0
2.1553431 -1.8468343 -0.3763721 0
2.2628765 -1.8473917 -0.37765872 0
2.3585472 -1.8514709 -0.3800444 0
2.4581912 -1.8457971 -0.38104302 0
2.5255177 -1.8128946 -0.3817158 0
-2.9553306 -1.7583536 -0.30206665 0
-2.8423848 -1.7467027 -0.30215949 0
-2.7458999 -1.7421298 -0.30377018 0
-2.6374319 -1.7537683 -0.30566713 0
-2.5392067 -1.7414538 -0.30675223 0
-2.4344199 -1.7475218 -0.3083505 0
-2.3330412 -1.7518868 -0.31030917 0
-2.2409816 -1.7333899 -0.31196204 0
-2.1371419 -1.7277133 -0.31351122 0
-2.0407493 -1.740056 -0.31357086 0
-1.9463383 -1.7415994 -0.31673071 0
-1.8674605 -1.7553509 -0.3173213 0
-1.7460668 -1.7523435 -0.31789982 0
-1.6420529 -1.7451385 -0.3197476 0
-1.5417322 -1.7520431 -0.32256249 0
-1.4462817 -1.7502937 -0.32396847 0
-1.3536907 -1.7629791 -0.32426733 0
-1.2453027 -1.7481309 -0.32608023 0
-1.1371309 -1.7476003 -0.32870376 0
-1.0544422 -1.7650717 -0.32975009 0
-0.94633949 -1.7549884 -0.33041745 0
-0.83674288 -1.7507147 -0.33346257 0
-0.76045924 -1.7425561 -0.33395684 0
-0.64943278 -1.756183 -0.33516529 0
-0.5419293 -1.7265606 -0.33619064 0
-0.44411778 -1.7620566 -0.33773741 0
-0.34293929 -1.7463424 -0.33973417 0
-0.25567091 -1.7306669 -0.34010175 0
-0.15680265 -1.7489573 -0.34136963 0
-0.051668495 -1.7548008 -0.34356079 0
0.044022273 -1.7544082 -0.34511659 0
0.1490605 -1.764119 -0.34650999 0
0.25128302 -1.7584428 -0.34868422 0
0.34835893 -1.7649735 -0.35105574 0
0.45146793 -1.7445809 -0.35038394 0
0.55249918 -1.7255495 -0.35236913 0
0.65186405 -1.7462289 -0.35404924 0
0.75052738 -1.7540871 -0.35555193 0
0.84980512 -1.739428 -0.35611144 0
0.9445976 -1.7458456 -0.35874757 0
1.0562052 -1.744002 -0.35965848 0
1.1548047 -1.7501601 -0.3615784 0
1.2507253 -1.7556204 -0.36254302 0
1.3486781 -1.7564967 -0.36393818 0
1.4692866 -1.7523718 -0.36564052 0
1.552611 -1.7226712 -0.36733294 0
1.6496489 -1.75315 -0.36845198 0
1.7628402 -1.7691495 -0.36991882 0
1.846378 -1.7498877 -0.37101367 0
1.932904 -1.7295961 -0.37244871 0
2.0370271 -1.7454481 -0.37396646 0
2.1574104 -1.7440125 -0.3757979 0
2.2645698 -1.751675 -0.37784666 0
2.3537469 -1.7412064 -0.37866458 0
2.4616637 -1.7670581 -0.38029966 0
2.5496216 -1.7323364 -0.38100332 0
-2.9614489 -1.658702 -0.300264 0
-2.8857071 -1.661516 -0.30223459 0
-2.7605226 -1.6512402 -0.30389237 0
-2.6747651 -1.6702042 -0.30355147 0
-2.5667379 -1.636887 -0.30614558 0
-2.4517725 -1.6474422 -0.30734468 0
-2.3819485 -1.6587324 -0.30873474 0
-2.2598345 -1.6302028 -0.31034872 0
-2.1810875 -1.6622174 -0.31268471 0
-2.075428 -1.6534709 -0.31389126 0
-1.9507607 -1.6474618 -0.31504145 0
-1.8527149 -1.6421653 -0.31702629 0
-1.7680712 -1.6595961 -0.31872019 0
-1.6592494 -1.6492085 -0.31902313 0
-1.5549444 -1.6525606 -0.32073033 0
-1.4717344 -1.6568073 -0.32288778 0
-1.365587 -1.6526976 -0.32532811 0
-1.2477999 -1.6467633 -0.32576481 0
-1.1585748 -1.6511347 -0.32624224 0
-1.0481929 -1.6392601 -0.32853627 0
-0.95142567 -1.6494064 -0.32980075 0
-0.84764117 -1.6502072 -0.33242264 0
-0.75461209 -1.6329018 -0.3340407 0
-0.63372105 -1.6493362 -0.33565807 0
-0.5408569 -1.6407677 -0.33585623 0
-0.44721624 -1.655288 -0.33732742 0
-0.35704306 -1.6650372 -0.33855441 0
-0.24260513 -1.657884 -0.33989212 0
-0.14850897 -1.6561695 -0.34142295 0
-0.06127188 -1.6513869 -0.34294724 0
0.052708127 -1.6363531 -0.3445096 0
0.1520388 -1.6532325 -0.34520236 0
0.24265242 -1.6443653 -0.34756383 0
0.35172445 -1.655936 -0.34980321 0
0.44495663 -1.6478605 -0.34960273 0
0.55756092 -1.6513569 -0.35178545 0
0.66050351 -1.668774 -0.35403582 0
0.753227 -1.6608524 -0.35453093 0
0.84443313 -1.631121 -0.35750905 0
0.94896603 -1.6617785 -0.35684621 0
1.052188 -1.6400303 -0.36024588 0
1.1567409 -1.6485629 -0.3612617 0
1.262308 -1.6686311 -0.36224303 0
1.3519269 -1.6458629 -0.36353546 0
1.4523793 -1.6348642 -0.36531708 0
1.5554655 -1.6529684 -0.36670697 0
1.6388574 -1.6446546 -0.36778313 0
1.7513771 -1.6597584 -0.36941051 0
1.8670599 -1.6706796 -0.37124544 0
1.9494591 -1.6464047 -0.37227553 0
2.0519772 -1.6428723 -0.37397161 0
2.1244025 -1.6432558 -0.37498456 0
2.2277296 -1.647998 -0.37605157 0
2.3511693 -1.6371695 -0.37776431 0
2.4543104 -1.6574191 -0.37937951 0
2.5623517 -1.6514814 -0.38125294 0
2.6301038 -1.6337399 -0.3820636 0
-2.9544642 -1.5093801 -0.30000558 0
-2.8384254 -1.5541573 -0.30122492 0
-2.7423666 -1.5529126 -0.30337593 0
-2.6425745 -1.5468522 -0.3047289 0
-2.5450792 -1.5390455 -0.30578676 0
-2.4412787 -1.5488701 -0.30723658 0
-2.3367872 -1.5538536 -0.308907 0
-2.2414067 -1.5372257 -0.30996266 0
-2.136122 -1.5568103 -0.31258139 0
-2.0252535 -1.5600058 -0.31478462 0
-1.9597489 -1.5458647 -0.31505004 0
-1.856544 -1.5526766 -0.31655109 0
-1.7589784 -1.5739132 -0.31759837 0
-1.6530125 -1.5486672 -0.31954351 0
-1.5517497 -1.5573349 -0.32001522 0
-1.4435666 -1.5564624 -0.32220563 0
-1.3400213 -1.5528451 -0.32492727 0
-1.2611943 -1.5489562 -0.3258805 0
-1.1501341 -1.5432367 -0.32660747 0
-1.0509628 -1.5442863 -0.32795149 0
-0.95493382 -1.5513262 -0.32963389 0
-0.84733111 -1.5431401 -0.33170959 0
-0.74929786 -1.538898 -0.33378759 0
-0.65598255 -1.5637616 -0.33432952 0
-0.54114264 -1.5507133 -0.33602634 0
-0.44722009 -1.5400608 -0.33672968 0
-0.33666012 -1.551795 -0.33883414 0
-0.25000003 -1.5572995 -0.33901033 0
-0.14933202 -1.5421374 -0.34090933 0
-0.050001707 -1.5541198 -0.34235138 0
0.050318103 -1.5622947 -0.34417185 0
0.15074474 -1.5560387 -0.34448016 0
0.24149081 -1.5570775 -0.34732622 0
0.34245116 -1.5442274 -0.3487322 0
0.4612129 -1.5463555 -0.34975624 0
0.54959422 -1.5609728 -0.35172001 0
0.64649612 -1.5411105 -0.35298198 0
0.73876041 -1.5564516 -0.35446072 0
0.85899174 -1.5555164 -0.3556436 0
0.94767499 -1.5713047 -0.35808471 0
1.0373074 -1.5306965 -0.3601132 0
1.1419191 -1.5553509 -0.3601737 0
1.2398154 -1.5632792 -0.36125377 0
1.3458681 -1.5516285 -0.36408699 0
1.4429117 -1.5333451 -0.36459363 0
1.5459707 -1.5514843 -0.3661038 0
1.6634539 -1.5688568 -0.36734369 0
1.7474254 -1.541221 -0.36905897 0
1.8475628 -1.5602834 -0.37032801 0
1.9735757 -1.5492939 -0.37212515 0
2.0772383 -1.5597211 -0.37353477 0
2.1455433 -1.5559305 -0.37377405 0
2.243288 -1.5464897 -0.376075 0
2.3189225 -1.5419288 -0.37704992 0
2.4441986 -1.5506251 -0.37913457 0
2.5344319 -1.5326582 -0.37959331 0
2.655771 -1.5544759 -0.38094819 0
2.7179387 -1.5135056 -0.38197368 0
-2.9678521 -1.4630411 -0.30049744 0
-2.8805511 -1.4457554 -0.30101827 0
-2.7830985 -1.4470351 -0.30143952 0
-2.6643341 -1.4422159 -0.30351487 0
-2.5415096 -1.4391919 -0.30496097 0
-2.4557748 -1.4534079 -0.30700612 0
-2.3599465 -1.4426581 -0.30778334 0
-2.2625306 -1.4428707 -0.30959511 0
-2.1405303 -1.434647 -0.31046456 0
-2.0689955 -1.4629079 -0.31238019 0
-1.9560099 -1.4469619 -0.31464341 0
-1.8512399 -1.4532995 -0.3165606 0
-1.7497758 -1.4564734 -0.31788239 0
-1.6447293 -1.4505675 -0.31904107 0
-1.5423032 -1.4409366 -0.32032785 0
-1.4489555 -1.4358258 -0.32156277 0
-1.3669481 -1.4667015 -0.32313269 0
-1.2518278 -1.4504627 -0.3254748 0
-1.1431026 -1.4456605 -0.3267507 0
-1.0542024 -1.4402535 -0.32806164 0
-0.9421733 -1.4404901 -0.32797894 0
-0.85311985 -1.4519892 -0.32991311 0
-0.7513606 -1.462917 -0.33281693 0
-0.65036201 -1.4428815 -0.33449209 0
-0.55916202 -1.4389464 -0.33477232 0
-0.4364225 -1.4466242 -0.33686075 0
-0.34683457 -1.4354749 -0.33787948 0
-0.24189049 -1.4478434 -0.3392083 0
-0.14210434 -1.4672718 -0.34088242 0
-0.051092364 -1.4572277 -0.34188026 0
0.047255024 -1.4674491 -0.34368697 0
0.15129828 -1.4630848 -0.34436387 0
0.24957345 -1.4695435 -0.34741655 0
0.34615812 -1.4611282 -0.34770983 0
0.45230395 -1.4405574 -0.34955046 0
0.5466662 -1.4320806 -0.35041448 0
0.63627112 -1.4453344 -0.35278136 0
0.75733989 -1.4440856 -0.35460639 0
0.83833969 -1.4485922 -0.35605732 0
0.94249696 -1.4598888 -0.35846251 0
1.0635749 -1.448535 -0.35871053 0
1.144806 -1.4456508 -0.35885641 0
1.2366066 -1.4349858 -0.36174303 0
1.3575492 -1.4553651 -0.36307716 0
1.4540451 -1.4385105 -0.36418265 0
1.5547609 -1.4525323 -0.36533672 0
1.6441131 -1.4500109 -0.36699724 0
1.7598732 -1.464795 -0.36845645 0
1.8342752 -1.4399444 -0.36936975 0
1.9335012 -1.4518976 -0.37042025 0
2.0503809 -1.4496372 -0.37240157 0
2.1612942 -1.4595393 -0.37463936 0
2.2646942 -1.4596479 -0.37595743 0
2.3538899 -1.4465225 -0.37709618 0
2.4786057 -1.4507447 -0.37812895 0
2.5601826 -1.4418586 -0.37955856 0
2.6567495 -1.4465672 -0.38145736 0
2.7432392 -1.44309 -0.38295093 0
-2.831898 -1.3459128 -0.3007327 0
-2.7299287 -1.3457605 -0.30209124 0
-2.6301737 -1.3437515 -0.30321893 0
-2.5395234 -1.3436733 -0.30471858 0
-2.4383957 -1.3578031 -0.30660337 0
-2.3382444 -1.3463006 -0.30760124 0
-2.2362669 -1.3523073 -0.30901542 0
-2.1387031 -1.3408086 -0.31066459 0
-2.0409698 -1.3571749 -0.31222069 0
-1.9365387 -1.3280602 -0.31413761 0
-1.8468881 -1.3459007 -0.31585035 0
-1.7429769 -1.3482418 -0.31733182 0
-1.6449744 -1.3494301 -0.31932732 0
-1.5382918 -1.337292 -0.32081154 0
-1.4656879 -1.349733 -0.32077807 0
-1.3497888 -1.3546146 -0.3223477 0
-1.2448447 -1.3422853 -0.32428101 0
-1.1503655 -1.3483132 -0.32602349 0
-1.0407327 -1.3354512 -0.32850075 0
-0.96000767 -1.3682541 -0.32868689 0
-0.85977024 -1.3507897 -0.32977083 0
-0.7514258 -1.3608823 -0.33110186 0
-0.6507507 -1.3456877 -0.33319065 0
-0.55639118 -1.3380116 -0.33486873 0
-0.45411777 -1.3581206 -0.33579957 0
-0.3517217 -1.3544954 -0.33835629 0
-0.24534395 -1.3533068 -0.33972165 0
-0.15109201 -1.3567127 -0.33952886 0
-0.052728474 -1.3398869 -0.34147984 0
0.043303918 -1.344952 -0.34289008 0
0.14991803 -1.3447229 -0.34456214 0
0.25448173 -1.35241 -0.34511775 0
0.34551162 -1.3531271 -0.34690154 0
0.44624257 -1.3532171 -0.34946397 0
0.55696511 -1.3549541 -0.35041568 0
0.64953989 -1.3717526 -0.35297465 0
0.74118072 -1.3357164 -0.35380635 0
0.83858371 -1.3415494 -0.35614529 0
0.95710295 -1.3639016 -0.35732317 0
1.0486946 -1.3261011 -0.35721087 0
1.1467607 -1.3479172 -0.35926682 0
1.2565163 -1.3546168 -0.36119148 0
1.3322713 -1.3371004 -0.36194229 0
1.4472957 -1.3442051 -0.36325538 0
1.5467768 -1.3512831 -0.36475718 0
1.6417534 -1.3508106 -0.36613733 0
1.7374432 -1.3438439 -0.36759782 0
1.8633026 -1.3578265 -0.36873847 0
1.943449 -1.3370318 -0.37106201 0
2.0244431 -1.3461127 -0.37225729 0
2.1451859 -1.360926 -0.37385613 0
2.2428381 -1.3344532 -0.37489462 0
2.3378744 -1.345975 -0.37603822 0
2.437274 -1.3572283 -0.3778038 0
2.5436702 -1.3457434 -0.37961125 0
2.6402459 -1.348865 -0.38063622 0
2.7543323 -1.3660434 -0.38220605 0
2.8212528 -1.3409129 -0.38355166 0
-2.7768612 -1.2475427 -0.3010599 0
-2.6820996 -1.2513125 -0.30249026 0
-2.5758972 -1.2469535 -0.30361277 0
-2.4696448 -1.2617429 -0.30486634 0
-2.3803799 -1.259478 -0.30664855 0
-2.2578797 -1.236271 -0.30887136 0
-2.1700437 -1.2582712 -0.30941358 0
-2.0677598 -1.2504817 -0.31109282 0
-1.9815148 -1.2373937 -0.3128024 0
-1.866303 -1.2410312 -0.31525856 0
-1.7623112 -1.2460375 -0.31681052 0
-1.6490494 -1.2382402 -0.31817636 0
-1.5593708 -1.2543359 -0.31981385 0
-1.4356433 -1.2482406 -0.32173654 0
-1.3349013 -1.247015 -0.32307154 0
-1.247263 -1.2375524 -0.32283053 0
-1.1430618 -1.2461416 -0.32604104 0
-1.0654123 -1.2624049 -0.32581031 0
-0.9465279 -1.2513858 -0.32863179 0
-0.84814417 -1.2464631 -0.33065936 0
-0.75195223 -1.2384833 -0.33145678 0
-0.64951748 -1.2621267 -0.33234152 0
-0.54133612 -1.2472531 -0.33404788 0
-0.45609161 -1.2485017 -0.33559918 0
-0.34489036 -1.2543733 -0.33942103 0
-0.25914246 -1.258751 -0.33931133 0
-0.14904632 -1.2559518 -0.3389934 0
-0.050079577 -1.2725431 -0.34131017 0
0.050239369 -1.2764713 -0.34239587 0
0.15181065 -1.2788188 -0.34513465 0
0.25121751 -1.2594876 -0.34422863 0
0.3565183 -1.2493247 -0.34525934 0
0.45245734 -1.251433 -0.3496111 0
0.54842335 -1.2566385 -0.34983084 0
0.65577835 -1.2508239 -0.3521134 0
0.75968432 -1.2461463 -0.35408524 0
0.84785104 -1.2652235 -0.35488579 0
0.92814201 -1.2411082 -0.35609406 0
1.0407547 -1.2412962 -0.35753348 0
1.1465104 -1.253966 -0.35944024 0
1.2523181 -1.2568293 -0.3605738 0
1.3572464 -1.2576197 -0.36131319 0
1.4473883 -1.240224 -0.36371756 0
1.554451 -1.249409 -0.36413628 0
1.6445647 -1.2411288 -0.36570415 0
1.738503 -1.2479138 -0.36699992 0
1.8415563 -1.2436965 -0.36911905 0
1.9509926 -1.2574513 -0.37037 0
2.042563 -1.2552018 -0.37210995 0
2.1528981 -1.2533787 -0.37321177 0
2.2634995 -1.2461916 -0.3751494 0
2.3643358 -1.2438151 -0.37656212 0
2.4583862 -1.2487264 -0.37743524 0
2.5577621 -1.2534322 -0.37911525 0
2.6537561 -1.2537359 -0.38059247 0
2.7618482 -1.2407463 -0.38135034 0
2.8490367 -1.2554812 -0.38228637 0
-2.8067498 -1.1655701 -0.30060655 0
-2.7237411 -1.1311004 -0.30166402 0
-2.6393845 -1.1631275 -0.30269405 0
-2.5231664 -1.155332 -0.30437782 0
-2.425626 -1.1528004 -0.30569613 0
-2.3259761 -1.1466203 -0.30649093 0
-2.2256973 -1.1421231 -0.30747467 0
-2.1357563 -1.1693773 -0.31033331 0
-2.0269048 -1.147777 -0.31174561 0
-1.9316777 -1.1493888 -0.3129797 0
-1.8388476 -1.1483088 -0.31477606 0
-1.7507613 -1.1462231 -0.31701502 0
-1.6474545 -1.1453023 -0.31863219 0
-1.5508832 -1.1472806 -0.31860682 0
-1.4408109 -1.1409981 -0.31997913 0
-1.3444754 -1.1521314 -0.32304505 0
-1.2401781 -1.1420953 -0.32536888 0
-1.1652321 -1.1611592 -0.32358003 0
-1.0501751 -1.1486897 -0.32667467 0
-0.95219046 -1.1523138 -0.32810947 0
-0.84418577 -1.1519874 -0.32977727 0
-0.74654716 -1.1490549 -0.33198306 0
-0.65605307 -1.1490241 -0.33171755 0
-0.55268049 -1.1521626 -0.33353555 0
-0.45025274 -1.1662105 -0.33510262 0
-0.38453636 -1.1951172 -0.33639827 0
0.546655 -1.1824919 -0.34913772 0
0.65439153 -1.1412095 -0.35047036 0
0.74559212 -1.147756 -0.35235083 0
0.8457005 -1.1517906 -0.35439587 0
0.95868742 -1.1671113 -0.35510108 0
1.0417482 -1.1393727 -0.35738927 0
1.1464213 -1.1505152 -0.35861465 0
1.2495452 -1.1506991 -0.35945991 0
1.3472279 -1.1543343 -0.36049175 0
1.4565247 -1.1537271 -0.36206824 0
1.5445731 -1.1425844 -0.36447245 0
1.6573124 -1.1540827 -0.36634505 0
1.7536788 -1.1480701 -0.36691147 0
1.8593971 -1.1426467 -0.36863533 0
1.953137 -1.1528538 -0.3704178 0
2.0355711 -1.1505309 -0.37131107 0
2.1448405 -1.1544781 -0.3730692 0
2.2466021 -1.1477275 -0.37421554 0
2.3491838 -1.1372296 -0.37538838 0
2.4458854 -1.1411529 -0.37678823 0
2.5390015 -1.1406422 -0.3775847 0
2.6381819 -1.1400484 -0.37858355 0
2.7274499 -1.1555122 -0.3795712 0
2.8419054 -1.1643611 -0.38168421 0
2.9114993 -1.1364472 -0.38376433 0
-2.754813 -1.0525808 -0.30082822 0
-2.6624417 -1.0391642 -0.30228972 0
-2.5651004 -1.0437571 -0.30363154 0
-2.4659989 -1.0447942 -0.30472666 0
-2.3740628 -1.0462226 -0.30642 0
-2.2673922 -1.0512371 -0.3077389 0
-2.1653137 -1.0482631 -0.30903396 0
-2.0524061 -1.0486156 -0.31053907 0
-1.9558226 -1.0468733 -0.31280866 0
-1.8627012 -1.0547956 -0.3139956 0
-1.7268558 -1.0399801 -0.31575054 0
-1.6566494 -1.0535877 -0.31780893 0
-1.5497605 -1.0434721 -0.31931129 0
-1.4630525 -1.0501512 -0.31911185 0
-1.3692188 -1.0436206 -0.31927851 0
-1.2724783 -1.0483295 -0.32247934 0
-1.1581303 -1.0491079 -0.32486132 0
-1.0565416 -1.045289 -0.32591411 0
-0.95443118 -1.049281 -0.32863948 0
-0.85884517 -1.0575247 -0.32889247 0
-0.74647218 -1.0478086 -0.33135644 0
-0.65115499 -1.0514032 -0.3315106 0
-0.58515638 -1.0965104 -0.33303589 0
0.7628597 -1.0707592 -0.35234883 0
0.85597891 -1.0512033 -0.35441139 0
0.95654386 -1.052794 -0.35592514 0
1.0620971 -1.0541421 -0.35665345 0
1.1459386 -1.0402824 -0.35734245 0
1.2482404 -1.0389376 -0.35860318 0
1.3477054 -1.0579067 -0.36016801 0
1.4487808 -1.0397897 -0.36251321 0
1.5483962 -1.0456436 -0.36389765 0
1.641619 -1.057969 -0.3649267 0
1.7451861 -1.0552888 -0.36673877 0
1.8481941 -1.0465494 -0.36827788 0
1.9435912 -1.0461566 -0.36976662 0
2.0644014 -1.0546442 -0.3711406 0
2.1486785 -1.0498291 -0.3724184 0
2.2617495 -1.0419468 -0.37333843 0
2.3844118 -1.05075 -0.37463751 0
2.4604707 -1.0356379 -0.37575173 0
2.5835638 -1.0512588 -0.37811056 0
2.6811626 -1.0464649 -0.37990898 0
2.774461 -1.0600182 -0.38177606 0
2.8711674 -1.0502353 -0.38277188 0
2.9472656 -1.0542296 -0.38434213 0
-2.8021886 -0.91271126 -0.30089933 0
-2.7825592 -0.95057738 -0.30033195 0
-2.6894033 -0.94028693 -0.30127388 0
-2.5673227 -0.94590163 -0.3033531 0
-2.4452138 -0.94112962 -0.3053849 0
-2.323338 -0.94111794 -0.30677837 0
-2.2478085 -0.9526006 -0.30775601 0
-2.1282649 -0.95243704 -0.30937371 0
-2.0295181 -0.94692051 -0.3116588 0
-1.9495233 -0.96105278 -0.31180525 0
-1.8397725 -0.95667756 -0.31404057 0
-1.7494326 -0.94162786 -0.31605104 0
-1.649202 -0.94959408 -0.31662747 0
-1.5370476 -0.94454849 -0.31868315 0
-1.4387147 -0.95662373 -0.32016873 0
-1.3372939 -0.94542092 -0.3199549 0
-1.2402413 -0.95527375 -0.3212845 0
-1.1467133 -0.94079292 -0.32495579 0
-1.0461407 -0.95157343 -0.32558128 0
-0.94670391 -0.94103432 -0.32765499 0
-0.8479411 -0.95067888 -0.32865039 0
-0.77294511 -0.96337909 -0.33104989 0
0.88475466 -0.98173887 -0.35414276 0
0.95400208 -0.94777012 -0.35535702 0
1.0486435 -0.94796771 -0.35597029 0
1.162585 -0.9572314 -0.35729223 0
1.233699 -0.94024229 -0.35774437 0
1.3445934 -0.95357531 -0.36084974 0
1.4391851 -0.95392257 -0.36222729 0
1.5580263 -0.95745319 -0.36366749 0
1.6294153 -0.94135171 -0.36485544 0
1.7436051 -0.95467561 -0.36665091 0
1.841741 -0.94658417 -0.36782551 0
1.9572214 -0.9542675 -0.36935717 0
2.0679526 -0.92900634 -0.36986959 0
2.1438639 -0.94468796 -0.37110585 0
2.2389865 -0.94858229 -0.37247014 0
2.3356829 -0.95031512 -0.37397569 0
2.4433546 -0.93350476 -0.37629935 0
2.5261312 -0.96513319 -0.37766853 0
2.6215832 -0.95894736 -0.37873125 0
2.7370083 -0.95697463 -0.38063163 0
2.8564188 -0.95302933 -0.38339931 0
2.9662061 -0.94276881 -0.38401648 0
-2.7180145 -0.84254599 -0.30081475 0
-2.6235192 -0.85457212 -0.30233976 0
-2.5286462 -0.86378616 -0.30380413 0
-2.4436944 -0.83476478 -0.30493665 0
-2.3418365 -0.84237659 -0.30627206 0
-2.2409444 -0.83795649 -0.30771562 0
-2.1579587 -0.84237558 -0.30928743 0
-2.0490203 -0.84748745 -0.31081286 0
-1.9626447 -0.86489469 -0.31132105 0
-1.8423917 -0.84335166 -0.3138124 0
-1.7593473 -0.85705113 -0.31428301 0
-1.6641114 -0.83818656 -0.31720749 0
-1.5521777 -0.84421599 -0.31807184 0
-1.4358109 -0.85046107 -0.32003224 0
-1.3533618 -0.85058081 -0.32085869 0
-1.2391685 -0.8498702 -0.32148173 0
-1.1318139 -0.847727 -0.32359034 0
-1.0623418 -0.86323965 -0.32584947 0
-0.95434636 -0.84309667 -0.32531264 0
-0.86948389 -0.86036754 -0.32785454 0
0.98305774 -0.87971133 -0.35348767 0
1.0501187 -0.85260707 -0.35728106 0
1.1426243 -0.85236561 -0.35654873 0
1.2641352 -0.85371965 -0.35912475 0
1.3347567 -0.8495754 -0.36075297 0
1.4478462 -0.8559593 -0.36197719 0
1.5575863 -0.84243077 -0.36394796 0
1.6709652 -0.84952199 -0.36537015 0
1.7718422 -0.84218389 -0.36643711 0
1.8568012 -0.85021931 -0.36715797 0
1.9410501 -0.8553834 -0.36788571 0
2.0369828 -0.8458252 -0.36923182 0
2.1592224 -0.85028541 -0.37129483 0
2.258594 -0.82616025 -0.37331128 0
2.3778746 -0.85058081 -0.37473267 0
2.4684486 -0.84324187 -0.37557554 0
2.5606325 -0.85429293 -0.37724307 0
2.6616547 -0.84586912 -0.3791016 0
2.7541726 -0.85364497 -0.38022932 0
2.8471882 -0.8601613 -0.38200274 0
2.9454019 -0.84407759 -0.38328362 0
3.0168834 -0.84129274 -0.38456923 0
-2.7454753 -0.76556939 -0.30075014 0
-2.6490459 -0.75911641 -0.30171707 0
-2.5554626 -0.75210935 -0.3027235 0
-2.4608421 -0.74348676 -0.30351895 0
-2.3650186 -0.74543583 -0.30553463 0
-2.2649217 -0.737755 -0.30673009 0
-2.1579874 -0.73726392 -0.30816203 0
-2.0479004 -0.74908841 -0.30980176 0
-1.9423802 -0.75821656 -0.31231853 0
-1.8285354 -0.75926095 -0.31362554 0
-1.6319041 -0.76831096 -0.31534174 0
-1.5435282 -0.74742365 -0.31747675 0
-1.4480662 -0.74846762 -0.31941459 0
-1.3442339 -0.74865437 -0.32067725 0
-1.2353257 -0.7350266 -0.32340863 0
-1.1538377 -0.75444245 -0.322559 0
-1.0434496 -0.75780147 -0.32381907 0
-0.95316654 -0.74839193 -0.32481489 0
1.0759664 -0.77230495 -0.35490799 0
1.1463352 -0.750498 -0.35634914 0
1.2507974 -0.74073398 -0.35930318 0
1.3568856 -0.75411522 -0.36093196 0
1.4530796 -0.75561082 -0.36175993 0
1.5314572 -0.75488836 -0.36195457 0
1.6589085 -0.76326638 -0.36393586 0
1.7264231 -0.7428751 -0.36421633 0
1.8518759 -0.74565423 -0.36613739 0
1.9454784 -0.75151122 -0.36828649 0
2.053467 -0.7344324 -0.36950335 0
2.1649292 -0.75691873 -0.37105647 0
2.2241004 -0.74200922 -0.3713747 0
2.3410804 -0.75346196 -0.37382269 0
2.4414797 -0.76326138 -0.3754729 0
2.5415781 -0.75479478 -0.37736472 0
2.6535695 -0.7399559 -0.3790409 0
2.7815428 -0.7756412 -0.38098758 0
2.8529856 -0.74455184 -0.38116479 0
2.9698329 -0.73726654 -0.38283461 0
3.0339866 -0.75308585 -0.38384038 0
-2.7641878 -0.68616253 -0.30050394 0
-2.6700373 -0.66277575 -0.30103564 0
-2.5631356 -0.63624293 -0.30281821 0
-2.442286 -0.6714915 -0.30487877 0
-2.3839405 -0.6500715 -0.30473155 0
-2.2627521 -0.63785398 -0.30667922 0
-2.1474769 -0.65452164 -0.30772701 0
-2.0448763 -0.65319067 -0.30904514 0
-1.9420465 -0.64802462 -0.31014377 0
-1.8555493 -0.6488719 -0.31138051 0
-1.4569706 -0.67963547 -0.31666136 0
-1.3380586 -0.65968484 -0.3193574 0
-1.2348599 -0.65341604 -0.32108495 0
-1.157294 -0.64446914 -0.32343498 0
-1.0489709 -0.64464092 -0.32307181 0
-0.99254262 -0.69119608 -0.32409263 0
1.1628963 -0.6584506 -0.35818553 0
1.2426083 -0.6462512 -0.35784921 0
1.3525032 -0.65965641 -0.35842025 0
1.4307727 -0.64843303 -0.35944664 0
1.5565473 -0.64278871 -0.36105281 0
1.660886 -0.64822751 -0.36294386 0
1.7536567 -0.65569836 -0.36495161 0
1.845645 -0.6600492 -0.36622334 0
1.9425615 -0.64808345 -0.36800253 0
2.0306211 -0.64537877 -0.36935768 0
2.1497257 -0.6563406 -0.37135354 0
2.2575061 -0.64694595 -0.37310407 0
2.3612835 -0.64024216 -0.37472007 0
2.4466906 -0.66340142 -0.37593654 0
2.5360425 -0.64888102 -0.37641656 0
2.6260638 -0.6519388 -0.37764847 0
2.7338462 -0.65795672 -0.37900698 0
2.8581352 -0.65915769 -0.3806715 0
2.9603722 -0.63822079 -0.38179967 0
3.0562403 -0.64350194 -0.38351271 0
-2.6815774 -0.58471888 -0.30013913 0
-2.5404429 -0.54623157 -0.30193689 0
-2.4149845 -0.56816685 -0.30491447 0
-2.3490579 -0.54039955 -0.30530828 0
-2.2301524 -0.55359608 -0.30694148 0
-2.1450641 -0.54880768 -0.30807471 0
-2.0617855 -0.54319936 -0.30924997 0
-1.9724894 -0.55009305 -0.31008133 0
-1.8810494 -0.54205096 -0.31126463 0
-1.2295231 -0.59146881 -0.31900048 0
-1.1454576 -0.5685485 -0.32081476 0
-1.0742357 -0.54892004 -0.32330793 0
1.1843635 -0.58383739 -0.35382149 0
1.2515641 -0.55148768 -0.35752252 0
1.3567721 -0.54077667 -0.35852897 0
1.4481279 -0.55327642 -0.3590489 0
1.5357354 -0.54923165 -0.36039653 0
1.6436726 -0.56152189 -0.36325112 0
1.7741017 -0.55697358 -0.36574659 0
1.8631366 -0.54371816 -0.36741471 0
1.9692247 -0.54917616 -0.36807749 0
2.0529757 -0.5567441 -0.36951756 0
2.1352663 -0.54627466 -0.3699441 0
2.2578368 -0.55012333 -0.37163532 0
2.3745997 -0.53554553 -0.37291148 0
2.4610288 -0.55504173 -0.37428507 0
2.5553193 -0.53806013 -0.37561941 0
2.6420085 -0.55631322 -0.37698296 0
2.7343731 -0.5553925 -0.37847617 0
2.8275564 -0.55322796 -0.37984577 0
2.942812 -0.56132823 -0.38175008 0
3.0439477 -0.52800792 -0.38269508 0
-2.7052741 -0.46926075 -0.30024785 0
-2.6135852 -0.45335165 -0.30100688 0
-2.5254543 -0.43806383 -0.30238083 0
-2.4234183 -0.4561474 -0.30356616 0
-2.3296795 -0.43851578 -0.30457553 0
-2.237869 -0.45456052 -0.30526555 0
-2.1555955 -0.4378511 -0.30607784 0
-2.0725963 -0.45194706 -0.30762103 0
-1.9418938 -0.44675261 -0.30993688 0
-1.8676871 -0.46376354 -0.31088445 0
-1.7459685 -0.44866958 -0.31208298 0
-1.638864 -0.43178129 -0.31364369 0
-1.5521617 -0.42089415 -0.31393552 0
-1.4745432 -0.41117293 -0.31711736 0
1.2618021 -0.45582533 -0.35704812 0
1.3493929 -0.45340806 -0.35844585 0
1.4669392 -0.44903842 -0.35870153 0
1.552848 -0.43830538 -0.36097327 0
1.6529562 -0.44801205 -0.36259574 0
1.7459075 -0.4626897 -0.36385483 0
1.8249011 -0.45178559 -0.36450493 0
1.942158 -0.44404063 -0.36643642 0
2.0599201 -0.44616765 -0.36817735 0
2.1591513 -0.45465159 -0.36954507 0
2.267103 -0.44358426 -0.3710888 0
2.3255737 -0.45500723 -0.37283975 0
2.4644446 -0.44565487 -0.3744179 0
2.5775528 -0.44713596 -0.37603566 0
2.6690085 -0.44331953 -0.37728882 0
2.7562542 -0.45781097 -0.37848225 0
2.8450904 -0.45163238 -0.37955803 0
2.9376249 -0.44477487 -0.38086233 0
3.0575001 -0.44060582 -0.38222888 0
-2.522989 -0.32680842 -0.30020487 0
-2.4316704 -0.35494927 -0.30199641 0
-2.3475649 -0.33832225 -0.30322197 0
-2.2609797 -0.35900941 -0.30517605 0
-2.1783829 -0.3458949 -0.30628887 0
-2.0649092 -0.34296373 -0.30779085 0
-1.9291924 -0.35046467 -0.30904314 0
-1.8574338 -0.34943092 -0.31028467 0
-1.7430012 -0.34103918 -0.31242919 0
-1.6611956 -0.34969217 -0.31365308 0
-1.5740942 -0.34650871 -0.31524628 0
-1.4432249 -0.34716442 -0.31667298 0
-1.3388445 -0.33655113 -0.31875682 0
-1.2925677 -0.30128628 -0.31804502 0
1.2842038 -0.34827465 -0.35660344 0
1.3551496 -0.34677148 -0.35750961 0
1.452611 -0.34960398 -0.35953808 0
1.5340794 -0.34249738 -0.36074594 0
1.6558281 -0.34428349 -0.36285949 0
1.753536 -0.3560608 -0.36364168 0
1.8418912 -0.34668288 -0.36521861 0
1.9305011 -0.34904948 -0.3664802 0
2.0308628 -0.35529098 -0.36818287 0
2.1527977 -0.35135606 -0.37023443 0
2.2665131 -0.34328032 -0.37160587 0
2.3255546 -0.35208628 -0.37255397 0
2.4340138 -0.35031867 -0.37364608 0
2.5571928 -0.35721403 -0.3756575 0
2.6792252 -0.34710079 -0.37704062 0
2.7670364 -0.35847372 -0.37834918 0
2.8576097 -0.34940609 -0.37975311 0
2.9442902 -0.33856928 -0.38109842 0
3.0323548 -0.34869748 -0.38252223 0
3.1043797 -0.35701573 -0.38369149 0
-2.5355389 -0.25489879 -0.30066478 0
-2.4464772 -0.245946 -0.3019239 0
-2.2731268 -0.29444322 -0.30431002 0
-2.1493838 -0.27841452 -0.30656928 0
-2.0175126 -0.27598202 -0.3079493 0
-1.9349957 -0.26469168 -0.30933475 0
-1.8163991 -0.28836033 -0.31080407 0
-1.739442 -0.27614307 -0.31122085 0
-1.6666032 -0.27686584 -0.31262985 0
-1.5604324 -0.27383229 -0.31530151 0
-1.4279259 -0.26874587 -0.31816819 0
-1.3416442 -0.25979483 -0.31896579 0
-1.2510775 -0.25733724 -0.3204641 0
-1.1790138 -0.23948185 -0.32243234 0
1.296605 -0.26337999 -0.35456434 0
1.3601431 -0.24276066 -0.35592377 0
1.4419003 -0.25008857 -0.3579914 0
1.5282015 -0.2469314 -0.35949165 0
1.6448134 -0.25586793 -0.36127183 0
1.7536633 -0.24524975 -0.36335951 0
1.8554348 -0.24404413 -0.36449948 0
1.9412327 -0.25151321 -0.36581126 0
2.0399566 -0.25701523 -0.36692473 0
2.1617291 -0.24857683 -0.36898598 0
2.2745953 -0.24508776 -0.37064841 0
2.3319561 -0.25122836 -0.37150756 0
2.4200504 -0.26072207 -0.37288567 0
2.5541723 -0.24743631 -0.37482649 0
2.6658192 -0.24877754 -0.37656221 0
2.7744205 -0.258928 -0.37808767 0
2.8623831 -0.24647412 -0.37922639 0
2.9506679 -0.25407368 -0.38062486 0
3.0389526 -0.26167327 -0.38202333 0
3.113405 -0.24556299 -0.38349089 0
-2.5424087 -0.14572458 -0.3004081 0
-2.4531047 -0.14060624 -0.30171788 0
1.2984111 -0.15874356 -0.3504982 0
1.3483628 -0.14949116 -0.35601696 0
1.4468817 -0.15585026 -0.35794508 0
1.5456944 -0.14733925 -0.35994196 0
1.6393291 -0.15702403 -0.36108112 0
1.7488582 -0.14526367 -0.36268839 0
1.8629814 -0.15231296 -0.36414734 0
1.9501419 -0.15387219 -0.3653883 0
2.0352676 -0.14588457 -0.36677033 0
2.1430736 -0.15361948 -0.36787376 0
2.2629142 -0.13798396 -0.36928359 0
2.3306894 -0.15029244 -0.36993632 0
2.4192204 -0.15600228 -0.37146243 0
2.5302548 -0.16317004 -0.37345403 0
2.6587675 -0.14615749 -0.3758069 0
2.7763996 -0.15912038 -0.37786889 0
2.8657506 -0.14367808 -0.3792049 0
2.9543359 -0.14812005 -0.38070634 0
3.0429211 -0.15256201 -0.38220784 0
3.1176133 -0.13396309 -0.38315725 0
-2.5527608 -0.073099434 -0.30100337 0
-2.4533601 -0.052761398 -0.30131167 0
1.359319 -0.048634358 -0.35579252 0
1.4637386 -0.052388478 -0.35756612 0
1.5456853 -0.048521679 -0.35879371 0
1.6295743 -0.046722293 -0.36015987 0
1.7438456 -0.049994655 -0.36216679 0
1.8686881 -0.053572357 -0.36436418 0
1.9562113 -0.056076884 -0.36553779 0
2.036443 -0.043738097 -0.36629954 0
2.1389229 -0.045935046 -0.36781144 0
2.2509565 -0.048343968 -0.36934784 0
2.3395507 -0.050221413 -0.37065855 0
2.4281025 -0.052123453 -0.37202764 0
2.5166545 -0.054025486 -0.37339672 0
2.649482 -0.056878541 -0.37545034 0
2.7823098 -0.059731591 -0.37750396 0
2.8726544 -0.041131258 -0.37890506 0
2.9611931 -0.042398915 -0.38024059 0
3.0497313 -0.043666571 -0.38157609 0
3.1153703 -0.044631355 -0.38256782 0
-2.5444367 6.7518913e-06 -0.30004072 0
-2.4487226 0.035021883 -0.30071616 0
1.3569274 0.048522811 -0.35522622 0
1.461746 0.052280862 -0.35733283 0
1.5469854 0.055358388 -0.35906288 0
1.6313249 0.046717577 -0.36021271 0
1.7446738 0.04995558 -0.36147973 0
1.863837 0.04968467 -0.36303222 0
1.9483786 0.055719055 -0.36424318 0
2.0350301 0.043710034 -0.36619219 0
2.1493056 0.046164177 -0.36782253 0
2.2633178 0.048605446 -0.36995205 0
2.3416178 0.050252471 -0.37098598 0
2.4300146 0.052150588 -0.37219629 0
2.5184112 0.054048706 -0.37340653 0
2.6510062 0.056895886 -0.37522194 0
2.783601 0.059743065 -0.37703732 0
2.8748164 0.041158952 -0.37838122 0
2.9631927 0.042423256 -0.37954667 0
3.051569 0.043687563 -0.38071209 0
3.1061792 0.044424538 -0.38143909 0
-2.444742 0.1401282 -0.30068934 0
1.3440636 0.14997216 -0.35452929 0
1.4521215 0.15645342 -0.35648742 0
1.5346171 0.15421315 -0.35750878 0
1.6474118 0.15367025 -0.3593542 0
1.7582734 0.1440195 -0.36098716 0
1.8532735 0.1595355 -0.3621088 0
1.9383936 0.15285654 -0.36336994 0
2.0347564 0.15490784 -0.36469778 0
2.1470311 0.13852771 -0.36706915 0
2.2706921 0.14650051 -0.36922917 0
2.3331804 0.15047891 -0.37033191 0
2.4214945 0.15617414 -0.37163725 0
2.531723 0.15395845 -0.37318397 0
2.6612194 0.15878008 -0.3757368 0
2.7778823 0.15924126 -0.37729239 0
2.8663089 0.1437404 -0.37841621 0
2.9547217 0.14817332 -0.37974408 0
3.0431349 0.15260625 -0.38107195 0
3.1048033 0.13339986 -0.38158283 0
-2.4428694 0.2103049 -0.30105567 0
-2.2560811 0.29223523 -0.3041459 0
-2.1727908 0.28144649 -0.3048856 0
-2.0574598 0.27660051 -0.30523786 0
-1.942746 0.27062893 -0.30591407 0
-1.8156886 0.28824753 -0.30810463 0
-1.7402422 0.27627012 -0.30967197 0
-1.6613827 0.27594328 -0.31115636 0
-1.5724357 0.27934605 -0.3120788 0
-1.4404166 0.26678756 -0.31404072 0
-1.3353909 0.26020193 -0.31540552 0
-1.2514687 0.25623748 -0.31631941 0
-1.1579849 0.25239024 -0.31769511 0
1.2913023 0.25262344 -0.35263401 0
1.364728 0.24682423 -0.35428068 0
1.4480368 0.24898787 -0.35536844 0
1.5317338 0.25585678 -0.35775617 0
1.6581744 0.23893408 -0.35931835 0
1.7555397 0.2529619 -0.36021927 0
1.8419759 0.25204375 -0.36211494 0
1.9428155 0.25455841 -0.36295241 0
2.0519443 0.25111762 -0.36464712 0
2.1591873 0.24525166 -0.36604223 0
2.2600718 0.24357945 -0.36802229 0
2.3271165 0.25075036 -0.36890078 0
2.4493594 0.25488967 -0.37075326 0
2.5840604 0.24103121 -0.37257195 0
2.6719835 0.2492338 -0.37372327 0
2.7599061 0.25743639 -0.37487462 0
2.8539653 0.24568173 -0.37667376 0
2.9419661 0.25325677 -0.37782481 0
3.0552173 0.26298514 -0.37930867 0
3.1123619 0.20073296 -0.38294342 0
-2.5314093 0.3278991 -0.30073413 0
-2.4363093 0.31558061 -0.30254534 0
-2.3284147 0.33551285 -0.30146107 0
-2.240515 0.35573402 -0.30154991 0
-2.1582203 0.34267187 -0.30279711 0
-2.0732448 0.35965243 -0.3041808 0
-1.9303628 0.34511665 -0.30665264 0
-1.8501482 0.34032631 -0.30805475 0
-1.7354454 0.35694039 -0.30953807 0
-1.6465025 0.34670228 -0.31095737 0
-1.5552292 0.35521281 -0.31247398 0
-1.4490222 0.34075731 -0.31415302 0
-1.3401079 0.32992595 -0.31450185 0
-1.2548367 0.31789312 -0.31684807 0
-1.1983055 0.31573263 -0.31361103 0
1.2762606 0.35581517 -0.35511985 0
1.3483763 0.34508148 -0.35500699 0
1.455584 0.34624445 -0.35520458 0
1.5390656 0.34697145 -0.35774884 0
1.6591305 0.34923178 -0.35869291 0
1.7386963 0.35309616 -0.35974729 0
1.8255991 0.34690136 -0.36047462 0
1.9475909 0.35222068 -0.36259055 0
2.0609906 0.33491218 -0.36475334 0
2.1589968 0.35855317 -0.36583769 0
2.2701118 0.3341952 -0.3666065 0
2.3499191 0.36940998 -0.36921325 0
2.4732215 0.33830467 -0.37007594 0
2.5608723 0.35029778 -0.37142971 0
2.6485231 0.36229086 -0.37278354 0
2.7399414 0.35483688 -0.37410066 0
2.8302765 0.34598246 -0.37518141 0
2.9179955 0.35670841 -0.37643623 0
3.036406 0.34922698 -0.37790102 0
-2.3735363 0.48207229 -0.30044624 0
-2.2261736 0.45213556 -0.30182776 0
-2.1404753 0.45068607 -0.30299449 0
-2.0557973 0.44823956 -0.30436423 0
-1.9681258 0.44383955 -0.30516571 0
-1.8723944 0.45057595 -0.30626944 0
-1.7477523 0.45277101 -0.30836478 0
-1.6306916 0.42970514 -0.31117782 0
-1.5557188 0.41788128 -0.31312707 0
1.2520968 0.46099186 -0.35266319 0
1.3473315 0.44977218 -0.35406363 0
1.4609767 0.4400982 -0.35509863 0
1.554763 0.44542703 -0.35711184 0
1.6460915 0.45631963 -0.35851213 0
1.7642192 0.46036878 -0.36058575 0
1.8392997 0.43239945 -0.36184609 0
1.9721922 0.44492364 -0.36326408 0
2.0553339 0.44822586 -0.36436439 0
2.1359038 0.44973281 -0.36519623 0
2.2509739 0.44702053 -0.36645919 0
2.3580215 0.4613637 -0.36780372 0
2.4586904 0.44455799 -0.3702364 0
2.5456331 0.46027946 -0.37146965 0
2.6374671 0.45741427 -0.37317723 0
2.7259493 0.45274532 -0.37439308 0
2.8209705 0.4478907 -0.3764478 0
2.9499035 0.44644177 -0.37801322 0
3.0385704 0.45988902 -0.37947723 0
-2.2606375 0.53844148 -0.30059633 0
-2.1523039 0.55068767 -0.30150014 0
-2.0375447 0.5557397 -0.30301473 0
-1.9371533 0.55515838 -0.30485934 0
-1.851313 0.53347659 -0.30534381 0
-1.308543 0.59913915 -0.31484577 0
-1.2349848 0.57975221 -0.31497893 0
-1.1427499 0.56646758 -0.31685662 0
-1.0488449 0.55473244 -0.31805378 0
1.1813755 0.55118889 -0.34937814 0
1.2534565 0.5382033 -0.35111335 0
1.3446654 0.56221431 -0.35296425 0
1.4351993 0.54987407 -0.35499087 0
1.545401 0.55280346 -0.35645771 0
1.6533656 0.53849202 -0.35788882 0
1.7674537 0.54777521 -0.36041546 0
1.8593088 0.54725844 -0.36178389 0
1.9456136 0.54252708 -0.36270776 0
2.0290911 0.55019867 -0.36371091 0
2.147644 0.55610913 -0.3652916 0
2.2488596 0.54113305 -0.36728153 0
2.3403018 0.56313008 -0.36835602 0
2.4337358 0.54898566 -0.36942729 0
2.5231051 0.55020177 -0.37048593 0
2.6338067 0.55459684 -0.37176418 0
2.7707958 0.54212528 -0.37359416 0
2.8836119 0.54282999 -0.37535271 0
2.9704013 0.55916631 -0.37656912 0
3.0323098 0.54820395 -0.3783817 0
-2.2508802 0.66259325 -0.30119511 0
-2.1726854 0.63955086 -0.30151445 0
-2.0545919 0.64314795 -0.30354434 0
-1.9310496 0.65967226 -0.30516177 0
-1.8264757 0.63854051 -0.3064931 0
-1.5356195 0.67669517 -0.31053153 0
-1.4448732 0.67403805 -0.31235087 0
-1.3559991 0.65643227 -0.31334507 0
-1.2520745 0.63480639 -0.31464341 0
-1.1677538 0.6496259 -0.31547114 0
-1.047464 0.64941669 -0.31839937 0
-0.98204374 0.66670078 -0.31809783 0
1.1424159 0.65486598 -0.35080591 0
1.2449178 0.65012264 -0.35219607 0
1.3685014 0.65045887 -0.35375503 0
1.453065 0.63628578 -0.35526824 0
1.5560715 0.64614856 -0.35612234 0
1.6486562 0.65706748 -0.35721087 0
1.7282031 0.64343637 -0.35710973 0
1.8447702 0.65105259 -0.35949436 0
1.94683 0.64978886 -0.36186054 0
2.0500758 0.64521086 -0.36393508 0
2.1528082 0.64223653 -0.36536673 0
2.2253582 0.65698302 -0.36610979 0
2.353436 0.6562506 -0.36776567 0
2.4644971 0.64319903 -0.36921355 0
2.5661423 0.64694208 -0.37094778 0
2.6830912 0.64561963 -0.37253618 0
2.7767005 0.64720249 -0.37407476 0
2.8638964 0.64600754 -0.37489876 0
2.975806 0.64890152 -0.37641749 0
-2.3375061 0.72452211 -0.30123737 0
-2.2269564 0.76076049 -0.3004941 0
-2.1412623 0.74860758 -0.30166769 0
-2.0517116 0.7504639 -0.30272019 0
-1.9653971 0.75103158 -0.30424678 0
-1.8510464 0.73778844 -0.30596617 0
-1.7647018 0.77760929 -0.30745438 0
-1.652504 0.74972266 -0.3085382 0
-1.5565337 0.74777478 -0.30995369 0
-1.4317275 0.75348228 -0.31233808 0
-1.346644 0.74995053 -0.31377709 0
-1.2435198 0.75205255 -0.31520346 0
-1.1480641 0.75088316 -0.31735051 0
-1.0525091 0.74654746 -0.31771004 0
-0.9526329 0.75159115 -0.31908697 0
-0.88963997 0.78468627 -0.31786269 0
1.0625004 0.75102478 -0.34874079 0
1.1550304 0.74438882 -0.350613 0
1.2510145 0.75645542 -0.35213384 0
1.3321167 0.7480911 -0.35356918 0
1.4431212 0.7541846 -0.35471651 0
1.5508701 0.75073761 -0.35591409 0
1.6714827 0.75372142 -0.35868812 0
1.7440692 0.73282319 -0.35914856 0
1.85642 0.75548947 -0.35987496 0
1.9458591 0.74347162 -0.36032605 0
2.0478218 0.75753778 -0.36169341 0
2.1562431 0.75382799 -0.36409438 0
2.2703865 0.75745392 -0.3662374 0
2.3687334 0.75279427 -0.36796498 0
2.465153 0.74477363 -0.36918032 0
2.5557771 0.75224781 -0.37031439 0
2.6454613 0.75812024 -0.37169933 0
2.7416055 0.74337441 -0.37288025 0
2.832366 0.74626625 -0.37432599 0
2.9430561 0.74387717 -0.3756007 0
-2.1532483 0.84924906 -0.3009544 0
-2.0310345 0.86051512 -0.30229998 0
-1.923155 0.84752697 -0.30400985 0
-1.8397875 0.86154735 -0.30486754 0
-1.735503 0.84021157 -0.30583078 0
-1.6632663 0.86867738 -0.3066574 0
-1.5423162 0.85889167 -0.31036252 0
-1.4538753 0.85088521 -0.31140405 0
-1.3521981 0.85324997 -0.312462 0
-1.2540109 0.84680706 -0.31404936 0
-1.1467501 0.84522438 -0.31606376 0
-1.0578524 0.84614134 -0.31629759 0
-0.95038879 0.85596454 -0.31714731 0
-0.84837532 0.84869874 -0.31773418 0
-0.79542398 0.89536607 -0.32091042 0
0.95780826 0.8569414 -0.34447131 0
1.047704 0.84425807 -0.34723997 0
1.1424824 0.85252017 -0.34983772 0
1.2485278 0.85548711 -0.35120046 0
1.3584906 0.8481856 -0.35319212 0
1.4420087 0.85783833 -0.35410509 0
1.5522833 0.86440355 -0.35524344 0
1.6323999 0.83986437 -0.35711828 0
1.7325056 0.85723048 -0.35795227 0
1.8346952 0.85593104 -0.35939586 0
1.9496291 0.84932506 -0.36185026 0
2.052773 0.84574699 -0.36291507 0
2.1315868 0.84966296 -0.36346707 0
2.2234216 0.84953195 -0.36420789 0
2.3203828 0.84868431 -0.36567998 0
2.4207439 0.84629101 -0.36766568 0
2.5211964 0.84113407 -0.36951891 0
2.639487 0.86682034 -0.37163946 0
2.7375844 0.85582381 -0.37264132 0
2.8354385 0.84206301 -0.37380955 0
2.9306993 0.83979481 -0.37533778 0
-2.1505692 0.96606994 -0.30092132 0
-2.0546861 0.95848835 -0.30207548 0
-1.9644423 0.95104063 -0.30303758 0
-1.8524952 0.9463895 -0.30441293 0
-1.7717743 0.95371443 -0.30445486 0
-1.6727688 0.95301127 -0.30805922 0
-1.5538856 0.95193899 -0.30928937 0
-1.4523296 0.95084548 -0.31059656 0
-1.3439276 0.94213802 -0.31217307 0
-1.2683673 0.95457494 -0.3143948 0
-1.1516689 0.95593059 -0.3151741 0
-1.0468259 0.93672639 -0.31647837 0
-0.95741391 0.95611018 -0.31700194 0
-0.85056597 0.95450085 -0.32065418 0
-0.7608124 0.95008576 -0.32372117 0
-0.68313676 0.97360688 -0.31871036 0
0.85311681 0.96028829 -0.34436715 0
0.95252448 0.94239926 -0.34476504 0
1.053324 0.94426948 -0.34731489 0
1.167815 0.95791775 -0.35066789 0
1.2449049 0.95836025 -0.35158417 0
1.346712 0.95207167 -0.35279933 0
1.4562967 0.94145238 -0.35419539 0
1.5553123 0.95835131 -0.35549438 0
1.6622703 0.9411993 -0.35627663 0
1.7500757 0.95808941 -0.35776803 0
1.85409 0.94722235 -0.35988456 0
1.9401317 0.95640165 -0.36067405 0
2.0587702 0.95018148 -0.3613973 0
2.1437325 0.94853717 -0.36358964 0
2.265053 0.94061434 -0.36586365 0
2.3770211 0.94748402 -0.36670172 0
2.4704344 0.94391173 -0.36768472 0
2.5686426 0.93949276 -0.36904725 0
2.660202 0.95147777 -0.37029183 0
2.7535365 0.96264261 -0.37214121 0
2.8556099 0.95270759 -0.3738943 0
2.9048944 0.9461751 -0.37512863 0
-2.300209 1.0932796 -0.30005085 0
-2.2198133 1.0550679 -0.30177841 0
-2.1373985 1.0408236 -0.30186525 0
-2.048563 1.0653894 -0.30139774 0
-1.9471763 1.0588337 -0.30232373 0
-1.8273261 1.0521458 -0.30500048 0
-1.7342716 1.0486847 -0.30661225 0
-1.6344604 1.0369532 -0.30759591 0
-1.5603068 1.0653108 -0.30810013 0
-1.4318197 1.056043 -0.31003359 0
-1.3354231 1.0482929 -0.31332853 0
-1.2371916 1.0425309 -0.31441113 0
-1.1610295 1.0578047 -0.31299666 0
-1.0505788 1.0456556 -0.31470346 0
-0.94354796 1.0393602 -0.31978187 0
-0.85847437 1.0639311 -0.3204475 0
-0.75259233 1.0475755 -0.3199929 0
-0.65336871 1.0470629 -0.32285959 0
-0.55407435 1.0751859 -0.32419553 0
-0.47860423 1.0967226 -0.32062873 0
0.67089361 1.0830307 -0.3414081 0
0.75528032 1.041852 -0.34235102 0
0.85203975 1.0460781 -0.34407488 0
0.94382507 1.0439744 -0.34571293 0
1.0524904 1.0601221 -0.34719667 0
1.1353457 1.0361432 -0.34904537 0
1.2563009 1.0515997 -0.35141915 0
1.3592324 1.0513971 -0.35191873 0
1.4588288 1.058825 -0.35288617 0
1.5521438 1.0481951 -0.35492995 0
1.6593748 1.0462343 -0.35677975 0
1.7616889 1.0481799 -0.35688198 0
1.8506689 1.0569825 -0.35791236 0
1.9576838 1.0536828 -0.36016765 0
2.0330429 1.0365158 -0.3623122 0
2.1253293 1.066588 -0.36357144 0
2.2306712 1.0407739 -0.36406615 0
2.3265855 1.0450605 -0.36538827 0
2.4299333 1.0499964 -0.36730435 0
2.5284204 1.0499886 -0.36913857 0
2.6224556 1.0453051 -0.36993644 0
2.7391145 1.0614351 -0.37149954 0
2.8430548 1.0399094 -0.37278059 0
-2.0522521 1.1621872 -0.30081004 0
-1.9658362 1.1506361 -0.30258247 0
-1.8680029 1.1479349 -0.30419719 0
-1.763146 1.1542654 -0.30526757 0
-1.6614476 1.15696 -0.30641228 0
-1.5540619 1.1495897 -0.3073307 0
-1.4468353 1.152602 -0.30964041 0
-1.3523397 1.1420537 -0.31138647 0
-1.2481955 1.1494249 -0.31128439 0
-1.134469 1.1359804 -0.31312147 0
-1.0684261 1.1611156 -0.31556776 0
-0.94978583 1.142174 -0.31804976 0
-0.83809865 1.1414545 -0.31844386 0
-0.75403088 1.158535 -0.32185087 0
-0.64815867 1.1575688 -0.32155421 0
-0.55057186 1.1475888 -0.3228915 0
-0.45871538 1.149513 -0.32556248 0
