# .PCD v0.7 - Point Cloud Data file format
VERSION 0.7
FIELDS x y z intensity
SIZE 4 4 4 4
TYPE F F F F
COUNT 1 1 1 1
WIDTH 151
HEIGHT 1
VIEWPOINT 0 0 0 1 0 0 0
POINTS 151
DATA ascii
-44.086361 1.2631023 0.77043474 8
-44.045967 1.26194 3.8557386 10
-43.998661 -1.2605411 2.3060918 9
-43.941456 -1.2588866 5.3967595 11
-43.741558 -12.879443 0.78989834 8
-43.758183 -12.206321 2.3748112 9
-43.650833 -16.326738 2.434732 9
-43.66814 -14.22805 4.0109658 10
-43.594505 -19.966511 0.82835281 8
-43.55262 -20.7062 2.5180554 9
-43.567253 -19.204025 4.1563325 10
-35.954067 -6.2394962 0.6338709 8
-35.94241 -6.2374263 1.9085661 9
-35.928749 -6.2350082 3.1869223 10
-35.900169 -6.2300014 4.4702759 11
-19.336626 10.602604 0.39051875 8
-19.31496 10.590797 1.1603067 9
-19.314777 10.590757 1.9333535 10
-13.141617 1.8964238 0.23277014 8
-13.192114 3.8891053 0.24216226 8
-13.136836 1.8957319 0.69672132 9
-13.186296 3.8873961 0.72276503 9
-13.12401 1.8938804 1.1613264 10
-13.16578 3.8813603 1.2033682 10
-13.121639 1.893536 1.6291715 11
-11.163333 4.7395072 1.4924442 11
-8.8912392 10.339826 1.1985036 10
-8.493166 12.926576 0.81649458 9
-8.5161152 -2.7754393 1.4160868 12
-7.6035433 9.1079941 1.4618322 11
-6.5867534 -2.7916071 1.3873296 13
-5.2496367 -2.7771318 1.3670368 14
-4.6238847 -5.344974 0.86386883 11
-4.6661582 -47.945969 7.6320415 12
-4.1965828 13.165984 0.72857708 9
-3.6798131 -4.0132513 1.0533966 13
-3.0203543 -6.6164861 0.63360614 10
-2.0987165 -3.9655776 1.0300827 14
-1.2482696 9.1726942 0.48698103 9
-1.2501168 9.187501 0.8126846 10
-1.2502185 9.1898527 1.139888 11
-1.2958627 4.8484497 1.3449308 15
-1.2252703 6.8525877 1.3534102 13
-1.2791097 8.5076265 1.3633664 12
-1.0186905 -5.82973 0.72449702 11
-1.0163995 -4.6122117 0.91408533 13
-1.1915169 5.7396297 1.353348 14
-0.84837133 9.1706953 0.16269284 8
-0.96999395 -6.6954174 0.59069508 10
0.70154482 9.1373272 0.48020548 9
2.8878412 -47.75111 2.5182471 9
2.8867123 -47.75491 4.1963105 10
2.8848484 -47.746853 5.8834877 11
2.8843825 -47.761818 7.5883117 12
3.0724337 9.1970463 2.6214876 15
3.8464007 9.220458 1.5993637 12
4.1650677 9.223712 1.9882464 13
4.5003076 9.2375202 1.2774498 11
4.7133756 -24.729534 0.44880757 8
4.7113724 -24.723003 1.3280212 9
4.7115884 -24.728008 2.2110388 10
4.6590405 9.2284451 2.799032 15
4.712606 -24.737217 3.1003666 11
4.7135372 -24.74601 3.9979582 12
4.7137599 -24.751167 4.9054556 13
5.195765 9.2602997 1.7025107 12
5.192822 9.256753 2.0870962 13
5.2036142 9.2677174 0.19368154 8
5.2017851 9.2660866 0.56815505 9
5.3703351 9.2574959 2.4986577 14
5.4469337 -24.733686 5.8557653 14
6.138216 9.2876968 0.99045527 10
6.1923275 -24.731544 6.841136 15
6.3331723 9.2898788 1.8042762 12
6.5465231 9.304162 0.20939863 8
6.5408235 9.3002462 1.416692 11
6.5317073 9.2930632 3.0780802 15
6.9532847 9.3041401 2.2861822 13
7.1692901 9.3099756 2.7452695 14
7.3997407 9.3197842 0.63941044 9
7.9413323 -4.4776273 -0.14769194 7
7.9922547 -3.6414175 0.16646102 8
7.9547744 -4.1902566 0.80263811 10
7.9482927 -4.1870127 1.1206785 11
7.8634453 9.336235 1.0879327 10
7.9580178 -3.9054022 1.4236616 12
7.8472257 9.3196135 1.9565117 12
8.0041533 -3.6466641 -0.1419857 7
8.0865345 -24.643442 0.46609113 8
8.0188484 -3.65343 0.4766745 9
8.0869656 -24.64716 1.3726771 9
8.0295334 -3.6585829 1.7371112 13
8.027895 -3.6579421 2.0605593 14
8.0389881 -3.6630106 2.3929346 15
8.0243206 -5.6500969 2.651664 15
8.358387 9.3571196 0.23322813 8
8.3231726 9.3265133 3.3882658 15
8.5984411 9.3534031 1.5848587 11
8.4745731 -24.635345 2.2929096 10
8.5829563 9.340312 2.9641671 14
8.4756184 -24.640709 3.2130532 11
8.4749222 -24.641058 4.1406927 12
8.4790897 -24.660376 7.001111 15
9.3819599 9.3581095 2.6093256 13
9.9945927 9.4023323 0.2566871 8
10.279647 9.3951702 0.7509132 9
10.592298 9.4045544 1.2643363 10
10.586353 9.4003983 1.7669176 11
10.573874 9.3904743 2.2719719 12
10.57806 9.3964357 3.3060889 14
10.567106 9.3879013 3.8308766 15
19.701006 -30.401205 7.0738282 13
19.704309 -30.408144 8.3981819 14
21.028507 -47.320938 0.93649173 8
27.40522 19.744314 3.0072041 10
27.411909 19.751305 4.2042837 11
27.686609 19.347082 1.8192174 9
27.951645 18.938749 0.63545483 8
27.99934 18.981388 6.6400862 13
28.006769 18.98855 7.8809028 14
28.836754 17.783909 5.4283361 12
28.877264 17.814804 9.1665936 15
29.119619 17.382359 3.0222948 10
29.120155 17.384541 4.2231874 11
29.678688 16.577412 1.8342967 9
29.709063 16.601479 6.683197 13
29.711229 16.604519 7.9299607 14
30.532398 15.366664 0.64742649 8
30.864141 14.988585 5.5001125 12
31.147032 14.5739 3.0672948 10
31.422949 14.155211 1.8618597 9
31.463923 14.179754 6.7790484 13
32.043854 13.344893 4.3258443 11
32.06834 13.35949 8.0960732 14
32.65749 12.514216 5.6076884 12
33.215748 11.64087 0.66959679 8
33.279526 11.669703 6.9283805 13
33.567341 11.228354 3.1591849 10
33.884907 10.797609 4.4331717 11
34.217072 10.368557 8.3330173 14
34.836201 9.4676933 1.9528767 9
35.51305 8.5697336 7.1774073 13
35.822323 8.0990915 3.2788367 10
35.834675 8.1039515 5.8917756 12
36.127312 7.622983 0.70419431 8
36.818634 6.672873 2.0248165 9
36.844696 6.6794705 4.6681738 11
37.237251 6.2031007 8.7976332 14
37.587372 5.7075839 7.4687133 13
37.919781 5.2018585 6.1375151 12
38.271744 4.690299 3.4423516 10
