# .PCD v0.7 - Point Cloud Data file format
VERSION 0.7
FIELDS x y z intensity
SIZE 4 4 4 4
TYPE F F F F
COUNT 1 1 1 1
WIDTH 1351
HEIGHT 1
VIEWPOINT 0 0 0 1 0 0 0
POINTS 1351
DATA ascii
0.95077825 -1.3617266 -0.33351505 0
1.0411546 -1.3559105 -0.3342751 0
1.1331226 -1.3429705 -0.33492371 0
1.2551357 -1.3531829 -0.33534005 0
1.3530163 -1.3386121 -0.33548164 0
1.4540966 -1.3429558 -0.33574548 0
1.5481968 -1.3458269 -0.33669651 0
1.6457121 -1.3539932 -0.33764368 0
1.7559197 -1.3581902 -0.33806151 0
1.8716573 -1.3435793 -0.33803296 0
1.9697351 -1.3508213 -0.33810222 0
2.0612333 -1.3706111 -0.33834442 0
2.1483378 -1.3415337 -0.34016997 0
2.2550232 -1.3564314 -0.34047973 0
2.339391 -1.3321873 -0.3421894 0
2.428046 -1.343104 -0.34224111 0
-3.3407161 -1.2491022 -0.31205794 0
-3.2711408 -1.2498465 -0.31236213 0
-3.1613259 -1.2600067 -0.31221429 0
-3.0696738 -1.2490458 -0.31286681 0
-2.9754086 -1.2356223 -0.31318128 0
-2.8801785 -1.2446697 -0.31437492 0
-2.7764611 -1.247259 -0.31519085 0
-2.6717577 -1.2465138 -0.31528023 0
-2.5648782 -1.2643806 -0.31574351 0
-2.4674628 -1.2605633 -0.3167001 0
-2.3683269 -1.2530391 -0.3173219 0
-2.256639 -1.2407089 -0.31795347 0
-2.1381724 -1.2515734 -0.31795621 0
-2.0408201 -1.2609974 -0.31902063 0
-1.9390695 -1.249758 -0.31950715 0
-1.8435978 -1.2515727 -0.31991929 0
-1.7479085 -1.2547233 -0.31987435 0
-1.6327339 -1.2444636 -0.32048327 0
-1.5566229 -1.2584615 -0.32102337 0
-1.4388996 -1.2509658 -0.32276633 0
-1.3441545 -1.2378145 -0.32342213 0
-1.2391535 -1.25783 -0.3239499 0
-1.145424 -1.2331898 -0.32450628 0
-1.0631176 -1.2623079 -0.32394555 0
-0.94700009 -1.2491876 -0.32533267 0
-0.8495779 -1.2332203 -0.32509363 0
-0.74218667 -1.2468127 -0.32729489 0
-0.65406638 -1.2508045 -0.32611203 0
-0.56351072 -1.2647588 -0.32548639 0
-0.44540727 -1.2471503 -0.32695559 0
-0.35634202 -1.2516116 -0.32708538 0
-0.24124525 -1.2485583 -0.32818681 0
-0.15255918 -1.2513531 -0.32961413 0
-0.049677085 -1.2598164 -0.32888812 0
0.049772393 -1.2623241 -0.32960111 0
0.15150131 -1.2475647 -0.32967356 0
0.2447098 -1.2436332 -0.32979235 0
0.33982414 -1.2500432 -0.3317633 0
0.45495588 -1.2525837 -0.33187416 0
0.54536992 -1.2530682 -0.33270353 0
0.65206599 -1.2681419 -0.33324605 0
0.75243008 -1.2314192 -0.33385736 0
0.84594697 -1.2622216 -0.33391923 0
0.94950962 -1.2443262 -0.33461788 0
1.0471461 -1.2493539 -0.3347061 0
1.1527687 -1.2607591 -0.33547509 0
1.2456011 -1.2422725 -0.33538574 0
1.3553661 -1.2375534 -0.33543172 0
1.4551071 -1.2468518 -0.33752745 0
1.5388589 -1.2439744 -0.33743128 0
1.6314356 -1.2618393 -0.33816007 0
1.7239377 -1.2563767 -0.33790478 0
1.8273025 -1.2531439 -0.3375679 0
1.9414217 -1.2511518 -0.33887517 0
2.0475733 -1.2583202 -0.34007934 0
2.1599386 -1.2435238 -0.34118673 0
2.2526102 -1.254354 -0.34148458 0
2.3600273 -1.2485241 -0.34179953 0
2.4639492 -1.2588722 -0.34170413 0
2.5011411 -1.210791 -0.34119305 0
-3.3615532 -1.1303896 -0.31220278 0
-3.256593 -1.1388686 -0.31291407 0
-3.1540134 -1.1537353 -0.31330049 0
-3.0171053 -1.1527818 -0.31425422 0
-2.9324269 -1.1204269 -0.31488496 0
-2.8372679 -1.1544814 -0.31440911 0
-2.7184665 -1.1518275 -0.31536925 0
-2.6307223 -1.1368681 -0.31644964 0
-2.5516052 -1.1537279 -0.31664249 0
-2.4394269 -1.1594851 -0.31694302 0
-2.3211558 -1.1442331 -0.31777075 0
-2.2581146 -1.1536199 -0.31824115 0
-2.1660357 -1.1459091 -0.3185972 0
-2.0667038 -1.1509525 -0.31886446 0
-1.9557921 -1.1448209 -0.32000154 0
-1.8672577 -1.1659485 -0.32053038 0
-1.7491412 -1.1393362 -0.32123712 0
-1.6564223 -1.1534168 -0.32124782 0
-1.5558958 -1.1509321 -0.3206076 0
-1.4527311 -1.150471 -0.32227314 0
-1.3419235 -1.1464092 -0.32402998 0
-1.2408392 -1.1469142 -0.32446742 0
-1.1651883 -1.1618994 -0.32482758 0
-1.0435958 -1.1414161 -0.32544562 0
-0.96053457 -1.1456532 -0.32559255 0
-0.85052007 -1.1438297 -0.32675993 0
-0.76070112 -1.1529686 -0.32552654 0
-0.64631522 -1.1550059 -0.32658345 0
-0.54271162 -1.1415609 -0.32561666 0
-0.45733231 -1.1472033 -0.32647347 0
-0.34813046 -1.1673199 -0.32649285 0
-0.26477808 -1.1935332 -0.32762268 0
0.26568052 -1.1978375 -0.32875913 0
0.3536804 -1.1860564 -0.33169931 0
0.44773936 -1.1592959 -0.33309397 0
0.55029267 -1.1435595 -0.33306223 0
0.6522609 -1.1516861 -0.33279186 0
0.74861121 -1.1522832 -0.33305544 0
0.84686279 -1.1630455 -0.33504283 0
0.93480551 -1.1394482 -0.33432215 0
1.0460726 -1.1440471 -0.33556113 0
1.1479025 -1.1520087 -0.33563945 0
1.2452238 -1.156798 -0.33454219 0
1.3364654 -1.140913 -0.33770633 0
1.4540427 -1.1483377 -0.33823609 0
1.5412683 -1.1489589 -0.33866975 0
1.6385988 -1.1586093 -0.33783296 0
1.761706 -1.1635859 -0.33792275 0
1.8434476 -1.1511561 -0.33971527 0
1.944839 -1.1447974 -0.33955821 0
2.038347 -1.1607612 -0.34052458 0
2.141531 -1.1526829 -0.34137765 0
2.2423944 -1.1388053 -0.34042618 0
2.3456903 -1.1666793 -0.34106186 0
2.4483008 -1.1639576 -0.34176457 0
2.5335689 -1.1468284 -0.34306851 0
-3.4146831 -1.0317373 -0.31209251 0
-3.3318043 -1.0588467 -0.31287402 0
-3.2453046 -1.0313556 -0.31336862 0
-3.14537 -1.0495124 -0.31359076 0
-3.0425119 -1.063673 -0.31413364 0
-2.9568586 -1.0337251 -0.31465232 0
-2.8557477 -1.0446402 -0.31509781 0
-2.7630699 -1.0557172 -0.31614637 0
-2.666832 -1.0408164 -0.31625509 0
-2.5660241 -1.0441136 -0.31665578 0
-2.4682252 -1.0458059 -0.31737196 0
-2.3563273 -1.043293 -0.31818807 0
-2.2451808 -1.0541444 -0.3182008 0
-2.1411581 -1.0555482 -0.31907439 0
-2.0312607 -1.0377254 -0.31959388 0
-1.9462421 -1.0512421 -0.3198382 0
-1.8324178 -1.05514 -0.32090783 0
-1.7403425 -1.052372 -0.32214129 0
-1.654624 -1.0464815 -0.32201618 0
-1.5497407 -1.0466424 -0.32201406 0
-1.449519 -1.0500963 -0.32246739 0
-1.3377826 -1.0435275 -0.32302657 0
-1.2612767 -1.0652151 -0.32506114 0
-1.1553173 -1.050891 -0.32499132 0
-1.0530382 -1.0569085 -0.32493111 0
-0.94485813 -1.0504757 -0.32634047 0
-0.85882986 -1.0547247 -0.32683912 0
-0.75843096 -1.0485812 -0.32672572 0
-0.65878594 -1.0466934 -0.326987 0
-0.563694 -1.0747579 -0.32525298 0
0.65030587 -1.062253 -0.33170098 0
0.74813527 -1.0573339 -0.33522299 0
0.85200739 -1.046242 -0.33434761 0
0.95578843 -1.0650083 -0.33494133 0
1.0355765 -1.0358894 -0.33628097 0
1.1467956 -1.0494745 -0.33501559 0
1.2529199 -1.0491345 -0.33712831 0
1.353394 -1.0624175 -0.33831286 0
1.4372576 -1.0433309 -0.33939528 0
1.5609657 -1.0379778 -0.33841524 0
1.6719265 -1.0607234 -0.33858538 0
1.7512414 -1.0556219 -0.33913398 0
1.8614242 -1.0505764 -0.34017518 0
1.9728856 -1.061906 -0.34137607 0
2.0632148 -1.0541048 -0.34012815 0
2.1621199 -1.046543 -0.34025201 0
2.2640154 -1.056191 -0.3418082 0
2.361186 -1.0607271 -0.3425602 0
2.4551125 -1.0609932 -0.34304354 0
2.5589621 -1.0626216 -0.3435187 0
2.6029091 -1.037465 -0.34404764 0
-3.450736 -0.93563175 -0.31280839 0
-3.3654246 -0.96449256 -0.31228748 0
-3.2782822 -0.93952054 -0.31291479 0
-3.1556616 -0.9453451 -0.31391808 0
-3.0723052 -0.97637308 -0.31435794 0
-2.9615729 -0.93356556 -0.31524217 0
-2.8592284 -0.96146995 -0.31568033 0
-2.7615063 -0.94336373 -0.31572175 0
-2.6428657 -0.96642971 -0.31645617 0
-2.5576468 -0.9352597 -0.31696969 0
-2.4494274 -0.94273615 -0.31835458 0
-2.3662236 -0.98245263 -0.31788027 0
-2.2487564 -0.97173584 -0.31904507 0
-2.1662564 -0.95459837 -0.31933141 0
-2.0554919 -0.94117332 -0.3197583 0
-1.9515694 -0.93915462 -0.31993949 0
-1.8530633 -0.94669116 -0.32125187 0
-1.7566742 -0.9683072 -0.32081494 0
-1.6470782 -0.94826406 -0.32226774 0
-1.5573757 -0.94166821 -0.32262945 0
-1.4543072 -0.95212173 -0.32241961 0
-1.3507307 -0.95098627 -0.32320768 0
-1.2543602 -0.94592762 -0.32346997 0
-1.1421751 -0.9598 -0.32501158 0
-1.047773 -0.94714177 -0.32507572 0
-0.95502436 -0.95853156 -0.32527667 0
-0.85228378 -0.94747776 -0.32629871 0
-0.75818104 -0.95879918 -0.32766038 0
-0.69457489 -0.98986417 -0.32401481 0
0.76892209 -0.97939503 -0.33371699 0
0.8559553 -0.94965082 -0.33591941 0
0.94755828 -0.9450711 -0.3343409 0
1.055546 -0.95582736 -0.33441401 0
1.136861 -0.93537235 -0.33686897 0
1.2475368 -0.95085937 -0.33758697 0
1.3535155 -0.95087069 -0.33858415 0
1.4518965 -0.95053333 -0.33843958 0
1.556684 -0.94126284 -0.33831245 0
1.6494114 -0.94966441 -0.33917752 0
1.739753 -0.95250785 -0.33976775 0
1.8404057 -0.94018406 -0.33959392 0
1.9310733 -0.95354712 -0.34019157 0
2.0290556 -0.94657207 -0.34116849 0
2.1246626 -0.9544723 -0.34195662 0
2.2365952 -0.96655601 -0.34220159 0
2.3408644 -0.95913154 -0.342801 0
2.4394178 -0.958978 -0.34321511 0
2.5497928 -0.95339519 -0.34209222 0
2.6187532 -0.94728547 -0.34278542 0
-3.4511414 -0.83908111 -0.31266895 0
-3.3469057 -0.85657501 -0.3134082 0
-3.2403526 -0.83737272 -0.31408051 0
-3.1372023 -0.85884643 -0.31426644 0
-3.0168548 -0.86460429 -0.31479672 0
-2.9297123 -0.83963221 -0.31542403 0
-2.8346913 -0.85642493 -0.31646457 0
-2.7362337 -0.8480106 -0.31659797 0
-2.6371033 -0.85895777 -0.31717613 0
-2.5324547 -0.86511415 -0.31697491 0
-2.442939 -0.8540377 -0.31776434 0
-2.3596933 -0.83124733 -0.31770992 0
-2.106173 -0.89234364 -0.3203325 0
-2.0145097 -0.87050182 -0.32000464 0
-1.9331397 -0.85187501 -0.32070419 0
-1.8289338 -0.85732734 -0.32103729 0
-1.7471679 -0.85522348 -0.32146892 0
-1.645155 -0.84657544 -0.32203612 0
-1.5398321 -0.85448819 -0.3232204 0
-1.436838 -0.84108436 -0.32365158 0
-1.3625143 -0.86258262 -0.32308289 0
-1.2506936 -0.84462422 -0.32505527 0
-1.1444033 -0.85080743 -0.32509431 0
-1.0611879 -0.85785896 -0.324725 0
-0.94784975 -0.84816062 -0.32527757 0
-0.85908508 -0.86223835 -0.32627064 0
0.87822503 -0.86877996 -0.33102965 0
0.95014966 -0.85555267 -0.33491373 0
1.0514604 -0.84965611 -0.33595774 0
1.1646545 -0.85450977 -0.33674246 0
1.240502 -0.83776808 -0.3387177 0
1.3550603 -0.84355879 -0.33833042 0
1.4438454 -0.85907155 -0.33792734 0
1.5294697 -0.85169637 -0.3389788 0
1.6374035 -0.85133147 -0.33960587 0
1.7447907 -0.8509509 -0.33958352 0
1.8533518 -0.83886635 -0.34087828 0
1.9744858 -0.85747093 -0.34146544 0
2.0704212 -0.85974771 -0.34167883 0
2.1575933 -0.83863163 -0.3422837 0
2.2676101 -0.84783924 -0.34265298 0
2.3556287 -0.86160374 -0.34259662 0
2.4536417 -0.8577776 -0.34305242 0
2.5444829 -0.84903151 -0.34373152 0
2.6569698 -0.85274374 -0.34432459 0
-3.4584236 -0.75383687 -0.31301051 0
-3.3331816 -0.75172031 -0.31409776 0
-3.2446856 -0.73175806 -0.31467569 0
-3.1377702 -0.75515234 -0.31467336 0
-3.0421352 -0.75516319 -0.31517252 0
-2.9513211 -0.75502807 -0.31570917 0
-2.8563378 -0.75253683 -0.3160722 0
-2.7592535 -0.74817884 -0.31626737 0
-2.6708145 -0.7448259 -0.31709862 0
-2.5762403 -0.75832266 -0.31802818 0
-2.4602559 -0.76248956 -0.3184568 0
-2.3296242 -0.75864381 -0.31885269 0
-2.243423 -0.74840093 -0.3189601 0
-2.153096 -0.73553902 -0.31883726 0
-2.0648754 -0.72201049 -0.31896809 0
-1.9882982 -0.71117896 -0.3203254 0
-1.8718007 -0.79304475 -0.3219744 0
-1.7298068 -0.79202211 -0.32283092 0
-1.6505754 -0.77006048 -0.32264304 0
-1.5453409 -0.74365848 -0.32293805 0
-1.4669211 -0.75467217 -0.32348132 0
-1.3528777 -0.75146472 -0.32504407 0
-1.2517666 -0.73966408 -0.32593876 0
-1.1670595 -0.75597531 -0.32536557 0
-1.0457735 -0.74576277 -0.32457858 0
-0.95965999 -0.75458002 -0.32531226 0
0.97690493 -0.77820897 -0.33470547 0
1.0532171 -0.75108445 -0.3368544 0
1.1561441 -0.74514043 -0.33764517 0
1.2505991 -0.75159901 -0.33715174 0
1.3466989 -0.75426054 -0.33717227 0
1.4454359 -0.75534618 -0.33865502 0
1.5620961 -0.74614471 -0.33980215 0
1.6678292 -0.74924171 -0.34010875 0
1.7569088 -0.74428767 -0.34041563 0
1.8430581 -0.74989301 -0.34096995 0
1.9434063 -0.76188791 -0.34160608 0
2.0229626 -0.75190234 -0.34248918 0
2.1282318 -0.74400616 -0.3433753 0
2.2361722 -0.73706985 -0.34279931 0
2.3694751 -0.76226938 -0.34365454 0
2.4773376 -0.74841595 -0.34359655 0
2.5787697 -0.73892754 -0.34479037 0
2.6712041 -0.76543653 -0.34504405 0
2.7233701 -0.73843467 -0.34646153 0
-3.5325012 -0.63879329 -0.31407386 0
-3.4396939 -0.67301667 -0.31335104 0
-3.3506551 -0.65559578 -0.3139118 0
-3.2616162 -0.63817477 -0.31447256 0
-3.1720505 -0.66798878 -0.31512052 0
-3.0833945 -0.6493212 -0.31584027 0
-2.9648485 -0.64643931 -0.31668371 0
-2.8464627 -0.64226276 -0.31738535 0
-2.7848229 -0.67021978 -0.31673092 0
-2.6524677 -0.63837004 -0.31750244 0
-2.5270066 -0.65043002 -0.31808949 0
-2.4728866 -0.66685247 -0.31817994 0
-2.3662446 -0.65981162 -0.31908253 0
-2.2636709 -0.63120997 -0.31969905 0
-2.1522853 -0.65030009 -0.32120687 0
-2.0422342 -0.65451807 -0.32091606 0
-1.9415827 -0.64785075 -0.32088134 0
-1.8998879 -0.64903939 -0.31798667 0
-1.5153738 -0.69384021 -0.32396635 0
-1.4540257 -0.67425221 -0.32426119 0
-1.3493985 -0.66169822 -0.32497665 0
-1.2548823 -0.65170407 -0.32680532 0
-1.154925 -0.64639884 -0.32718831 0
-1.0485346 -0.64305496 -0.32481351 0
-0.99281102 -0.67045701 -0.32100886 0
1.072652 -0.65915334 -0.33741492 0
1.1456993 -0.6473285 -0.3372691 0
1.2626984 -0.66533661 -0.33729759 0
1.3374128 -0.6397236 -0.33822641 0
1.4556808 -0.64138436 -0.33919564 0
1.5663189 -0.65397733 -0.33962172 0
1.627759 -0.64884371 -0.34063768 0
1.7445081 -0.64609104 -0.34017268 0
1.8670044 -0.63489765 -0.34134632 0
1.9688995 -0.64122814 -0.34184799 0
2.0553992 -0.65736085 -0.34226575 0
2.1452618 -0.64808285 -0.34170258 0
2.245548 -0.64343387 -0.3432931 0
2.3288534 -0.66730732 -0.34366742 0
2.4205494 -0.65635616 -0.34392288 0
2.5364404 -0.64891785 -0.34474543 0
2.6467032 -0.65723228 -0.34529293 0
2.7230988 -0.64713037 -0.34579107 0
-3.5414734 -0.53622383 -0.31337786 0
-3.4600923 -0.57470328 -0.31407058 0
-3.3705387 -0.55982774 -0.31458446 0
-3.2809851 -0.54495227 -0.31509835 0
-3.186615 -0.55273187 -0.31558806 0
-3.063287 -0.54657537 -0.31643668 0
-2.9315381 -0.55184174 -0.31679267 0
-2.8164225 -0.55107021 -0.31727636 0
-2.7294357 -0.55444926 -0.31845573 0
-2.6401143 -0.55598342 -0.31943905 0
-2.534364 -0.54721981 -0.31924081 0
-2.452637 -0.54717046 -0.32015571 0
-2.3417008 -0.55308723 -0.31985861 0
-2.2202711 -0.55119473 -0.32021359 0
-2.132066 -0.56171554 -0.32108971 0
-2.0451684 -0.55449164 -0.32165074 0
-1.9529737 -0.53461337 -0.32210425 0
-1.8600055 -0.51865816 -0.32161888 0
-1.2370921 -0.58760554 -0.32553971 0
-1.1347632 -0.56363028 -0.32555443 0
-1.0781351 -0.56073135 -0.32566249 0
1.1466588 -0.55719304 -0.33787057 0
1.2508845 -0.55120814 -0.33907211 0
1.3605831 -0.53935337 -0.34071499 0
1.4459493 -0.55254161 -0.34034294 0
1.5458307 -0.55290335 -0.33923912 0
1.6495667 -0.54815239 -0.33975315 0
1.7515273 -0.5428161 -0.34112549 0
1.8403579 -0.5415327 -0.34187976 0
1.9440501 -0.55707097 -0.34247181 0
2.0708857 -0.55811983 -0.34257102 0
2.1471317 -0.53327769 -0.34398809 0
2.2710676 -0.54648387 -0.34336582 0
2.3553708 -0.56677109 -0.34378633 0
2.4503534 -0.55275983 -0.34475899 0
2.5448158 -0.53574973 -0.34513333 0
2.629637 -0.55361193 -0.34550548 0
2.7483025 -0.5458349 -0.34607434 0
-3.5567536 -0.43486238 -0.31350034 0
-3.4764817 -0.45026958 -0.31406429 0
-3.3811402 -0.46256918 -0.31459793 0
-3.2632802 -0.43866447 -0.31520697 0
-3.1312575 -0.45126647 -0.3157953 0
-3.0166187 -0.45682949 -0.31634563 0
-2.9268653 -0.4432393 -0.31685558 0
-2.8338025 -0.44990191 -0.31745797 0
-2.743664 -0.45569921 -0.31818163 0
-2.6499145 -0.4596312 -0.31859913 0
-2.5476196 -0.44652039 -0.3191354 0
-2.4231262 -0.45613858 -0.31999138 0
-2.3398592 -0.44046411 -0.32068282 0
-2.2476559 -0.45648167 -0.32146537 0
-2.1576042 -0.45421863 -0.32138035 0
-2.0431902 -0.43348822 -0.32249254 0
-1.9638048 -0.45777097 -0.32206059 0
-1.8532487 -0.44599074 -0.32303935 0
-1.7671329 -0.45202586 -0.32315862 0
-1.648093 -0.42714348 -0.32427287 0
-1.5857232 -0.43005383 -0.32341731 0
1.1791964 -0.45050746 -0.33830714 0
1.2501421 -0.44295624 -0.34017113 0
1.360009 -0.46038657 -0.3397212 0
1.4291015 -0.43533435 -0.33998424 0
1.5520445 -0.44084933 -0.34171391 0
1.6659238 -0.45801485 -0.34179097 0
1.7496232 -0.44086599 -0.34301519 0
1.8664085 -0.44911113 -0.34222046 0
1.9455609 -0.45350605 -0.34207687 0
2.0283468 -0.45756647 -0.34266248 0
2.1338043 -0.44936949 -0.3432284 0
2.242295 -0.43911508 -0.3441453 0
2.353101 -0.45356259 -0.34463748 0
2.477046 -0.44802412 -0.34468201 0
2.56077 -0.44419509 -0.34455466 0
2.6504991 -0.44022369 -0.34557316 0
2.7445481 -0.45584729 -0.34567571 0
2.8025658 -0.42437217 -0.34803399 0
-3.5561063 -0.3233366 -0.31461123 0
-3.453444 -0.34716308 -0.31490582 0
-3.3406413 -0.3681787 -0.31508663 0
-3.2222192 -0.34720638 -0.31596464 0
-3.1319959 -0.33748394 -0.31653276 0
-3.0370083 -0.34922644 -0.3169156 0
-2.9418836 -0.35966867 -0.31718206 0
-2.8517962 -0.34865418 -0.31772161 0
-2.7561464 -0.35695753 -0.31798384 0
-2.6661046 -0.34529352 -0.31847373 0
-2.5483203 -0.35650826 -0.31890815 0
-2.4337399 -0.35073113 -0.31974271 0
-2.3496969 -0.33861896 -0.32023957 0
-2.2647789 -0.35953638 -0.32106832 0
-2.1626716 -0.33561307 -0.32201469 0
-2.0349467 -0.35303694 -0.32247862 0
-1.9524422 -0.35311303 -0.32315403 0
-1.8565741 -0.34281391 -0.32408875 0
-1.7452043 -0.36176819 -0.32405776 0
-1.6343707 -0.34416512 -0.32469791 0
-1.5548719 -0.35053077 -0.32531992 0
-1.4483166 -0.34851587 -0.3266905 0
-1.36394 -0.33019313 -0.32722047 0
-1.2413237 -0.31755477 -0.32601923 0
-1.1699927 -0.30827269 -0.3241975 0
1.2498183 -0.35153714 -0.3401669 0
1.3486782 -0.3450844 -0.34054789 0
1.4384443 -0.34631377 -0.34125012 0
1.5530473 -0.34352899 -0.34092876 0
1.6581142 -0.34919149 -0.34121835 0
1.7353747 -0.35246009 -0.34123793 0
1.8585477 -0.3409071 -0.34196475 0
1.9697521 -0.34161782 -0.34289807 0
2.049036 -0.35537583 -0.34329239 0
2.1355877 -0.35470226 -0.34316692 0
2.2296035 -0.33758011 -0.34379581 0
2.3345175 -0.36225045 -0.34402514 0
2.4575059 -0.34324211 -0.34511742 0
2.5782931 -0.35275522 -0.34574929 0
2.6667504 -0.34543711 -0.34579998 0
2.7636898 -0.36475047 -0.34585866 0
2.812284 -0.32342166 -0.34758937 0
-3.5454626 -0.22869328 -0.31446666 0
-3.4197855 -0.26980162 -0.31559646 0
-3.329319 -0.26266548 -0.31618884 0
-3.2388525 -0.25552934 -0.31678122 0
-3.148386 -0.24839324 -0.31737357 0
-3.0579195 -0.24125713 -0.31796595 0
-2.9638951 -0.25515905 -0.31838214 0
-2.8734837 -0.24737568 -0.31896639 0
-2.783061 -0.25963205 -0.31971282 0
-2.6648777 -0.24234302 -0.32073098 0
-2.590656 -0.27914929 -0.31994158 0
-2.266012 -0.29352161 -0.3204155 0
-2.1816633 -0.28259575 -0.3207722 0
-2.0447304 -0.27469516 -0.32216051 0
-1.8390391 -0.29195452 -0.32249102 0
-1.7246585 -0.28649178 -0.32412004 0
-1.6370665 -0.27791759 -0.32496205 0
-1.5289147 -0.27647108 -0.32497686 0
-1.4542809 -0.27372098 -0.3248868 0
-1.3595903 -0.25984827 -0.32532436 0
-1.2571284 -0.25531691 -0.32602501 0
-1.190794 -0.25073397 -0.32616562 0
1.2561374 -0.25826305 -0.33793345 0
1.356001 -0.23783872 -0.34000126 0
1.4510715 -0.24585289 -0.34005854 0
1.5372492 -0.25918004 -0.34061003 0
1.648472 -0.24260457 -0.34162465 0
1.7406014 -0.25086462 -0.34187773 0
1.8419857 -0.24514413 -0.34213018 0
1.9446368 -0.24702446 -0.34274173 0
2.0635602 -0.25231233 -0.34296429 0
2.1532969 -0.24759714 -0.34387609 0
2.2447784 -0.2418139 -0.34443572 0
2.3312171 -0.25112823 -0.34502354 0
2.4379389 -0.26264784 -0.34555453 0
2.552011 -0.2567915 -0.3468987 0
2.6543334 -0.24008402 -0.34752005 0
2.7724762 -0.25859973 -0.34793791 0
2.8281507 -0.24354358 -0.34854683 0
-3.6006203 -0.15470609 -0.31530362 0
-3.540498 -0.11815218 -0.31522295 0
-3.4173064 -0.17133161 -0.31555343 0
-3.3265772 -0.16678303 -0.31601861 0
-3.2358482 -0.16223446 -0.3164838 0
-3.145119 -0.15768586 -0.31694895 0
-3.05439 -0.15313727 -0.31741413 0
-2.9636607 -0.14858869 -0.31787932 0
-2.8729315 -0.14404011 -0.31834447 0
-2.7824991 -0.15949866 -0.31894854 0
-2.6558986 -0.15224737 -0.31967998 0
-2.5994613 -0.14898869 -0.31969705 0
1.2592686 -0.15411843 -0.3400068 0
1.3555603 -0.14165772 -0.3397516 0
1.4591185 -0.15360062 -0.34059453 0
1.5432518 -0.14394623 -0.34124225 0
1.6438944 -0.15335879 -0.34175587 0
1.7529001 -0.14587528 -0.34318832 0
1.8382262 -0.15815002 -0.34343958 0
1.9401159 -0.16018152 -0.34433454 0
2.0532076 -0.14092229 -0.34536123 0
2.1761599 -0.14034598 -0.3458809 0
2.2656262 -0.1461325 -0.34610415 0
2.3520346 -0.15170498 -0.34631383 0
2.4384429 -0.15727746 -0.34652352 0
2.5248511 -0.16284995 -0.34673318 0
2.6411424 -0.14492919 -0.34708199 0
2.7574005 -0.16451198 -0.34742749 0
2.8254325 -0.14167748 -0.34737858 0
-3.5620565 -0.05099481 -0.31517354 0
-3.4291906 -0.073609486 -0.3158645 0
-3.3384266 -0.071660131 -0.31641656 0
-3.2476621 -0.069710776 -0.31696865 0
-3.156898 -0.067761421 -0.31752074 0
-3.0661337 -0.065812066 -0.3180728 0
-2.9753695 -0.063862711 -0.31862491 0
-2.8846052 -0.061913352 -0.319177 0
-2.7652638 -0.0528992 -0.320088 0
-2.6408894 -0.063130073 -0.32047436 0
1.2736951 -0.054637238 -0.34170103 0
1.3427945 -0.048042037 -0.34213036 0
1.4616815 -0.054618791 -0.34243372 0
1.5555623 -0.0446564 -0.3426553 0
1.6523236 -0.03928395 -0.34312522 0
1.7572864 -0.055231869 -0.3440457 0
1.8493392 -0.052969716 -0.34423417 0
1.9296092 -0.055267196 -0.34441146 0
2.0482967 -0.043938857 -0.34441495 0
2.1738157 -0.046638515 -0.34478754 0
2.2631333 -0.048558187 -0.34526142 0
2.3499465 -0.050422046 -0.3457253 0
2.4367597 -0.052285898 -0.34618914 0
2.5235729 -0.054149762 -0.34665298 0
2.6431775 -0.05671028 -0.34700844 0
2.7647259 -0.05933648 -0.34829599 0
2.8419838 -0.040726058 -0.34899598 0
-3.6053042 9.5669984e-06 -0.31542277 0
-3.5468676 0.033987802 -0.31536627 0
-3.4316924 0.049167063 -0.31648991 0
-3.3408692 0.047866765 -0.31699643 0
-3.2500465 0.046566468 -0.31750289 0
-3.1592236 0.045266166 -0.31800941 0
-3.0684006 0.043965865 -0.3185159 0
-2.9775779 0.042665571 -0.31902239 0
-2.886755 0.04136527 -0.31952891 0
-2.7505205 0.039414819 -0.32028863 0
-2.6142862 0.037464373 -0.32104835 0
1.2730505 0.045619834 -0.34140119 0
1.350077 0.051709328 -0.34136119 0
1.4649569 0.051437713 -0.34231696 0
1.5527008 0.044401601 -0.34196955 0
1.6499438 0.055297662 -0.34212241 0
1.7526205 0.045194536 -0.34332529 0
1.84506 0.052707724 -0.34362897 0
1.9390526 0.063998833 -0.34394845 0
2.0510123 0.044016521 -0.34512493 0
2.179095 0.050749995 -0.34585279 0
2.2687213 0.048814509 -0.34615347 0
2.3555784 0.050677955 -0.34663045 0
2.4424355 0.05254139 -0.34710741 0
2.5292926 0.054404825 -0.3475844 0
2.6356492 0.047021277 -0.34805289 0
2.7464738 0.058730356 -0.3488293 0
2.8441205 0.040713787 -0.34925827 0
-3.6168962 0.12951292 -0.31664783 0
-3.5281105 0.12632762 -0.31711447 0
-3.4340067 0.17214262 -0.31698555 0
-3.3432941 0.16759497 -0.31752175 0
-3.2525818 0.16304728 -0.31805795 0
-3.1618695 0.15849963 -0.31859419 0
-3.071157 0.15395194 -0.31913042 0
-2.9804444 0.14940427 -0.31966662 0
-2.8611832 0.13673164 -0.32058036 0
-2.7278714 0.15632015 -0.32087976 0
-2.6151621 0.14985095 -0.32164976 0
1.2613221 0.14516936 -0.34030294 0
1.3569425 0.15074867 -0.34111887 0
1.4687908 0.14529334 -0.34303653 0
1.554396 0.14497173 -0.34346607 0
1.6471895 0.15716085 -0.34348479 0
1.7495238 0.14571807 -0.34332776 0
1.8402382 0.15846193 -0.34391791 0
1.9381033 0.15288043 -0.34380686 0
2.0539227 0.15208565 -0.34499708 0
2.1685486 0.13984118 -0.34497076 0
2.2605135 0.14575623 -0.34563532 0
2.3473465 0.15135767 -0.34625554 0
2.43418 0.15695913 -0.34687579 0
2.521013 0.1625606 -0.34749603 0
2.6545858 0.15213829 -0.34850907 0
2.7894089 0.1397956 -0.34934723 0
2.843961 0.14261848 -0.3496567 0
-3.6010036 0.25814694 -0.31585503 0
-3.5429504 0.21991162 -0.31554213 0
-3.4285545 0.27049249 -0.31703639 0
-3.3380132 0.2633504 -0.31757957 0
-3.2474718 0.2562083 -0.31812274 0
-3.1569304 0.24906619 -0.31866592 0
-3.0663891 0.24192408 -0.31920907 0
-2.9778888 0.25644377 -0.32005978 0
-2.8659396 0.25689813 -0.32100147 0
-2.7520595 0.2366576 -0.32158881 0
-2.6189892 0.24438639 -0.3229762 0
-2.2824433 0.29565001 -0.323367 0
-2.1555054 0.27920747 -0.32367212 0
-2.0317535 0.27801299 -0.32480463 0
-1.8483882 0.29343873 -0.3260459 0
-1.7303405 0.2746982 -0.32545835 0
-1.647984 0.27978879 -0.32749188 0
-1.5402706 0.27857238 -0.32772893 0
-1.437597 0.27059025 -0.32772964 0
-1.3584206 0.26060948 -0.32645953 0
-1.2448632 0.25070342 -0.32906413 0
-1.1914458 0.26569414 -0.32714012 0
1.247969 0.25351921 -0.34132376 0
1.3445778 0.25310096 -0.34164506 0
1.4553455 0.24019261 -0.34214708 0
1.5434566 0.26019332 -0.34238097 0
1.6508569 0.24582963 -0.34390152 0
1.7481068 0.25060233 -0.34453404 0
1.8334576 0.25085017 -0.34470201 0
1.9427809 0.2516464 -0.34581089 0
2.060216 0.24461776 -0.3469404 0
2.1750112 0.25016275 -0.34789553 0
2.269655 0.24459539 -0.34824541 0
2.3560436 0.25390431 -0.34866998 0
2.4424322 0.26321319 -0.34909451 0
2.5292721 0.2542516 -0.34926301 0
2.6441267 0.24680953 -0.34912482 0
2.7567205 0.24386649 -0.35025692 0
2.8447068 0.24493167 -0.35058683 0
-3.6003592 0.30995238 -0.31615525 0
-3.54638 0.33955765 -0.31640545 0
-3.4332962 0.34513766 -0.31723246 0
-3.3430309 0.33606362 -0.31792092 0
-3.2527659 0.32698956 -0.31860942 0
-3.1625006 0.3179155 -0.31929788 0
-3.0722356 0.30884147 -0.31998634 0
-2.6055245 0.33749944 -0.32259041 0
-2.558636 0.35640541 -0.32267094 0
-2.4548483 0.3538498 -0.3228794 0
-2.3707147 0.34172854 -0.32341045 0
-2.2525048 0.35113755 -0.32442111 0
-2.1285014 0.35674009 -0.3250708 0
-2.0266993 0.35149336 -0.32581118 0
-1.9650707 0.35538977 -0.32611519 0
-1.8484176 0.34791425 -0.32645944 0
-1.7349702 0.35675082 -0.32634619 0
-1.634841 0.34420806 -0.32619601 0
-1.550161 0.35543436 -0.32673445 0
-1.4502085 0.35993326 -0.32779542 0
-1.367751 0.33624539 -0.32885614 0
-1.2466215 0.31896451 -0.32740825 0
-1.1833789 0.31179973 -0.32790679 0
1.2534504 0.35479814 -0.3412022 0
1.3556337 0.34349629 -0.34209552 0
1.4412059 0.34674007 -0.34292799 0
1.5326917 0.35959017 -0.34326559 0
1.644172 0.34628722 -0.3441188 0
1.7376076 0.3486152 -0.34460238 0
1.8368479 0.35418007 -0.34544054 0
1.9521202 0.34464651 -0.34611803 0
2.0680737 0.3435111 -0.34663042 0
2.1574843 0.35839483 -0.34716785 0
2.2529142 0.34108841 -0.34751955 0
2.3387201 0.35408211 -0.34786823 0
2.4289441 0.34999532 -0.34844708 0
2.537586 0.35660321 -0.34910727 0
2.6391454 0.34838733 -0.34980145 0
2.7634792 0.33787668 -0.35052103 0
2.834033 0.3464714 -0.35058966 0
-2.5578318 0.4437288 -0.32248792 0
-2.4393492 0.4592298 -0.32376012 0
-2.3556454 0.44347271 -0.32415056 0
-2.2681367 0.46070966 -0.32503465 0
-2.1646595 0.43968317 -0.32559028 0
-2.0322526 0.44702572 -0.32612857 0
-1.9624554 0.46952137 -0.32576972 0
-1.8617845 0.44808295 -0.32587287 0
-1.75483 0.44899955 -0.3262957 0
-1.6350392 0.4345243 -0.32669798 0
-1.5523291 0.42475012 -0.32674861 0
1.1782566 0.46971568 -0.33989811 0
1.2453713 0.44219702 -0.34231716 0
1.355422 0.4642576 -0.34215069 0
1.4406455 0.44267294 -0.34279224 0
1.5674579 0.44925538 -0.34319767 0
1.6410275 0.45763198 -0.34321693 0
1.7306522 0.45230341 -0.34362632 0
1.8584406 0.44034594 -0.34496933 0
1.9577764 0.45625979 -0.34572437 0
2.046942 0.44629246 -0.34650695 0
2.1399434 0.45059469 -0.34712204 0
2.2389357 0.43803641 -0.34802344 0
2.3242016 0.45472038 -0.3484489 0
2.4334211 0.44929743 -0.34870964 0
2.5466855 0.44178686 -0.34896898 0
2.6761692 0.4445568 -0.34939766 0
2.7617998 0.45877886 -0.34976307 0
2.8135591 0.44663957 -0.34979579 0
-2.5431569 0.5545283 -0.32369521 0
-2.4188032 0.56377238 -0.32408914 0
-2.3358152 0.54442853 -0.32445318 0
-2.242202 0.5565756 -0.32439545 0
-2.1594989 0.53604668 -0.3247436 0
-2.0731313 0.54629213 -0.32565871 0
-1.9693042 0.54054451 -0.32629567 0
-1.8472872 0.51511168 -0.32707432 0
-1.2666342 0.59071124 -0.33044314 0
-1.1441525 0.560063 -0.33055884 0
-1.0889573 0.57618171 -0.33013424 0
1.1500145 0.54664433 -0.34128737 0
1.2459388 0.55975139 -0.34183398 0
1.3666029 0.54893994 -0.34280998 0
1.4557941 0.55629373 -0.3432669 0
1.5354433 0.54917079 -0.34357715 0
1.6666818 0.55180365 -0.34528717 0
1.7731051 0.54967737 -0.34562087 0
1.8555338 0.54619479 -0.34538427 0
1.9340674 0.55423516 -0.34493485 0
2.0557947 0.55746311 -0.3456935 0
2.1271193 0.54432815 -0.34651414 0
2.2491739 0.54824638 -0.34825569 0
2.3619568 0.54474664 -0.34902325 0
2.4588766 0.54560703 -0.34947205 0
2.5705128 0.54126596 -0.35006484 0
2.6556866 0.55920118 -0.35064778 0
2.7617033 0.56786346 -0.35078517 0
2.8081286 0.52863121 -0.35085955 0
-2.5468736 0.6515879 -0.32279652 0
-2.4639201 0.6584661 -0.3237825 0
-2.3331513 0.64140457 -0.32421827 0
-2.2224638 0.65410715 -0.32533967 0
-2.1365535 0.64549291 -0.32569048 0
-2.0430739 0.64932072 -0.32574537 0
-1.9551622 0.65237474 -0.32649207 0
-1.5483091 0.6822871 -0.32888597 0
-1.4423947 0.67902201 -0.3304857 0
-1.3506671 0.65378559 -0.32988763 0
-1.2622986 0.64332461 -0.33015212 0
-1.1549555 0.65403068 -0.33139548 0
-1.050438 0.65580273 -0.32969466 0
1.0802811 0.67454374 -0.34129894 0
1.148613 0.63964385 -0.34137636 0
1.2610601 0.66115439 -0.34197015 0
1.3358198 0.6467036 -0.34338519 0
1.4410491 0.65983957 -0.34397981 0
1.5520916 0.63696593 -0.34480116 0
1.6526923 0.64511597 -0.34490114 0
1.7363608 0.64925832 -0.34510633 0
1.8364559 0.65986282 -0.34590426 0
1.9459152 0.65554446 -0.34716982 0
2.07232 0.64391208 -0.34707242 0
2.1491511 0.6625821 -0.34830803 0
2.2641084 0.64886147 -0.34695628 0
2.361223 0.6401692 -0.34822354 0
2.4453323 0.66297644 -0.34893236 0
2.5419681 0.65027648 -0.35002252 0
2.6360476 0.6543622 -0.35113755 0
2.741848 0.6598267 -0.35209516 0
2.802619 0.63214719 -0.35276282 0
-2.5307324 0.7448976 -0.32393742 0
-2.4556239 0.76115441 -0.32382822 0
-2.3742645 0.73593855 -0.32423443 0
-2.262717 0.73698938 -0.3248117 0
-2.1473043 0.75080836 -0.32568479 0
-2.044276 0.75340897 -0.32636872 0
-1.9336873 0.75469822 -0.32542786 0
-1.7644663 0.77754021 -0.32745302 0
-1.6530317 0.75693375 -0.32942948 0
-1.5378236 0.74601889 -0.3305614 0
-1.4736823 0.7605862 -0.32907322 0
-1.353441 0.74086225 -0.33052659 0
-1.2431706 0.73971963 -0.33144802 0
-1.1633884 0.76275957 -0.32933339 0
-1.057224 0.73784864 -0.33025858 0
-0.9787544 0.7571615 -0.33163795 0
1.0445359 0.76110965 -0.34207061 0
1.1474762 0.75127894 -0.34363323 0
1.2650497 0.75271595 -0.34478664 0
1.3519584 0.74330527 -0.34368816 0
1.4510605 0.7543897 -0.34433398 0
1.5501503 0.75844944 -0.3442032 0
1.6326876 0.74752301 -0.34606564 0
1.7551167 0.7526806 -0.34676048 0
1.8557408 0.73968905 -0.34628347 0
1.9575748 0.74798936 -0.34635535 0
2.0507588 0.75008047 -0.34652826 0
2.1541281 0.75312442 -0.34825051 0
2.2500651 0.75062901 -0.34913921 0
2.3423469 0.74451327 -0.34944057 0
2.4289188 0.75292933 -0.34964317 0
2.5327582 0.76529759 -0.34989259 0
2.6456172 0.73773003 -0.35047248 0
2.7637777 0.74938995 -0.35162613 0
-2.5025384 0.85491675 -0.32470796 0
-2.4598584 0.85012114 -0.32385096 0
-2.342849 0.83802795 -0.32458353 0
-2.2497647 0.84113544 -0.32513645 0
-2.1540017 0.84068817 -0.32542345 0
-2.0651255 0.84040403 -0.32612881 0
-1.9589981 0.84338301 -0.32699129 0
-1.8622183 0.85269356 -0.32725832 0
-1.7550809 0.85282767 -0.32872719 0
-1.6416299 0.85346872 -0.3283422 0
-1.5563947 0.85212648 -0.32928273 0
-1.4577327 0.84307843 -0.32971069 0
-1.3508266 0.84737486 -0.32969198 0
-1.2463439 0.85478622 -0.32957992 0
-1.1450597 0.84973043 -0.33035281 0
-1.0457455 0.84536046 -0.33152109 0
-0.94010997 0.84132403 -0.33165529 0
-0.88342738 0.87403083 -0.33299607 0
0.95562869 0.85653925 -0.34213212 0
1.0482615 0.85806513 -0.34268281 0
1.1592042 0.86039674 -0.34317386 0
1.238021 0.84128243 -0.34514982 0
1.3402113 0.86371177 -0.34550738 0
1.454789 0.84121424 -0.34468728 0
1.5587974 0.85188323 -0.34542215 0
1.6520157 0.84398007 -0.3455767 0
1.7349733 0.85521358 -0.34601247 0
1.8385277 0.84178489 -0.34738216 0
1.9379498 0.85738897 -0.34821281 0
2.0220804 0.83966887 -0.34738281 0
2.1497197 0.84964484 -0.34774557 0
2.2541676 0.84311998 -0.34869668 0
2.3510842 0.84097135 -0.34944236 0
2.446835 0.83615971 -0.35013142 0
2.5601411 0.85411167 -0.35107124 0
2.6738546 0.8498686 -0.35138282 0
2.734015 0.84744531 -0.35145989 0
-2.4547763 0.93813455 -0.32465643 0
-2.3448117 0.94426835 -0.32625103 0
-2.2354503 0.93750662 -0.32658449 0
-2.1192186 0.95202184 -0.32698703 0
-2.0277526 0.94611341 -0.32703629 0
-1.9343575 0.95358753 -0.32775083 0
-1.8305566 0.94987172 -0.32761475 0
-1.7453681 0.94782114 -0.32753241 0
-1.6517894 0.94152117 -0.32897583 0
-1.5484934 0.96089077 -0.32939288 0
-1.4416498 0.93299335 -0.3299242 0
-1.3688537 0.96128821 -0.33086604 0
-1.252648 0.94057751 -0.33077529 0
-1.1493583 0.93352723 -0.33071098 0
-1.0611739 0.95307136 -0.33278888 0
-0.94656909 0.95010352 -0.33411336 0
-0.84726948 0.94458938 -0.3342244 0
-0.76380646 0.98013031 -0.33299589 0
0.79556245 0.99134964 -0.34058952 0
0.85794818 0.95194429 -0.34128156 0
0.9493227 0.95281345 -0.34280393 0
1.0516598 0.95467877 -0.34322116 0
1.1473811 0.94583827 -0.34278816 0
1.2521113 0.954225 -0.34424433 0
1.3405471 0.94778395 -0.34531274 0
1.4641713 0.95852643 -0.34540215 0
1.5419714 0.93912262 -0.34452823 0
1.653264 0.94566691 -0.3457312 0
1.7685573 0.93891126 -0.34659147 0
1.8683088 0.95447224 -0.34759223 0
1.9737312 0.95547748 -0.34839404 0
2.0589426 0.93696839 -0.34945846 0
2.1790798 0.94172806 -0.3493433 0
2.2667236 0.94124669 -0.34910277 0
2.3594286 0.9405244 -0.34961781 0
2.4526193 0.93708497 -0.3502287 0
2.5402668 0.94976526 -0.35137856 0
2.6455469 0.96764708 -0.35204363 0
2.7122777 0.92654103 -0.35192984 0
-2.4490981 1.0376675 -0.32678929 0
-2.3605773 1.0401907 -0.32683322 0
-2.2666407 1.037848 -0.32661378 0
-2.1700325 1.0505618 -0.32675791 0
-2.0722985 1.0586818 -0.32709822 0
-1.9590241 1.0363858 -0.32716441 0
-1.8474306 1.0462362 -0.32804891 0
-1.7602813 1.064428 -0.3292402 0
-1.6438124 1.0462954 -0.32917139 0
-1.540893 1.0696602 -0.33022317 0
-1.4373165 1.0473688 -0.3302893 0
-1.3409767 1.0373262 -0.33044446 0
-1.2642045 1.0599953 -0.33135635 0
-1.1490306 1.039292 -0.33225855 0
-1.0344306 1.040988 -0.33283523 0
-0.95617801 1.0611327 -0.33300623 0
-0.85086387 1.0551904 -0.33372891 0
-0.7520923 1.0557555 -0.33390036 0
-0.65781087 1.0619675 -0.33485726 0
-0.59429812 1.0947212 -0.33376619 0
0.66847676 1.0792198 -0.34019879 0
0.75750238 1.0472275 -0.34198976 0
0.85907412 1.0549918 -0.34250608 0
0.96250069 1.0578761 -0.34164727 0
1.0518187 1.0511149 -0.34414181 0
1.1391467 1.0453899 -0.34445554 0
1.2559373 1.045385 -0.34446809 0
1.3524685 1.0460194 -0.34539917 0
1.4381019 1.0479921 -0.34593278 0
1.5331907 1.0514297 -0.34612209 0
1.6289705 1.0498705 -0.34651008 0
1.7464577 1.0561405 -0.3467052 0
1.8467766 1.0517117 -0.34694698 0
1.9232624 1.0481541 -0.34745863 0
2.0274079 1.0541023 -0.34877214 0
2.1292193 1.0496321 -0.34962517 0
2.2341869 1.042326 -0.35036221 0
2.3220661 1.0432078 -0.3501538 0
2.4354026 1.0524786 -0.35072494 0
2.5444715 1.0425996 -0.35113275 0
2.6469138 1.0402392 -0.35134581 0
-2.418968 1.1075665 -0.32666436 0
-2.3452592 1.1476723 -0.32593572 0
-2.2243178 1.1363469 -0.326473 0
-2.1297138 1.166087 -0.32719254 0
-2.0250645 1.1468703 -0.32746515 0
-1.9316456 1.1492887 -0.32836309 0
-1.8258622 1.1583781 -0.32877266 0
-1.7294598 1.1500078 -0.32897195 0
-1.6577131 1.1543808 -0.32986754 0
-1.5588849 1.1530579 -0.33053154 0
-1.4535689 1.1580422 -0.33037671 0
-1.3625528 1.1507423 -0.33111182 0
-1.2468126 1.1482375 -0.3317129 0
-1.1463195 1.1504086 -0.33229345 0
-1.0493696 1.1542417 -0.33339515 0
-0.93570614 1.1462748 -0.33464488 0
-0.84610009 1.1645064 -0.33380419 0
-0.74635708 1.1515701 -0.33462694 0
-0.65397769 1.1453046 -0.33554658 0
-0.55262709 1.1520143 -0.33536723 0
-0.44484028 1.1767911 -0.3371971 0
-0.38111293 1.1844774 -0.33340344 0
0.45547998 1.1916248 -0.34190094 0
0.5562098 1.1541899 -0.34120965 0
0.6493597 1.1563493 -0.34216559 0
0.74839145 1.1420251 -0.34130859 0
0.86092633 1.1605409 -0.34344852 0
0.9452557 1.1439556 -0.34322739 0
1.053193 1.1517278 -0.34394956 0
1.1470058 1.1677449 -0.34478521 0
1.2514954 1.1406296 -0.34512287 0
1.3480262 1.155192 -0.34515092 0
1.4376142 1.1381415 -0.34817246 0
1.5549444 1.1364458 -0.34701115 0
1.6661969 1.1426406 -0.34689045 0
1.7573498 1.1504651 -0.34757423 0
1.8636423 1.1526722 -0.34827122 0
1.9732376 1.1361314 -0.34753993 0
2.0673807 1.1512383 -0.34851268 0
2.1709056 1.1484479 -0.34954941 0
2.2787874 1.1436635 -0.35093343 0
2.3719749 1.1482805 -0.35133305 0
2.4704063 1.1525398 -0.35151064 0
2.5601389 1.1501572 -0.35169673 0
2.6303952 1.13665 -0.35185966 0
-2.3476448 1.2528996 -0.32725191 0
-2.262728 1.2389215 -0.32693106 0
-2.1617835 1.265397 -0.32725129 0
-2.0707321 1.2521555 -0.32792237 0
-1.9702781 1.2499992 -0.32836819 0
-1.8719316 1.2447482 -0.32861817 0
-1.7430881 1.2324682 -0.33001775 0
-1.6522174 1.2571454 -0.3301743 0
-1.551761 1.2433685 -0.3303234 0
-1.4504532 1.2610005 -0.33082569 0
-1.3454258 1.2460412 -0.33160654 0
-1.2395314 1.2439938 -0.33212638 0
-1.1482806 1.2559615 -0.33328468 0
-1.0465261 1.24817 -0.33327118 0
-0.94800234 1.2567123 -0.33310452 0
-0.84681064 1.2636935 -0.33447322 0
-0.75293809 1.2392173 -0.33515173 0
-0.66528058 1.2551425 -0.33534002 0
-0.540016 1.2620988 -0.33622575 0
-0.44960544 1.2428379 -0.33633804 0
-0.34347552 1.2493312 -0.33805501 0
-0.25772068 1.2514423 -0.33735758 0
-0.14875211 1.2537376 -0.33839467 0
-0.049653836 1.2637917 -0.33896226 0
0.049932901 1.2667741 -0.33979583 0
0.14942059 1.2594608 -0.33990726 0
0.24904953 1.2489623 -0.34134808 0
0.35013735 1.2521726 -0.34041703 0
0.44503561 1.2543894 -0.34105858 0
0.55783904 1.2537267 -0.34295475 0
0.65401798 1.2468058 -0.3417348 0
0.75177354 1.2662598 -0.34264532 0
0.84492177 1.2276018 -0.34362942 0
0.95085841 1.2384336 -0.34381422 0
1.0493749 1.2517232 -0.34441555 0
1.14413 1.269357 -0.34516805 0
1.2544626 1.2440683 -0.3456715 0
1.3657012 1.2575833 -0.34555349 0
1.4566306 1.2481979 -0.34634224 0
1.5399969 1.2451631 -0.34712413 0
1.6417086 1.243664 -0.34854165 0
1.7580644 1.2494206 -0.3470771 0
1.8278202 1.2343786 -0.34803128 0
1.9465144 1.2449346 -0.34942931 0
2.0220838 1.2427038 -0.34958363 0
2.1293321 1.2669423 -0.34977806 0
2.2371492 1.2457752 -0.3497138 0
2.3495908 1.2503986 -0.35134292 0
2.4470224 1.2576584 -0.35236588 0
2.5497375 1.2569133 -0.35267472 0
2.6055315 1.2156087 -0.35302374 0
-2.3123553 1.3094276 -0.32628289 0
-2.2573156 1.3430889 -0.32685789 0
-2.1397851 1.3502197 -0.32760862 0
-2.0459232 1.346594 -0.32835868 0
-1.9440571 1.3467823 -0.32934478 0
-1.841537 1.3420117 -0.3304297 0
-1.7483991 1.3392671 -0.33060041 0
-1.6522681 1.3553936 -0.33034524 0
-1.5578014 1.3543205 -0.33045065 0
-1.4503553 1.3550435 -0.33158362 0
-1.3551296 1.3524387 -0.33219704 0
-1.2588122 1.3453904 -0.33315998 0
-1.1425158 1.3493384 -0.33353356 0
-1.039517 1.3507887 -0.332986 0
-0.94942552 1.3530785 -0.33395121 0
-0.85950959 1.3443468 -0.33511373 0
-0.76040351 1.3474759 -0.33591828 0
-0.64241326 1.3392575 -0.33656922 0
-0.55413127 1.342598 -0.33549276 0
-0.44827425 1.3687311 -0.33704558 0
-0.35033613 1.3491313 -0.33682132 0
-0.24389648 1.3449912 -0.33843485 0
-0.15093385 1.3548791 -0.33850223 0
-0.060742162 1.3536112 -0.33880889 0
0.049192376 1.3503706 -0.33873835 0
0.1508296 1.3542904 -0.33986741 0
0.24927001 1.3516564 -0.34131056 0
0.34357995 1.3633363 -0.34063762 0
0.46437034 1.3491889 -0.33899918 0
0.55104613 1.360364 -0.34184411 0
0.65304232 1.3368168 -0.34238762 0
0.75497848 1.3671908 -0.34374523 0
0.85265952 1.3425696 -0.34359547 0
0.95574099 1.3415321 -0.34352484 0
1.0512779 1.3491182 -0.34476492 0
1.1549982 1.3544301 -0.34637916 0
1.2366379 1.3444216 -0.34634843 0
1.3534383 1.3465894 -0.34635752 0
1.4534768 1.3502417 -0.34599686 0
1.5566388 1.3532923 -0.34744653 0
1.6544822 1.3453826 -0.34795517 0
1.743042 1.3428386 -0.34911883 0
1.8483442 1.3469981 -0.34905788 0
1.9436661 1.3534657 -0.34885415 0
2.0579469 1.3472233 -0.35000411 0
2.1540275 1.3665193 -0.35109732 0
2.26194 1.3458527 -0.35110602 0
2.3508539 1.353551 -0.35097727 0
2.4607506 1.3702898 -0.35162783 0
2.5412316 1.3444401 -0.35300884 0
-2.2422619 1.4451809 -0.32756653 0
-2.1568749 1.4342288 -0.32791057 0
-2.0498507 1.449385 -0.33003786 0
-1.9532535 1.4449279 -0.33049682 0
-1.8428881 1.4466506 -0.33016372 0
-1.7337444 1.4431603 -0.3301298 0
-1.6301632 1.4377947 -0.33067453 0
-1.5325385 1.4464029 -0.33185107 0
-1.4505937 1.4558054 -0.33230615 0
-1.3502016 1.4485823 -0.33289424 0
-1.2502898 1.4400921 -0.33395016 0
-1.1412482 1.4605057 -0.33287305 0
-1.0635831 1.4485396 -0.33396202 0
-0.94779152 1.4401207 -0.33489642 0
-0.86469895 1.457126 -0.33662942 0
-0.75213593 1.4481642 -0.3360495 0
-0.64368397 1.4520485 -0.33663017 0
-0.56099075 1.4437435 -0.33630389 0
-0.4481903 1.4644186 -0.33688402 0
-0.34559047 1.4314651 -0.33684877 0
-0.24238522 1.4458313 -0.33869499 0
-0.14309067 1.458836 -0.33867323 0
-0.051032968 1.4558698 -0.33908516 0
0.041677091 1.454384 -0.33915842 0
0.14852789 1.4562179 -0.33929235 0
0.25283459 1.455591 -0.34163925 0
0.35651124 1.4357295 -0.34047601 0
0.44178614 1.4325191 -0.34159023 0
0.55837089 1.4455726 -0.34140643 0
0.65120804 1.4519899 -0.34419394 0
0.74660826 1.4485089 -0.34332305 0
0.8459633 1.4571695 -0.34423223 0
0.95592231 1.4625971 -0.34445113 0
1.0517063 1.4322859 -0.34409538 0
1.1526963 1.4573553 -0.34607631 0
1.2449883 1.4492286 -0.34633908 0
1.3472487 1.4439795 -0.34711295 0
1.4504653 1.448596 -0.34766069 0
1.54635 1.44459 -0.34657973 0
1.6454272 1.4512452 -0.34809345 0
1.7579252 1.4632372 -0.3490161 0
1.8535403 1.4550077 -0.35001028 0
1.9614912 1.4510851 -0.3499932 0
2.0589361 1.4485087 -0.35038343 0
2.1418972 1.4464614 -0.35017496 0
2.2366288 1.4492162 -0.35152903 0
2.3414156 1.454125 -0.35266581 0
2.4545147 1.4444256 -0.35242152 0
-2.2058239 1.5361872 -0.33005714 0
-2.1661489 1.555122 -0.33110267 0
-2.0636592 1.5495763 -0.33012378 0
-1.9653525 1.5656992 -0.32998434 0
-1.8656046 1.5529127 -0.33010843 0
-1.7574016 1.550054 -0.3304491 0
-1.6554053 1.5466924 -0.33169621 0
-1.5527942 1.5361471 -0.33239973 0
-1.4357362 1.5454674 -0.3326191 0
-1.341284 1.5317512 -0.33403665 0
-1.2455136 1.5386292 -0.33356446 0
-1.1527569 1.5579674 -0.3343488 0
-1.0431184 1.5520666 -0.33548129 0
-0.95168495 1.5560558 -0.33614659 0
-0.84399986 1.5283647 -0.33630484 0
-0.74502254 1.5530308 -0.33705109 0
-0.662911 1.5660477 -0.33672261 0
-0.54374397 1.5581585 -0.33779779 0
-0.44738626 1.5403363 -0.33710307 0
-0.33614388 1.5496584 -0.33815858 0
-0.24974255 1.5559372 -0.33853102 0
-0.1485807 1.5336851 -0.33899063 0
-0.049592271 1.54062 -0.3392618 0
0.049568295 1.5405546 -0.33942994 0
0.14888243 1.5361819 -0.33979297 0
0.24864176 1.5309217 -0.34134638 0
0.34909227 1.5509907 -0.34132674 0
0.45366418 1.5617521 -0.34188351 0
0.55986685 1.5476369 -0.34181073 0
0.6503492 1.5503405 -0.34376106 0
0.76701677 1.5576656 -0.34486121 0
0.85111004 1.5460134 -0.34420517 0
0.94544554 1.5508782 -0.34559035 0
1.0527173 1.5420642 -0.34484997 0
1.154498 1.5489233 -0.34537536 0
1.2446907 1.5587686 -0.34741816 0
1.3477941 1.5482638 -0.34746727 0
1.4425918 1.5330884 -0.34715381 0
1.5421796 1.5522476 -0.34717029 0
1.6630859 1.5535089 -0.34738603 0
1.7467394 1.5557222 -0.34845898 0
1.8393856 1.5457712 -0.34973779 0
1.9268237 1.5349474 -0.35019249 0
2.0307724 1.5477185 -0.35117349 0
2.1393578 1.5356984 -0.35081896 0
2.229666 1.5526285 -0.3514539 0
2.3493965 1.5380281 -0.35237989 0
2.4285591 1.5406815 -0.35315672 0
-2.1249385 1.6436648 -0.32992235 0
-2.0447199 1.6447896 -0.3298777 0
-1.9346899 1.6496434 -0.33023834 0
-1.8426235 1.6487944 -0.33064681 0
-1.7575575 1.6497074 -0.33221316 0
-1.6476434 1.653499 -0.33224007 0
-1.5552727 1.6529689 -0.33229527 0
-1.4459418 1.651324 -0.33398849 0
-1.3396289 1.6306803 -0.33447307 0
-1.2552043 1.6591939 -0.33315957 0
-1.1450932 1.6570164 -0.33511651 0
-1.0460676 1.6621675 -0.33534038 0
-0.95125633 1.6385409 -0.33681646 0
-0.85389274 1.6568698 -0.33662736 0
-0.76118976 1.6469657 -0.33705539 0
-0.64246309 1.6397644 -0.3373042 0
-0.54411721 1.6504834 -0.33784869 0
-0.45890084 1.6507047 -0.33760434 0
-0.35753733 1.6683507 -0.33801746 0
-0.24242699 1.6565502 -0.33916432 0
-0.14755926 1.6455938 -0.33963308 0
-0.053161055 1.6514736 -0.33989948 0
0.047704563 1.6488141 -0.34047687 0
0.1532388 1.6504579 -0.34052166 0
0.25504848 1.6442353 -0.34224507 0
0.35532248 1.6578802 -0.34167716 0
0.45061162 1.6385757 -0.34258074 0
0.54118747 1.6681848 -0.34295085 0
0.64305675 1.6476041 -0.34391975 0
0.74764925 1.6253211 -0.34599346 0
0.84930038 1.6479409 -0.34522045 0
0.94875759 1.6616117 -0.34529802 0
1.0545409 1.6438287 -0.3461315 0
1.1555412 1.6468073 -0.3459332 0
1.2638199 1.6705431 -0.34655246 0
1.3410808 1.654974 -0.34936404 0
1.4523957 1.6440122 -0.3483457 0
1.5621026 1.6601688 -0.34792408 0
1.6667794 1.6490479 -0.34835556 0
1.7605038 1.6605889 -0.34852648 0
1.8445845 1.6268896 -0.34981918 0
1.9450483 1.642622 -0.35027725 0
2.0496504 1.6568894 -0.35109258 0
2.1521015 1.6401863 -0.3522678 0
2.2669501 1.6520615 -0.35150251 0
2.3444674 1.6326112 -0.35260215 0
-2.0360825 1.7555573 -0.33036318 0
-1.9391173 1.7351204 -0.33061978 0
-1.8496954 1.7530829 -0.33240974 0
-1.7531675 1.7429203 -0.33224431 0
-1.6601726 1.7474073 -0.33178705 0
-1.5574794 1.7532308 -0.33383718 0
-1.4544884 1.7602202 -0.33434749 0
-1.3480419 1.7298449 -0.33384728 0
-1.2386208 1.7346824 -0.33568969 0
-1.1507853 1.7645423 -0.33512226 0
-1.0411487 1.7643924 -0.33612597 0
-0.95676023 1.738657 -0.33636492 0
-0.84415817 1.7659729 -0.33654165 0
-0.74372649 1.7381446 -0.3369903 0
-0.63719076 1.7615156 -0.33850291 0
-0.54366899 1.7321978 -0.33765209 0
-0.4355638 1.7454057 -0.33940694 0
-0.3418504 1.7477543 -0.33865741 0
-0.25475147 1.7242979 -0.3388505 0
-0.15500927 1.7440569 -0.34042507 0
-0.056337491 1.7505958 -0.34050071 0
0.045457732 1.7570044 -0.34178871 0
0.14420809 1.7483672 -0.34104541 0
0.2451513 1.7450904 -0.34258544 0
0.3493461 1.7388636 -0.34186426 0
0.44583181 1.7313727 -0.34336346 0
0.54022235 1.7650796 -0.34359276 0
0.64092702 1.7328593 -0.34421343 0
0.74046165 1.7502521 -0.3455475 0
0.84969366 1.7393175 -0.34597427 0
0.9384464 1.7585435 -0.34577987 0
1.0501674 1.7507211 -0.34610367 0
1.1536349 1.7484939 -0.34666693 0
1.2679479 1.7662222 -0.34753507 0
1.34457 1.7316048 -0.34782904 0
1.4400003 1.7427105 -0.34999666 0
1.5499712 1.7529594 -0.34856033 0
1.6500009 1.7450153 -0.34945667 0
1.7341787 1.7402792 -0.3493523 0
1.8447338 1.7482793 -0.35000926 0
1.9479471 1.7683268 -0.35072795 0
2.0501449 1.7566757 -0.35147345 0
2.1522884 1.7571317 -0.35162258 0
2.2622054 1.7342656 -0.35306245 0
-1.9604988 1.8581036 -0.3321031 0
-1.8444791 1.8510276 -0.33215275 0
-1.7318238 1.8405982 -0.33230102 0
-1.6430025 1.8494992 -0.3337146 0
-1.5477449 1.8460276 -0.33341661 0
-1.453778 1.8655447 -0.33400649 0
-1.3509552 1.8401206 -0.33435053 0
-1.2506523 1.8376997 -0.33516526 0
-1.1451288 1.8486214 -0.33629096 0
-1.0479803 1.8455606 -0.3362239 0
-0.96365023 1.8531651 -0.33698034 0
-0.86122608 1.8634355 -0.33641842 0
-0.75893486 1.8384511 -0.33797985 0
-0.64629287 1.8697833 -0.33845061 0
-0.54998249 1.844164 -0.33818021 0
-0.45190421 1.848837 -0.33915445 0
-0.35790637 1.8643939 -0.33886236 0
-0.24658948 1.8513501 -0.34012115 0
-0.15290503 1.8537556 -0.34031042 0
-0.058929451 1.8309802 -0.34090507 0
0.046050981 1.8365295 -0.34180814 0
0.15463817 1.8416847 -0.34124753 0
0.26084551 1.8372421 -0.34238157 0
0.35697955 1.8594627 -0.34315869 0
0.45661867 1.8678079 -0.3432909 0
0.54933029 1.8422379 -0.34355447 0
0.6522584 1.8443378 -0.34490359 0
0.75138211 1.8657683 -0.34593728 0
0.86074102 1.8279182 -0.34682691 0
0.9470973 1.8704162 -0.34656864 0
1.0449142 1.850103 -0.34686407 0
1.1514724 1.8586963 -0.34711698 0
1.2438602 1.8317033 -0.34728417 0
1.3480126 1.8361014 -0.34765109 0
1.4452131 1.8544681 -0.34923103 0
1.5529503 1.8430675 -0.35048962 0
1.6583536 1.8399938 -0.34966427 0
1.7555708 1.8393189 -0.3498832 0
1.8645517 1.8447233 -0.34980786 0
1.9647131 1.8618743 -0.35066032 0
2.0475869 1.8587437 -0.35190707 0
2.1416273 1.8617831 -0.35201129 0
2.2184443 1.8198422 -0.35232362 0
-1.9065228 1.9133644 -0.33187056 0
-1.8560559 1.961285 -0.33210438 0
-1.7547249 1.947119 -0.33308151 0
-1.6319667 1.9464279 -0.33363351 0
-1.5505748 1.9419018 -0.33482537 0
-1.4660782 1.9672247 -0.33424512 0
-1.3497709 1.9530839 -0.33520535 0
-1.2443078 1.9460301 -0.33552483 0
-1.1410509 1.9654775 -0.33601314 0
-1.0410516 1.9510636 -0.33672136 0
-0.93725324 1.9274048 -0.3361339 0
-0.84800541 1.9542764 -0.33758745 0
-0.76998395 1.965531 -0.33891901 0
-0.64427519 1.954329 -0.3384558 0
-0.54016829 1.9643669 -0.33812013 0
-0.45715058 1.9300942 -0.33948153 0
-0.34540361 1.9502771 -0.33949474 0
-0.24821727 1.9715233 -0.3406038 0
-0.14312498 1.9620132 -0.34136036 0
-0.048816111 1.9516832 -0.34148002 0
0.046833415 1.9495957 -0.3420127 0
