# .PCD v0.7 - Point Cloud Data file format
VERSION 0.7
FIELDS x y z intensity
SIZE 4 4 4 4
TYPE F F F F
COUNT 1 1 1 1
WIDTH 1350
HEIGHT 1
VIEWPOINT 0 0 0 1 0 0 0
POINTS 1350
DATA ascii
1.1402067 -1.3402774 -0.33279139 0
1.2429935 -1.3400972 -0.33580893 0
1.3482018 -1.3530421 -0.33502805 0
1.4562771 -1.3450286 -0.33653834 0
1.5452855 -1.3434881 -0.33672741 0
1.6443666 -1.3510171 -0.33738041 0
1.7563913 -1.358511 -0.33831921 0
1.8575569 -1.3497003 -0.33952594 0
1.9789265 -1.3570828 -0.34013921 0
2.0600619 -1.3628774 -0.34141216 0
2.1432812 -1.3455973 -0.34234419 0
2.2435925 -1.3492595 -0.3428553 0
2.3525579 -1.3397397 -0.34305215 0
2.4403872 -1.3498099 -0.34402686 0
-3.2127128 -1.2275469 -0.30090207 0
-3.1599789 -1.2685179 -0.30105066 0
-3.0541565 -1.2598766 -0.30164814 0
-2.9817648 -1.2633145 -0.3018176 0
-2.8836541 -1.246109 -0.30255517 0
-2.7574446 -1.24657 -0.30389166 0
-2.6734495 -1.2706792 -0.30392146 0
-2.5840847 -1.2509611 -0.30508608 0
-2.487113 -1.2482647 -0.30591047 0
-2.3619714 -1.2496138 -0.3070983 0
-2.238286 -1.236163 -0.30794981 0
-2.1681995 -1.257138 -0.3093949 0
-2.0511649 -1.2403077 -0.30922201 0
-1.9494895 -1.2565669 -0.30997169 0
-1.8516896 -1.250385 -0.31097636 0
-1.7417265 -1.2503192 -0.31128305 0
-1.6382778 -1.2486054 -0.31209421 0
-1.534621 -1.2406615 -0.31385362 0
-1.4506487 -1.2540108 -0.31516975 0
-1.3581038 -1.2506884 -0.31516939 0
-1.258757 -1.2487822 -0.31602344 0
-1.1395097 -1.2462184 -0.31684893 0
-1.0428121 -1.2437979 -0.3173463 0
-0.95878351 -1.262596 -0.31715825 0
-0.851197 -1.2570118 -0.31892917 0
-0.74841803 -1.2592125 -0.3189843 0
-0.64612192 -1.2318751 -0.32121146 0
-0.55445486 -1.2555496 -0.3210189 0
-0.44668841 -1.2463615 -0.32189775 0
-0.35265452 -1.2474005 -0.32269198 0
-0.24256365 -1.2465513 -0.32501808 0
-0.14595157 -1.2490693 -0.32370147 0
-0.049303509 -1.252116 -0.32669458 0
0.048199903 -1.2430449 -0.32388523 0
0.14883307 -1.2394242 -0.32560048 0
0.24427523 -1.2478228 -0.32729977 0
0.35094589 -1.2415051 -0.32787561 0
0.44345683 -1.2543106 -0.32934785 0
0.55341375 -1.2616491 -0.32927495 0
0.64564228 -1.263288 -0.33034423 0
0.75115162 -1.2353785 -0.33142906 0
0.84788221 -1.2476932 -0.33311886 0
0.94776011 -1.2476406 -0.33271044 0
1.0532829 -1.2485998 -0.33313936 0
1.1556755 -1.2590817 -0.33544236 0
1.2449011 -1.2415073 -0.33515313 0
1.3460279 -1.2456568 -0.33608675 0
1.4392897 -1.2475922 -0.33632469 0
1.5350083 -1.2407756 -0.33743322 0
1.6604582 -1.2654591 -0.33841181 0
1.7485377 -1.2342025 -0.33905187 0
1.8608959 -1.2372346 -0.34051657 0
1.9554858 -1.2602423 -0.34150159 0
2.0673721 -1.2501434 -0.34219909 0
2.171241 -1.2500758 -0.34277192 0
2.2681439 -1.2629672 -0.34347543 0
2.3746231 -1.2563342 -0.34474415 0
2.4651649 -1.2462906 -0.34527913 0
2.5230827 -1.2437398 -0.34539837 0
-3.2295635 -1.1446854 -0.30091697 0
-3.12324 -1.1424195 -0.30177575 0
-3.0366282 -1.1603626 -0.30290699 0
-2.9428904 -1.1486931 -0.30373564 0
-2.8430614 -1.1567051 -0.30452231 0
-2.7310097 -1.1569597 -0.30456915 0
-2.6303461 -1.1591252 -0.30523762 0
-2.529083 -1.1580168 -0.30583873 0
-2.4333498 -1.1565065 -0.30699843 0
-2.3332605 -1.1502342 -0.30751002 0
-2.2337618 -1.1362159 -0.30872053 0
-2.1484661 -1.1564412 -0.30921516 0
-2.0392671 -1.1547937 -0.3108525 0
-1.9419627 -1.1462206 -0.31134847 0
-1.836979 -1.1471078 -0.31115058 0
-1.7564092 -1.1560626 -0.31368008 0
-1.6480021 -1.1345925 -0.31336588 0
-1.5778848 -1.1672643 -0.3132624 0
-1.4520782 -1.1398562 -0.31561047 0
-1.3503948 -1.1539018 -0.31667751 0
-1.242622 -1.1443491 -0.3170082 0
-1.1496221 -1.1538315 -0.31815192 0
-1.0567172 -1.1464674 -0.31829029 0
-0.94862187 -1.1480515 -0.31839785 0
-0.83636761 -1.1489248 -0.31865647 0
-0.74796802 -1.1549569 -0.32018688 0
-0.65626079 -1.1632323 -0.3204782 0
-0.55789441 -1.1522856 -0.32098019 0
-0.45302421 -1.1491435 -0.32221588 0
-0.35185698 -1.1497228 -0.32230219 0
-0.25450423 -1.1878408 -0.32557073 0
-0.1616586 -1.1919808 -0.32236502 0
-0.098943166 -1.1995766 -0.32251659 0
0.055747278 -1.1975663 -0.3212339 0
0.17626326 -1.192855 -0.32309464 0
0.27287 -1.1897707 -0.32711652 0
0.35039014 -1.1748353 -0.32856551 0
0.45589286 -1.1496381 -0.32932904 0
0.54709035 -1.154718 -0.33049977 0
0.66068101 -1.1444818 -0.330419 0
0.75556731 -1.1450051 -0.33226782 0
0.84898096 -1.158698 -0.33320084 0
0.93147105 -1.1272354 -0.33353755 0
1.0405291 -1.1380483 -0.33418545 0
1.1494482 -1.1419059 -0.33535942 0
1.2587389 -1.1591043 -0.33577719 0
1.3497802 -1.1566306 -0.33638129 0
1.4568663 -1.1606234 -0.33846182 0
1.5482514 -1.1522487 -0.33833623 0
1.6416612 -1.143177 -0.33879393 0
1.7482451 -1.1445315 -0.3410418 0
1.8277235 -1.141289 -0.34159115 0
1.9280885 -1.1471584 -0.34188426 0
2.0318809 -1.150503 -0.3427999 0
2.1358874 -1.1496458 -0.34381637 0
2.2306488 -1.1597911 -0.34427214 0
2.3195026 -1.1641903 -0.34448227 0
2.4308436 -1.1339869 -0.34566107 0
2.5560033 -1.1481496 -0.34696373 0
-3.3110559 -1.026279 -0.30327544 0
-3.2749655 -1.0150926 -0.30354491 0
-3.1634881 -1.0554874 -0.30135968 0
-3.0668213 -1.0476255 -0.30236706 0
-2.9721446 -1.0391111 -0.30340445 0
-2.8690004 -1.0494254 -0.30405849 0
-2.7579479 -1.0612668 -0.30648401 0
-2.6632223 -1.0395371 -0.30701485 0
-2.5544779 -1.0537735 -0.30729493 0
-2.4468601 -1.050589 -0.30713293 0
-2.373843 -1.0664964 -0.30763602 0
-2.2760539 -1.0421445 -0.30842808 0
-2.159883 -1.0455394 -0.3096728 0
-2.0596721 -1.0522023 -0.31027654 0
-1.9683865 -1.0414472 -0.31076062 0
-1.8637874 -1.0413253 -0.3127611 0
-1.7413111 -1.0397141 -0.31278515 0
-1.6585402 -1.0506192 -0.31366253 0
-1.542749 -1.057981 -0.31523567 0
-1.4560895 -1.0452173 -0.31595227 0
-1.3407418 -1.0370592 -0.3179895 0
-1.2448556 -1.0470083 -0.31823972 0
-1.1502479 -1.0507549 -0.31817389 0
-1.055281 -1.0528619 -0.31984565 0
-0.94616669 -1.0348055 -0.31980979 0
-0.85654962 -1.0590985 -0.31945083 0
-0.74901569 -1.0514306 -0.32061628 0
-0.64513767 -1.0585806 -0.32291347 0
-0.54874802 -1.0648125 -0.32107028 0
-0.49665174 -1.0950527 -0.32218581 0
0.57935739 -1.0858516 -0.32979855 0
0.6516453 -1.0519851 -0.33167601 0
0.74153262 -1.0567973 -0.33263636 0
0.84536195 -1.0467516 -0.33305973 0
0.96087861 -1.0544686 -0.33392006 0
1.0442601 -1.0264171 -0.33576453 0
1.1413872 -1.0479136 -0.3371242 0
1.2453141 -1.0517672 -0.33633447 0
1.3454608 -1.0615577 -0.3370389 0
1.4398408 -1.0492309 -0.33865508 0
1.5557363 -1.0442507 -0.33961797 0
1.6615837 -1.0541635 -0.3406688 0
1.7595673 -1.0468498 -0.34103361 0
1.864867 -1.0605088 -0.34214601 0
1.9464842 -1.0477021 -0.34353104 0
2.0695045 -1.0387067 -0.34340006 0
2.1780365 -1.0544368 -0.34338626 0
2.2597752 -1.0740302 -0.34356949 0
2.3487606 -1.0471649 -0.34613162 0
2.4592028 -1.0351489 -0.34683934 0
2.578454 -1.0491602 -0.34776846 0
2.6340153 -1.0498222 -0.3481811 0
-3.3126783 -0.94083357 -0.30205676 0
-3.2810712 -0.96573704 -0.30232868 0
-3.1482563 -0.95120972 -0.3039223 0
-3.0081105 -0.95601952 -0.30420569 0
-2.922143 -0.92869902 -0.30503795 0
-2.847667 -0.95781946 -0.30494675 0
-2.7409432 -0.96577531 -0.30544686 0
-2.624402 -0.93866593 -0.30661204 0
-2.5326412 -0.94714612 -0.30810773 0
-2.4394157 -0.95218468 -0.30952692 0
-2.3358343 -0.94552475 -0.31079736 0
-2.2375271 -0.94800478 -0.30988097 0
-2.1257949 -0.93671006 -0.31085071 0
-2.0392768 -0.95507318 -0.3111307 0
-1.9252663 -0.94902498 -0.31174669 0
-1.8281647 -0.95051169 -0.31233591 0
-1.7287397 -0.94661713 -0.31402013 0
-1.6401978 -0.93670654 -0.31522429 0
-1.5449296 -0.94943327 -0.31510746 0
-1.4400533 -0.95763952 -0.31746769 0
-1.3343683 -0.94108868 -0.31871301 0
-1.2438365 -0.94186789 -0.31913519 0
-1.139264 -0.94822401 -0.3194544 0
-1.0380081 -0.94607806 -0.31962267 0
-0.96342099 -0.95313042 -0.32096013 0
-0.8497591 -0.9473294 -0.32116106 0
-0.75059927 -0.95585895 -0.32120711 0
-0.68339181 -0.9887895 -0.32207432 0
0.76190919 -0.97782481 -0.33222136 0
0.85418886 -0.94771594 -0.33508307 0
0.95308346 -0.94298244 -0.33506691 0
1.0619961 -0.95804036 -0.3378 0
1.1336423 -0.93857598 -0.33680424 0
1.2471802 -0.95049566 -0.33698252 0
1.3513705 -0.94104451 -0.33843467 0
1.4515609 -0.94784856 -0.33905491 0
1.5638328 -0.94562161 -0.34003955 0
1.6554863 -0.95301104 -0.34095925 0
1.7479465 -0.95706522 -0.34180993 0
1.8482366 -0.94428003 -0.34235168 0
1.9356999 -0.95426673 -0.34224769 0
2.0372982 -0.95037705 -0.3428812 0
2.1458716 -0.94549376 -0.34481642 0
2.2432117 -0.95039254 -0.34598455 0
2.3458261 -0.93496448 -0.34668025 0
2.4432316 -0.93347311 -0.34756172 0
2.5243061 -0.96445131 -0.34796548 0
2.6431499 -0.95812207 -0.34888494 0
-3.3381019 -0.85404074 -0.30261534 0
-3.2308044 -0.85125214 -0.30332735 0
-3.1389313 -0.85108042 -0.30398983 0
-3.0415943 -0.84804946 -0.30466616 0
-2.943979 -0.84364599 -0.30514583 0
-2.8454781 -0.85973108 -0.30622184 0
-2.7538223 -0.85359764 -0.30658317 0
-2.6642399 -0.8467375 -0.30753475 0
-2.5716417 -0.83760929 -0.3082585 0
-2.4697666 -0.84365112 -0.30852708 0
-2.3599734 -0.84408349 -0.30911028 0
-2.2504184 -0.84152526 -0.31072119 0
-2.1619313 -0.84384972 -0.31184149 0
-2.0751584 -0.84439594 -0.31277701 0
-1.9641365 -0.84553879 -0.31313598 0
-1.8432211 -0.83871537 -0.31363484 0
-1.764713 -0.86368114 -0.31350523 0
-1.6626917 -0.84937716 -0.31449682 0
-1.5657369 -0.84565222 -0.31671399 0
-1.4431331 -0.83690673 -0.31746653 0
-1.3720402 -0.85684162 -0.317783 0
-1.2575341 -0.83978045 -0.3197419 0
-1.1409523 -0.84151828 -0.3205964 0
-1.0609628 -0.8585974 -0.32027465 0
-0.94703048 -0.8447305 -0.32198751 0
-0.85381508 -0.85685366 -0.32198858 0
-0.77485096 -0.89776355 -0.31776211 0
0.88427323 -0.87493324 -0.3333416 0
0.95514238 -0.84602362 -0.33691519 0
1.0471373 -0.84650987 -0.33632693 0
1.1677749 -0.85083336 -0.33713889 0
1.2471305 -0.85108274 -0.33756974 0
1.3554382 -0.83662689 -0.33910519 0
1.473642 -0.85667855 -0.33955351 0
1.5427192 -0.84636009 -0.34040976 0
1.6442443 -0.85490882 -0.34135556 0
1.7501338 -0.85362977 -0.34159365 0
1.850751 -0.8473745 -0.34241542 0
1.9783541 -0.86340719 -0.34457341 0
2.0384939 -0.84111691 -0.3448292 0
2.13482 -0.8392399 -0.34561563 0
2.2493134 -0.84101892 -0.34687266 0
2.355082 -0.83620661 -0.34722558 0
2.4669337 -0.84278798 -0.34730381 0
2.5598698 -0.85404348 -0.34823978 0
2.6649826 -0.85757613 -0.3488853 0
2.720789 -0.84329295 -0.34975773 0
-3.3640978 -0.75881803 -0.3029432 0
-3.263643 -0.73618388 -0.30385232 0
-3.164351 -0.7614516 -0.30455476 0
-3.0765934 -0.74033231 -0.30535644 0
-2.976707 -0.76160836 -0.30594537 0
-2.8616929 -0.7540009 -0.30685693 0
-2.7470443 -0.74515343 -0.30780303 0
-2.6576498 -0.75488663 -0.30769351 0
-2.5358775 -0.73339552 -0.3084155 0
-2.421706 -0.75065696 -0.30964524 0
-2.3621986 -0.73213291 -0.3102352 0
-2.2561865 -0.7469523 -0.31106865 0
-2.1651666 -0.75132245 -0.31133029 0
-2.0456448 -0.75811523 -0.31191215 0
-1.9257637 -0.75166816 -0.31350422 0
-1.8406 -0.74896652 -0.31475446 0
-1.7052155 -0.78076255 -0.3154836 0
-1.6321306 -0.77573806 -0.31565517 0
-1.535033 -0.75666422 -0.31666809 0
-1.4410635 -0.74931341 -0.31851122 0
-1.3428791 -0.75035167 -0.31854478 0
-1.2556379 -0.74893963 -0.31850559 0
-1.1556685 -0.74489969 -0.32045159 0
-1.0535752 -0.75010437 -0.32063627 0
-0.9564603 -0.75084132 -0.32153982 0
-0.89192593 -0.79810262 -0.32070008 0
0.98699015 -0.77474624 -0.33622992 0
1.0483052 -0.74615735 -0.33719704 0
1.1509511 -0.74557006 -0.33781978 0
1.2524159 -0.75582212 -0.33820817 0
1.3339812 -0.73583066 -0.33980924 0
1.4394237 -0.74826974 -0.34062636 0
1.5576508 -0.75946033 -0.34090722 0
1.6529087 -0.74249405 -0.34140682 0
1.7660379 -0.74823231 -0.34270543 0
1.8519793 -0.7535727 -0.34353617 0
1.938627 -0.75662279 -0.3444798 0
2.0395806 -0.75262111 -0.34546384 0
2.1366603 -0.74713796 -0.34531274 0
2.2299325 -0.7439577 -0.34594819 0
2.3393116 -0.75285351 -0.34648493 0
2.4464006 -0.74885982 -0.34835786 0
2.5416374 -0.75475281 -0.34890994 0
2.6180725 -0.73007584 -0.35006693 0
2.7356904 -0.75005782 -0.350725 0
-3.3850188 -0.66235268 -0.30305278 0
-3.2833757 -0.64245588 -0.30395508 0
-3.1674175 -0.64330298 -0.30501863 0
-3.0345409 -0.6616959 -0.30618623 0
-2.9405096 -0.65578097 -0.30670714 0
-2.8162658 -0.65644044 -0.3076553 0
-2.725563 -0.6558553 -0.30856326 0
-2.6342683 -0.65389729 -0.30945918 0
-2.5395236 -0.64976043 -0.3099781 0
-2.4384546 -0.63786876 -0.31065509 0
-2.3378448 -0.65191936 -0.31088144 0
-2.229367 -0.65624291 -0.31152299 0
-2.1407592 -0.66347331 -0.31246969 0
-2.0550861 -0.65307665 -0.31326032 0
-1.9609101 -0.6541847 -0.31337929 0
-1.8693066 -0.65353692 -0.31368154 0
-1.4661412 -0.69033653 -0.3163687 0
-1.3519847 -0.66065264 -0.31778079 0
-1.2400967 -0.6428532 -0.31842086 0
-1.1645411 -0.65576178 -0.31839597 0
-1.0490479 -0.64442968 -0.32088894 0
-0.98244047 -0.68421042 -0.32080156 0
1.0726982 -0.65920615 -0.33743304 0
1.1441228 -0.6426121 -0.33845067 0
1.2440792 -0.65987599 -0.33958584 0
1.3312924 -0.64923465 -0.34167871 0
1.4428663 -0.65521997 -0.34150377 0
1.5517091 -0.64069706 -0.34151861 0
1.6329588 -0.65084523 -0.34176749 0
1.7362473 -0.65211785 -0.34255368 0
1.8463228 -0.65154278 -0.3440567 0
1.9631869 -0.63945121 -0.34466696 0
2.074122 -0.65507042 -0.34513396 0
2.1439083 -0.63975137 -0.34775281 0
2.2557068 -0.64638698 -0.34826568 0
2.3696916 -0.64259863 -0.34890166 0
2.4544718 -0.64670438 -0.34936863 0
2.5488613 -0.65201932 -0.35011446 0
2.6405301 -0.65539706 -0.35042596 0
2.7528164 -0.65397984 -0.35123119 0
-3.4165938 -0.56752419 -0.30301628 0
-3.3487732 -0.55624235 -0.30364919 0
-3.2152295 -0.5340606 -0.30489635 0
-3.1159434 -0.56346142 -0.30556771 0
-3.0271201 -0.54739845 -0.30637532 0
-2.9348323 -0.55244559 -0.30730176 0
-2.8403752 -0.55577648 -0.30788851 0
-2.7458141 -0.5576691 -0.30850169 0
-2.6573257 -0.53969646 -0.30926344 0
-2.5640996 -0.55911863 -0.31037569 0
-2.4677179 -0.53808671 -0.31126356 0
-2.3546505 -0.54882586 -0.31190905 0
-2.2629354 -0.56165922 -0.31289634 0
-2.1727641 -0.55573261 -0.31312871 0
-2.0629058 -0.54348928 -0.31345379 0
-1.930812 -0.545977 -0.31429595 0
-1.8458965 -0.5147239 -0.31432322 0
-1.235932 -0.58743334 -0.32008791 0
-1.1468822 -0.56530523 -0.31961516 0
-1.0658319 -0.5555312 -0.31974408 0
1.15483 -0.55412155 -0.33899856 0
1.2514378 -0.55152601 -0.34020609 0
1.3657273 -0.54295301 -0.34211046 0
1.4529469 -0.55514312 -0.34207121 0
1.5348618 -0.54899681 -0.34270698 0
1.6608456 -0.54987949 -0.3437891 0
1.7685672 -0.54825497 -0.34461522 0
1.8518583 -0.54498911 -0.34502926 0
1.942777 -0.54156113 -0.34618306 0
2.0452807 -0.56258881 -0.34762582 0
2.1311717 -0.54892504 -0.34789696 0
2.240098 -0.54773247 -0.34864506 0
2.3425791 -0.52806789 -0.34924531 0
2.4506202 -0.56006163 -0.34992987 0
2.5751195 -0.54220963 -0.35057497 0
2.6602619 -0.56013727 -0.35110581 0
2.7648056 -0.55133057 -0.35168308 0
2.8243904 -0.53165245 -0.35289049 0
-3.4223011 -0.46818697 -0.30340779 0
-3.3205781 -0.45427388 -0.3043468 0
-3.2311497 -0.44203877 -0.30517232 0
-3.1371343 -0.45206103 -0.3057923 0
-3.041868 -0.46061823 -0.30626795 0
-2.9526479 -0.44710815 -0.30710351 0
-2.8614845 -0.45429304 -0.30813119 0
-2.7723553 -0.44014335 -0.30895945 0
-2.6810546 -0.44533372 -0.30988485 0
-2.5525837 -0.44275951 -0.31096864 0
-2.4740872 -0.45660943 -0.3110947 0
-2.3608389 -0.45300835 -0.31287122 0
-2.2487962 -0.44854477 -0.313373 0
-2.1410627 -0.46683067 -0.31492743 0
-2.0337193 -0.45861626 -0.31595904 0
-1.9406292 -0.44156474 -0.3168577 0
-1.8422273 -0.45189995 -0.31705007 0
-1.7458477 -0.44664794 -0.31792086 0
-1.6684895 -0.43958959 -0.31903496 0
-1.5766133 -0.42752635 -0.32003662 0
-1.4876645 -0.41483179 -0.32178932 0
1.1841353 -0.45245546 -0.33972996 0
1.2532426 -0.44413832 -0.34126773 0
1.3615957 -0.46163988 -0.34177274 0
1.436095 -0.44292879 -0.34295121 0
1.56216 -0.44376424 -0.34421417 0
1.6464615 -0.45903021 -0.34463084 0
1.7329086 -0.45291507 -0.34551296 0
1.8528658 -0.44602519 -0.34623486 0
1.9599022 -0.44207358 -0.34602031 0
2.0470984 -0.44626415 -0.34738767 0
2.1432648 -0.45125341 -0.34786648 0
2.2411654 -0.43843278 -0.34849492 0
2.3265917 -0.45514715 -0.34905922 0
2.4257996 -0.43865684 -0.35052466 0
2.5320883 -0.45788452 -0.35110667 0
2.6671624 -0.44302118 -0.35161352 0
2.7765641 -0.44082138 -0.35190487 0
2.8328254 -0.44972074 -0.35219154 0
-3.4481506 -0.3715845 -0.30461347 0
-3.3462911 -0.36060262 -0.3056109 0
-3.2565541 -0.35093236 -0.30648974 0
-3.1668172 -0.34126216 -0.30736855 0
-3.0712864 -0.3531712 -0.30794534 0
-2.9816196 -0.34285879 -0.30880752 0
-2.8609369 -0.3429724 -0.31003493 0
-2.7364209 -0.34130058 -0.31077871 0
-2.6421688 -0.34258828 -0.3112652 0
-2.524214 -0.36373851 -0.3114531 0
-2.4581566 -0.34548298 -0.31225908 0
-2.3352211 -0.35360575 -0.3130379 0
-2.2214172 -0.3526696 -0.31395859 0
-2.1346173 -0.35454676 -0.31454411 0
-2.0488694 -0.35539064 -0.31527054 0
-1.9499109 -0.3438977 -0.31643257 0
-1.8450238 -0.34730211 -0.31779084 0
-1.7692721 -0.34624973 -0.31864777 0
-1.6309984 -0.35215855 -0.31988376 0
-1.5547117 -0.34841949 -0.32130012 0
-1.4509748 -0.35268056 -0.320696 0
-1.3471271 -0.33859298 -0.32072648 0
-1.2945312 -0.30174392 -0.32013685 0
1.2437078 -0.35924956 -0.34189162 0
1.346105 -0.34436852 -0.34321183 0
1.4471997 -0.34510285 -0.34410313 0
1.5445516 -0.35175282 -0.34403488 0
1.6573373 -0.34547737 -0.3446807 0
1.7382913 -0.35295799 -0.34482822 0
1.8393888 -0.35458511 -0.34595311 0
1.9441803 -0.35748702 -0.3476941 0
2.0465753 -0.33404303 -0.34816614 0
2.1718042 -0.34905156 -0.34911743 0
2.2677009 -0.34335318 -0.34996316 0
2.3536956 -0.35637367 -0.35041615 0
2.4415412 -0.35178709 -0.35089773 0
2.5300369 -0.34609988 -0.35148504 0
2.6163003 -0.35790133 -0.35202789 0
2.752835 -0.35660595 -0.3535457 0
2.8520927 -0.33849075 -0.35459933 0
-3.4593582 -0.25785655 -0.30492181 0
-3.3432288 -0.26376951 -0.30555022 0
-3.2531204 -0.25666165 -0.30625522 0
-3.163012 -0.24955381 -0.30696025 0
-3.0729036 -0.24244598 -0.30766529 0
-2.982795 -0.23533814 -0.30837029 0
-2.8602242 -0.25439897 -0.30983365 0
-2.7449491 -0.23596615 -0.31066737 0
-2.6284232 -0.24526358 -0.31222308 0
-2.5380774 -0.25518087 -0.31322873 0
-2.2335458 -0.28931621 -0.3145895 0
-2.1497548 -0.27846256 -0.31524891 0
-2.0624936 -0.28217036 -0.31563503 0
-1.978857 -0.27072811 -0.31634736 0
-1.8627505 -0.29571879 -0.31772324 0
-1.7336277 -0.28357589 -0.31979394 0
-1.6298923 -0.27471399 -0.3212944 0
-1.5376976 -0.27807635 -0.31894833 0
-1.4299574 -0.26919135 -0.3192898 0
-1.3440648 -0.26305509 -0.32046214 0
-1.244491 -0.25273216 -0.32200027 0
-1.1814784 -0.23992102 -0.32310313 0
1.2525673 -0.25435755 -0.34257665 0
1.3499539 -0.25199884 -0.34348622 0
1.4682698 -0.24528521 -0.34586793 0
1.552056 -0.24641317 -0.34587955 0
1.6370976 -0.25743741 -0.34579188 0
1.7499179 -0.2522637 -0.34665063 0
1.8503902 -0.23959491 -0.34753081 0
1.9305891 -0.24998274 -0.34805489 0
2.0438876 -0.25590777 -0.34904313 0
2.1701903 -0.25190356 -0.35009813 0
2.2406135 -0.23229922 -0.35110369 0
2.3733668 -0.2556915 -0.35153151 0
2.4599283 -0.26501992 -0.35203519 0
2.5501747 -0.23798849 -0.35280362 0
2.636945 -0.2460829 -0.35338569 0
2.7237155 -0.2541773 -0.35396776 0
2.8453484 -0.24494416 -0.35469836 0
-3.4664345 -0.14875466 -0.30569637 0
-3.3528347 -0.168064 -0.30651689 0
-3.2624784 -0.16353309 -0.30715126 0
-3.172122 -0.15900218 -0.30778557 0
-3.0817657 -0.15447128 -0.30841994 0
-2.9636996 -0.14161313 -0.30939519 0
-2.8384058 -0.14920576 -0.30998203 0
-2.7162247 -0.15560818 -0.31059101 0
-2.6259201 -0.15043212 -0.31122836 0
-2.5356152 -0.1452561 -0.31186569 0
1.2705089 -0.14610678 -0.34277746 0
1.338709 -0.14422354 -0.34328565 0
1.459219 -0.14965551 -0.34425354 0
1.5615405 -0.14561491 -0.34559932 0
1.6358379 -0.15255275 -0.34628183 0
1.7606984 -0.15454832 -0.3476643 0
1.8621416 -0.14688212 -0.34790158 0
1.9427649 -0.1532435 -0.34841242 0
2.0280857 -0.14530014 -0.34951597 0
2.1500869 -0.15803981 -0.34962377 0
2.2326248 -0.13506249 -0.35090759 0
2.3627477 -0.14404184 -0.35199642 0
2.4685843 -0.15912795 -0.35253963 0
2.5606823 -0.14671475 -0.35370252 0
2.6478207 -0.15170938 -0.35439074 0
2.7349591 -0.15670402 -0.35507894 0
2.8520372 -0.14297672 -0.35581341 0
2.9007785 -0.14543237 -0.35661763 0
-3.5066249 -0.050201245 -0.3068209 0
-3.4602661 -0.074246138 -0.3065654 0
-3.3698764 -0.07230489 -0.30730507 0
-3.2794864 -0.070363641 -0.30804476 0
-3.1620388 -0.060446065 -0.30929235 0
-3.0535154 -0.065834187 -0.30991942 0
-2.9449823 -0.070359223 -0.3104786 0
-2.8275371 -0.060657412 -0.31174317 0
-2.7371473 -0.058716163 -0.31248283 0
-2.6467574 -0.056774914 -0.31322253 0
-2.5563674 -0.054833669 -0.31396222 0
1.2820435 -0.045867421 -0.34381217 0
1.349643 -0.048301063 -0.34404424 0
1.4679161 -0.047828626 -0.34419543 0
1.5428438 -0.062139433 -0.34575638 0
1.6393689 -0.046990335 -0.34626281 0
1.7670407 -0.047702055 -0.34813976 0
1.8490871 -0.06592539 -0.34957358 0
1.95447 -0.056072332 -0.34972623 0
2.0331478 -0.043715972 -0.34993196 0
2.1454628 -0.039823197 -0.35087293 0
2.2253561 -0.051646296 -0.35122269 0
2.348197 -0.058896918 -0.35238492 0
2.4628685 -0.044178482 -0.35386395 0
2.5673888 -0.055027489 -0.35412827 0
2.6546395 -0.056901813 -0.35479483 0
2.7418902 -0.058776136 -0.35546136 0
2.8315697 -0.040425982 -0.35647422 0
2.9068096 -0.048530962 -0.35705125 0
-3.5122855 0.025225302 -0.30730051 0
-3.4669228 0.049627084 -0.30741653 0
-3.3764935 0.048332248 -0.30814531 0
-3.2860644 0.047037411 -0.30887416 0
-3.1504209 0.045095161 -0.30996743 0
-3.0147772 0.04315291 -0.31106067 0
-2.9243481 0.041858066 -0.31178951 0
-2.8339188 0.040563229 -0.31251833 0
-2.74349 0.039268401 -0.31324717 0
-2.6530607 0.037973564 -0.31397602 0
-2.5626318 0.036678728 -0.31470484 0
1.2843385 0.045925643 -0.34442768 0
1.3527762 0.048379369 -0.34522718 0
1.4665445 0.055539515 -0.34611002 0
1.5336829 0.046050332 -0.34756297 0
1.6484444 0.047121651 -0.34699941 0
1.7578291 0.052809406 -0.34677866 0
1.8398012 0.047098279 -0.34925857 0
1.9492648 0.055729993 -0.34923351 0
2.0348125 0.043693911 -0.35061809 0
2.1466784 0.046101131 -0.35170746 0
2.2222977 0.047779024 -0.35246113 0
2.3457177 0.043558024 -0.3532466 0
2.4666815 0.061634451 -0.3545599 0
2.5740445 0.055338487 -0.35516378 0
2.6613274 0.057211738 -0.35583052 0
2.7486103 0.059084982 -0.35649729 0
2.8328815 0.040572044 -0.35716069 0
2.9142261 0.041756663 -0.35786733 0
-3.5136333 0.12586415 -0.30760765 0
-3.4683845 0.17383644 -0.30938083 0
-3.3778896 0.16929822 -0.30995804 0
-3.2606485 0.15577342 -0.31075028 0
-3.1517038 0.15827984 -0.31148446 0
-3.0426219 0.15991373 -0.31199613 0
-2.925415 0.14660706 -0.31284404 0
-2.8349202 0.14206883 -0.31342122 0
-2.740591 0.15699252 -0.31367657 0
-2.6501417 0.15180786 -0.31425178 0
-2.5596924 0.14662318 -0.31482697 0
1.280869 0.14732519 -0.34557351 0
1.3493074 0.14539912 -0.34613699 0
1.4663526 0.14939816 -0.34693941 0
1.5546093 0.15128303 -0.34883705 0
1.649797 0.14206299 -0.34914708 0
1.7639452 0.15190694 -0.3498711 0
1.8379611 0.15243973 -0.35195476 0
1.9609393 0.1547692 -0.35179865 0
2.0483961 0.13796194 -0.35101062 0
2.1480577 0.15064593 -0.35232672 0
2.2192085 0.14771345 -0.35248819 0
2.3513005 0.15169342 -0.35365918 0
2.4822316 0.16013864 -0.35489178 0
2.5693045 0.14729235 -0.35542423 0
2.6566062 0.15229604 -0.35622656 0
2.7439077 0.15729971 -0.3570289 0
2.8347781 0.14211245 -0.35761106 0
2.9139004 0.14616559 -0.35825574 0
-3.5221226 0.22711353 -0.30879322 0
-3.4567707 0.27270615 -0.30849284 0
-3.3664894 0.26558459 -0.30910039 0
-3.2762084 0.25846297 -0.309708 0
-3.1859274 0.2513414 -0.31031561 0
-3.0505054 0.24065903 -0.31122699 0
-2.9204528 0.25153866 -0.31275544 0
-2.8302784 0.2437765 -0.31343743 0
-2.7436953 0.25606328 -0.31466269 0
-2.6536131 0.24765879 -0.31540012 0
-2.5584705 0.25719431 -0.31574503 0
-2.256875 0.2923381 -0.31857595 0
-2.1727762 0.28144461 -0.31909934 0
-2.0333443 0.27313706 -0.32029805 0
-1.8402497 0.29214668 -0.32252604 0
-1.7195197 0.28559017 -0.32315877 0
-1.6321027 0.277051 -0.32339934 0
-1.547443 0.28371847 -0.32374242 0
-1.4536223 0.27357253 -0.32452619 0
-1.3616793 0.26022241 -0.32547584 0
-1.2490206 0.25107035 -0.32843474 0
-1.1901156 0.25951833 -0.32646734 0
1.2647283 0.24761143 -0.34538689 0
1.3452965 0.24331029 -0.3460089 0
1.4653733 0.25344214 -0.3488439 0
1.5429446 0.23391335 -0.34915701 0
1.6387494 0.24809904 -0.34933266 0
1.7639025 0.25116602 -0.35032132 0
1.8682005 0.24200691 -0.35105452 0
1.9486442 0.25242788 -0.3516565 0
2.0308983 0.24832262 -0.35211432 0
2.1515868 0.26307762 -0.35294059 0
2.2254963 0.2399485 -0.35336474 0
2.3590105 0.24748397 -0.35493124 0
2.4839697 0.2496908 -0.35622156 0
2.5706592 0.23986761 -0.35677314 0
2.6577756 0.24799512 -0.35758808 0
2.7448921 0.25612268 -0.35840306 0
2.8335886 0.24396007 -0.35936043 0
2.9218767 0.25156146 -0.36021969 0
-3.5096817 0.32748437 -0.3083986 0
-3.4601979 0.37281415 -0.3095811 0
-3.3701632 0.3631109 -0.31023663 0
-3.2537758 0.3428694 -0.31109378 0
-3.1451135 0.33918273 -0.31196311 0
-3.0389986 0.34948051 -0.31280634 0
-2.9415829 0.35242352 -0.31316122 0
-2.8229837 0.3451944 -0.31405455 0
-2.7338836 0.35420918 -0.31503999 0
-2.6440308 0.34257087 -0.31564805 0
-2.5359554 0.35481882 -0.31700706 0
-2.4239209 0.34934506 -0.31775498 0
-2.3400688 0.33726168 -0.31836581 0
-2.2556989 0.35813609 -0.31955054 0
-2.1720545 0.34485725 -0.32020783 0
-2.044733 0.33965239 -0.32129741 0
-1.9633402 0.35998616 -0.32173419 0
-1.8679843 0.35167003 -0.3224428 0
-1.7494937 0.3550919 -0.32336053 0
-1.632723 0.34382445 -0.3243708 0
-1.5530101 0.35676804 -0.32533678 0
-1.4489975 0.35967758 -0.32715303 0
-1.3679262 0.33508331 -0.32861051 0
-1.2496318 0.3197467 -0.32821709 0
-1.1877117 0.31294134 -0.32910734 0
1.2506412 0.34883556 -0.34800327 0
1.3461349 0.3547008 -0.34803507 0
1.4615935 0.35042131 -0.34885168 0
1.5485723 0.34919792 -0.34973735 0
1.6544883 0.35171625 -0.34980592 0
1.7610689 0.35244831 -0.35045037 0
1.8487298 0.34798408 -0.35081986 0
1.9338964 0.34977338 -0.35199896 0
2.042444 0.35431072 -0.35293779 0
2.1595037 0.35096958 -0.35396361 0
2.2270379 0.35354728 -0.35457578 0
2.3648267 0.34967789 -0.3558996 0
2.4726369 0.33835337 -0.35655352 0
2.5594938 0.35023484 -0.35752276 0
2.6468117 0.34288549 -0.35850757 0
2.7338343 0.3541567 -0.35956216 0
2.8235204 0.34522879 -0.36005548 0
2.9146495 0.36486873 -0.36134189 0
-3.5117283 0.42933124 -0.30953145 0
-3.4543343 0.47262084 -0.3101843 0
-3.3646102 0.46034494 -0.31085628 0
-3.2748859 0.44806904 -0.31152827 0
-3.1851616 0.4357931 -0.31220025 0
-3.0699253 0.4424172 -0.31326196 0
-2.9382284 0.45222935 -0.31431833 0
-2.8200417 0.44772634 -0.31544361 0
-2.7279954 0.45315588 -0.31614375 0
-2.6375206 0.4575679 -0.31701663 0
-2.5421023 0.44100767 -0.31767514 0
-2.4334736 0.45806915 -0.3188166 0
-2.3297122 0.43853179 -0.31950605 0
-2.2384408 0.45463467 -0.32023361 0
-2.1523483 0.45322096 -0.32085207 0
-2.0662282 0.45054498 -0.32123873 0
-1.9669033 0.4476271 -0.32173231 0
-1.8496655 0.44508037 -0.32248485 0
-1.7671175 0.45211974 -0.32314265 0
-1.6370536 0.43136427 -0.32386127 0
-1.5522133 0.4247171 -0.32498077 0
1.1940892 0.45624444 -0.3425144 0
1.2487932 0.44910377 -0.34697562 0
1.3511804 0.44728112 -0.34858143 0
1.4380424 0.45704356 -0.34912539 0
1.5457816 0.45499149 -0.34972671 0
1.6526812 0.43544698 -0.35021868 0
1.7465258 0.46014506 -0.35124245 0
1.8313166 0.45454192 -0.35173291 0
1.9419185 0.44772586 -0.35243753 0
2.0643947 0.45316491 -0.35388851 0
2.1729386 0.47066689 -0.35527843 0
2.2378771 0.44725758 -0.355836 0
2.3729012 0.46433985 -0.35668242 0
2.4615624 0.44517174 -0.35680476 0
2.54758 0.46072683 -0.35751078 0
2.6385906 0.4382503 -0.35801256 0
2.7248249 0.45257187 -0.35872826 0
2.8430786 0.45843884 -0.36059824 0
2.90468 0.45403424 -0.36102211 0
-3.509733 0.53148544 -0.31057009 0
-3.4435639 0.57201004 -0.31157029 0
-3.3541179 0.55715328 -0.31214195 0
-3.264672 0.54229653 -0.31271365 0
-3.1736786 0.55057251 -0.31369999 0
-3.0843601 0.5577904 -0.31468087 0
-2.9504766 0.5335781 -0.31552082 0
-2.8376968 0.56240618 -0.3161788 0
-2.722131 0.55295539 -0.31760278 0
-2.6321769 0.55430996 -0.31850505 0
-2.5452888 0.55513173 -0.31989026 0
-2.4823825 0.54130203 -0.32004622 0
-2.3511064 0.54804194 -0.32067212 0
-2.2194722 0.55093956 -0.32107699 0
-2.1303504 0.56132138 -0.32136071 0
-2.0480421 0.53963375 -0.32167503 0
-1.9479264 0.53470373 -0.32234341 0
-1.8364674 0.51209468 -0.32326385 0
-1.2661288 0.59053093 -0.32888865 0
-1.1498948 0.56283724 -0.33203512 0
-1.0936681 0.5786671 -0.33156154 0
1.1755464 0.54844499 -0.34765181 0
1.244745 0.54408175 -0.34898582 0
1.3592303 0.56218326 -0.34982619 0
1.4359388 0.54469097 -0.34936488 0
1.5594635 0.54122996 -0.35087571 0
1.6467221 0.54932708 -0.35138363 0
1.7284528 0.5667606 -0.35249701 0
1.8509678 0.54458022 -0.3528254 0
1.9729478 0.55012882 -0.35351449 0
2.056844 0.55772454 -0.3546702 0
2.160475 0.55276674 -0.35458767 0
2.2614756 0.54418093 -0.35554123 0
2.3467729 0.56470782 -0.35654768 0
2.4440215 0.55119425 -0.35804382 0
2.5374236 0.55326152 -0.35925332 0
2.6254997 0.55284196 -0.35976329 0
2.7157431 0.55159312 -0.36052531 0
2.8421843 0.54904389 -0.36024663 0
-3.5093541 0.63468516 -0.31201708 0
-3.4326596 0.67163682 -0.31253302 0
-3.3436394 0.65421921 -0.31308985 0
-3.2546191 0.63680166 -0.31364673 0
-3.1643484 0.66636586 -0.31458801 0
-3.0756531 0.64768988 -0.31524086 0
-2.9534976 0.65281546 -0.31685731 0
-2.8136344 0.63467157 -0.31846872 0
-2.7553735 0.66334248 -0.31843066 0
-2.6389394 0.65504611 -0.3191264 0
-2.5227504 0.64547485 -0.31974083 0
-2.459584 0.64807206 -0.32010341 0
-2.3721564 0.66154456 -0.32090354 0
-2.2570143 0.63624793 -0.3215175 0
-2.135885 0.66207993 -0.32296848 0
-2.0345907 0.64673287 -0.32418218 0
-1.9466659 0.64960706 -0.32507652 0
-1.5434816 0.68015975 -0.32786053 0
-1.4350023 0.67558455 -0.32796913 0
-1.3428581 0.66202152 -0.32862467 0
-1.2538068 0.65120745 -0.32963482 0
-1.1439735 0.65856379 -0.3304894 0
-1.0531532 0.647098 -0.33130273 0
1.089802 0.69138992 -0.34581885 0
1.1496036 0.65468109 -0.3485758 0
1.2575731 0.63938379 -0.34955713 0
1.3674425 0.65348136 -0.35098213 0
1.4541832 0.6533252 -0.35164079 0
1.5350733 0.65040344 -0.35192531 0
1.6562102 0.65717375 -0.35199112 0
1.7486767 0.64919573 -0.352597 0
1.8722107 0.6395027 -0.35448021 0
1.9548107 0.65213364 -0.35564792 0
2.0381851 0.64781934 -0.35559139 0
2.1473 0.64878273 -0.35703236 0
2.2473671 0.64401931 -0.35726047 0
2.3315847 0.66815376 -0.35809794 0
2.4233351 0.65719444 -0.35866758 0
2.5438619 0.64295989 -0.35899729 0
2.6808987 0.66548657 -0.36050072 0
2.7532902 0.63495535 -0.36143526 0
2.8776729 0.64905554 -0.36290553 0
-3.4618013 0.75470078 -0.31260428 0
-3.3436775 0.7542249 -0.31380486 0
-3.2553368 0.73429936 -0.31458217 0
-3.1517763 0.75840616 -0.31511533 0
-3.0636935 0.73720849 -0.31583822 0
-2.9619393 0.75783777 -0.31653279 0
-2.8699963 0.75624418 -0.31753168 0
-2.7806277 0.75396049 -0.31857905 0
-2.6875746 0.74941754 -0.3192457 0
-2.5271869 0.73884743 -0.32040572 0
-2.4427819 0.75721759 -0.32120511 0
-2.3571258 0.74921536 -0.32198051 0
-2.2554612 0.73471022 -0.32309252 0
-2.157284 0.74862146 -0.32431599 0
-2.0495045 0.74964988 -0.32458311 0
-1.9315063 0.75391048 -0.3249599 0
-1.7592779 0.77525383 -0.32624754 0
-1.649799 0.74980593 -0.32725853 0
-1.5284534 0.73991156 -0.32707921 0
-1.4637734 0.75464934 -0.32811829 0
-1.360551 0.75514489 -0.32867107 0
-1.2380298 0.75538009 -0.33024737 0
-1.1589274 0.76189584 -0.33167487 0
-1.0469924 0.74433035 -0.3329145 0
-0.97196412 0.77437228 -0.33300951 0
1.0530287 0.75577271 -0.34745005 0
1.1376159 0.75654966 -0.34886226 0
1.2530296 0.75516045 -0.34934422 0
1.3342403 0.74537796 -0.35056987 0
1.4482242 0.75292236 -0.35228205 0
1.5555024 0.73937112 -0.35374844 0
1.6612059 0.74864525 -0.35449734 0
1.7489052 0.75581956 -0.35519183 0
1.8298917 0.74465513 -0.35389537 0
1.9392377 0.7569384 -0.35421348 0
2.0548377 0.74507177 -0.35581374 0
2.1231093 0.73744667 -0.3566874 0
2.2256992 0.74261093 -0.35841301 0
2.3519192 0.75661075 -0.35853288 0
2.4585266 0.76836652 -0.35957432 0
2.5655956 0.7352187 -0.36070114 0
2.6770678 0.74653482 -0.36181042 0
2.7616303 0.74891949 -0.36213148 0
2.8510392 0.75121999 -0.36258829 0
-3.4368703 0.8529439 -0.31291002 0
-3.3132906 0.84772807 -0.31396633 0
-3.2208998 0.84870416 -0.31517851 0
-3.13094 0.84895062 -0.31624532 0
-3.0373805 0.84696507 -0.31712016 0
-2.9437537 0.84361279 -0.31794745 0
-2.8489585 0.86078405 -0.31866154 0
-2.7563889 0.85438687 -0.31935057 0
-2.6661487 0.84733474 -0.3200922 0
-2.5755103 0.8389017 -0.32092074 0
-2.4583211 0.85277444 -0.32187051 0
-2.3276753 0.8513512 -0.32265955 0
-2.2409582 0.8378787 -0.32307631 0
-2.1508079 0.83952045 -0.32392234 0
-2.0547733 0.85330963 -0.32482076 0
-1.9668833 0.84997874 -0.32559866 0
-1.8592075 0.84482956 -0.32638386 0
-1.7416036 0.84627426 -0.32712293 0
-1.6358004 0.85054368 -0.3273738 0
-1.5490366 0.84813213 -0.32781553 0
-1.4499075 0.84879363 -0.32879111 0
-1.3529181 0.85833979 -0.33006531 0
-1.2458872 0.8544156 -0.33147421 0
-1.1518925 0.85047734 -0.33259451 0
-1.0436455 0.85608482 -0.33265382 0
-0.94600558 0.8467024 -0.33357131 0
-0.87738961 0.88046598 -0.33308133 0
0.96344441 0.87449801 -0.34871095 0
1.0528498 0.84481347 -0.34860024 0
1.159126 0.84460568 -0.34972635 0
1.2531023 0.85121179 -0.35114509 0
1.3330911 0.83827013 -0.35178289 0
1.44371 0.85902065 -0.35224855 0
1.552789 0.8522892 -0.35238391 0
1.6280271 0.84313345 -0.35495335 0
1.7537465 0.8490538 -0.35588405 0
1.8671019 0.85174119 -0.35656318 0
1.9729055 0.85262662 -0.35710716 0
2.0751588 0.84916228 -0.35639647 0
2.1723266 0.84792322 -0.35653985 0
2.2592275 0.86323357 -0.35744855 0
2.3456163 0.84859449 -0.35936266 0
2.4567292 0.85889357 -0.35989082 0
2.5573585 0.8532694 -0.36086485 0
2.6464403 0.84111047 -0.36098465 0
2.7362139 0.84815192 -0.36164176 0
2.8304684 0.84625912 -0.36301738 0
-3.4642529 0.93940729 -0.31403625 0
-3.3805051 0.96877623 -0.3156752 0
-3.2931547 0.94374353 -0.31612965 0
-3.153152 0.95268691 -0.31675333 0
-3.0122423 0.95733213 -0.31785721 0
-2.9209049 0.95140511 -0.31877807 0
-2.8283863 0.94371378 -0.31958783 0
-2.7340713 0.95592904 -0.32062852 0
-2.648304 0.9259423 -0.32114202 0
-2.5577927 0.91487712 -0.32185069 0
-2.4445395 0.96437001 -0.32268596 0
-2.3558366 0.94540793 -0.32371119 0
-2.2398059 0.93652439 -0.32475755 0
-2.1448395 0.95267439 -0.3247667 0
-2.0390978 0.96921098 -0.32600361 0
-1.9290396 0.95089847 -0.32676327 0
-1.8314154 0.95221019 -0.32697338 0
-1.7518184 0.93979323 -0.32695487 0
-1.657032 0.93835342 -0.32761389 0
-1.5572139 0.94761765 -0.32955018 0
-1.4299481 0.94706452 -0.32951462 0
-1.3533328 0.95335144 -0.32998979 0
-1.2471498 0.94040054 -0.33125022 0
-1.1450541 0.94864959 -0.33198783 0
-1.0630161 0.95500404 -0.33319375 0
-0.95087612 0.94652945 -0.33408552 0
-0.85380369 0.954804 -0.33522832 0
-0.77884835 0.98489994 -0.33647022 0
0.86425829 0.97269905 -0.3486957 0
0.95123965 0.95099151 -0.34946644 0
1.0536237 0.95260048 -0.350593 0
1.1638348 0.94999886 -0.35020107 0
1.2371843 0.93510598 -0.35105458 0
1.3540781 0.94700783 -0.35273981 0
1.4654202 0.94428813 -0.35239655 0
1.5511873 0.9532212 -0.35423395 0
1.6477455 0.94878072 -0.35476884 0
1.7491963 0.96107513 -0.35559395 0
1.8370081 0.95504707 -0.35735559 0
1.9284394 0.95066512 -0.35736191 0
2.0391066 0.95128059 -0.35780871 0
2.1431453 0.96272033 -0.35915312 0
2.2391834 0.94875079 -0.3592959 0
2.3245447 0.94586515 -0.3587268 0
2.4321766 0.96942961 -0.36007112 0
2.5531507 0.95465571 -0.36144525 0
2.6572721 0.95070416 -0.36216652 0
2.7419026 0.94417048 -0.36265126 0
2.8005304 0.93438256 -0.36255586 0
-3.4457836 1.0410153 -0.31493199 0
-3.3583364 1.0673294 -0.31562218 0
-3.2718129 1.0398301 -0.31618094 0
-3.1732252 1.0587684 -0.31770012 0
-3.0816791 1.0528179 -0.31832325 0
-2.9913731 1.0458894 -0.31908798 0
-2.8571672 1.0219581 -0.31996948 0
-2.6541803 1.0799835 -0.32246947 0
-2.527988 1.028636 -0.32336223 0
-2.420013 1.0457752 -0.32370543 0
-2.362735 1.0515015 -0.32402313 0
-2.260669 1.0351523 -0.32420954 0
-2.1583636 1.0639598 -0.32558307 0
-2.0659723 1.0554403 -0.3260735 0
-1.9658759 1.0581515 -0.3262597 0
-1.8810189 1.0475733 -0.32721385 0
-1.7655368 1.0550938 -0.32868937 0
-1.6438224 1.04625 -0.32879734 0
-1.5395111 1.0558062 -0.32913753 0
-1.4361281 1.0466349 -0.32997447 0
-1.3374177 1.0487952 -0.33110017 0
-1.2546117 1.0442939 -0.33164689 0
-1.1499376 1.0502031 -0.3327401 0
-1.0352585 1.0389671 -0.33420059 0
-0.95304888 1.0671053 -0.33420855 0
-0.84719646 1.0489832 -0.33518833 0
-0.75201184 1.0554789 -0.33832368 0
-0.65308148 1.0713083 -0.33628979 0
0.75246066 1.0562544 -0.34763664 0
0.84495789 1.0486555 -0.34821248 0
0.93959606 1.0512277 -0.34954792 0
1.0587293 1.058792 -0.35060388 0
1.1378604 1.0357262 -0.35328385 0
1.2348192 1.0428232 -0.35133019 0
1.3415422 1.0467911 -0.35288996 0
1.4675163 1.0456196 -0.35401562 0
1.5689516 1.0595227 -0.35337952 0
1.6521599 1.0614349 -0.35499191 0
1.7597687 1.047025 -0.35683572 0
1.8671426 1.0573448 -0.35789621 0
1.9745834 1.0627978 -0.35908705 0
2.0298398 1.0371495 -0.35950479 0
2.1479464 1.0589001 -0.35967726 0
2.2447584 1.0475929 -0.35995203 0
2.3392539 1.0376579 -0.36169121 0
2.4546778 1.0468072 -0.36227942 0
2.5683541 1.0450697 -0.36165091 0
2.6569118 1.0590043 -0.36314645 0
2.7615516 1.0551643 -0.36417577 0
-3.4293642 1.1442243 -0.31629807 0
-3.3344421 1.1658363 -0.31703395 0
-3.2486749 1.1358495 -0.31754747 0
-3.1565418 1.129039 -0.31808823 0
-2.9486294 1.1997947 -0.32038632 0
-2.864501 1.1655629 -0.3209815 0
-2.7803726 1.1313311 -0.32157668 0
-2.346303 1.1358596 -0.32372761 0
-2.2363834 1.1425085 -0.32576641 0
-2.1409924 1.1591624 -0.32567593 0
-2.0399423 1.1552376 -0.32659692 0
-1.9246149 1.1637807 -0.32829461 0
-1.8243103 1.157377 -0.32846561 0
-1.7267662 1.1482548 -0.32846293 0
-1.6640679 1.164814 -0.32862183 0
-1.5563684 1.151418 -0.32993796 0
-1.4658515 1.1507897 -0.33156875 0
-1.3644067 1.1523379 -0.33191612 0
-1.2492477 1.1505301 -0.33237937 0
-1.1472164 1.1445698 -0.33338919 0
-1.0505539 1.1490706 -0.33392367 0
-0.94754887 1.1537564 -0.3353439 0
-0.86500067 1.1530361 -0.33742377 0
-0.74081951 1.1535343 -0.33739144 0
-0.65635759 1.1496196 -0.33732101 0
-0.56296229 1.1477847 -0.33866683 0
-0.45363888 1.1844045 -0.33994415 0
0.47087491 1.1937811 -0.34385633 0
0.55118263 1.1701037 -0.34667495 0
0.66103148 1.1450347 -0.34856626 0
0.7571907 1.1503322 -0.34878689 0
0.84508592 1.1511115 -0.35009259 0
0.95536476 1.1622032 -0.34922069 0
1.0399656 1.1332725 -0.35082638 0
1.1432651 1.1473584 -0.35219574 0
1.2528008 1.1536818 -0.35384169 0
1.3657523 1.1534061 -0.35334858 0
1.4448764 1.138109 -0.35423663 0
1.5336576 1.1345214 -0.35568199 0
1.6464813 1.1603158 -0.35587323 0
1.7579492 1.1511397 -0.35703158 0
1.8425871 1.1568178 -0.35760343 0
1.9467167 1.1444761 -0.35908288 0
2.0573857 1.1456176 -0.35989234 0
2.1537189 1.1592875 -0.36100566 0
2.2458804 1.1677034 -0.36136791 0
2.3497016 1.1375614 -0.36144927 0
2.4449174 1.1406184 -0.36229536 0
2.5433176 1.1424924 -0.36370298 0
2.6355021 1.1613777 -0.36484626 0
2.7313957 1.157305 -0.36513388 0
-3.4064698 1.2184339 -0.31651771 0
-3.1168859 1.2682581 -0.31919599 0
-3.0327578 1.2340263 -0.31979117 0
-2.3487747 1.2318356 -0.32569742 0
-2.2587364 1.2366954 -0.32534975 0
-2.1581981 1.2633711 -0.32678476 0
-2.0704365 1.2519622 -0.3273325 0
-1.9686666 1.2489655 -0.32802126 0
-1.8592759 1.2556003 -0.32808131 0
-1.7647244 1.2478102 -0.32856497 0
-1.6611899 1.2473513 -0.33065429 0
-1.5555054 1.246361 -0.33227071 0
-1.4445742 1.2378149 -0.33197269 0
-1.3596413 1.2521036 -0.33234167 0
-1.2517141 1.2441281 -0.33289778 0
-1.1561623 1.2464966 -0.33375832 0
-1.0482777 1.2503071 -0.33525193 0
-0.94724226 1.2518275 -0.33678189 0
-0.83393574 1.2313989 -0.33847666 0
-0.74395156 1.2560903 -0.33845711 0
-0.65552068 1.2658492 -0.33830139 0
-0.54451573 1.2478439 -0.3398453 0
-0.44138408 1.2480453 -0.33994269 0
-0.34937847 1.2519076 -0.34017518 0
-0.24901552 1.2488161 -0.34127611 0
-0.15065493 1.2700799 -0.34280482 0
-0.050373554 1.2782631 -0.34284484 0
0.050464347 1.2794493 -0.34319577 0
0.15170988 1.2794297 -0.34529406 0
0.2515164 1.2612008 -0.3446945 0
0.35246757 1.2464703 -0.3471573 0
0.4501608 1.2550702 -0.34772706 0
0.55992532 1.2500995 -0.34714445 0
0.65007114 1.24844 -0.34913737 0
0.76156801 1.2605261 -0.35064486 0
0.84651721 1.2557745 -0.35095835 0
0.93893749 1.2408348 -0.35098794 0
1.0522051 1.2439125 -0.35012567 0
1.1512232 1.2485268 -0.35157409 0
1.2556591 1.2575347 -0.35414892 0
1.3461099 1.2416909 -0.35435799 0
1.4360907 1.2485366 -0.35495192 0
1.5422838 1.2467744 -0.3556774 0
1.6547153 1.2424636 -0.35703033 0
1.747872 1.2547987 -0.35773349 0
1.8499863 1.2687348 -0.35851568 0
1.9431264 1.2438316 -0.35984617 0
2.0548668 1.2428758 -0.36082515 0
2.1348317 1.2426702 -0.36096621 0
2.2561967 1.256381 -0.3627547 0
2.3372188 1.2438294 -0.36218464 0
2.4494305 1.2513552 -0.36304441 0
2.5661883 1.2423378 -0.36377954 0
2.6782696 1.2729572 -0.36502257 0
2.709975 1.2174178 -0.36499453 0
-3.3610935 1.367626 -0.31746829 0
-3.2430782 1.3196056 -0.31830323 0
-2.3095567 1.3078429 -0.32588798 0
-2.2561145 1.3423562 -0.3265031 0
-2.1607029 1.3637304 -0.32668635 0
-2.0577784 1.3472409 -0.32834968 0
-1.9609765 1.3587669 -0.32770467 0
-1.8558407 1.3521377 -0.32905635 0
-1.7389609 1.3451631 -0.3309924 0
-1.6337836 1.3402125 -0.33331338 0
-1.5528711 1.36136 -0.33206052 0
-1.452574 1.3455884 -0.33274141 0
-1.3491294 1.3460567 -0.33388382 0
-1.2462969 1.3437018 -0.33329496 0
-1.1459434 1.3470911 -0.33597329 0
-1.0508254 1.3538809 -0.33595017 0
-0.94567043 1.3477067 -0.33709279 0
-0.84314132 1.3611121 -0.33862075 0
-0.7541526 1.3429476 -0.33848497 0
-0.6381346 1.3410169 -0.34017012 0
-0.54060149 1.3585396 -0.34017143 0
-0.46118072 1.3599432 -0.33910313 0
-0.34438464 1.3518664 -0.34086871 0
-0.24966843 1.3530705 -0.34189853 0
-0.15334532 1.346933 -0.34219602 0
-0.053027071 1.3457253 -0.34302899 0
0.043506935 1.3480229 -0.34395415 0
0.15005909 1.3474241 -0.34583113 0
0.25604913 1.3489774 -0.34576628 0
0.35476863 1.3442886 -0.34668672 0
0.44876567 1.3611919 -0.34850749 0
0.56235987 1.3679316 -0.34857586 0
0.65201545 1.3592486 -0.35024229 0
0.74679267 1.3296949 -0.35058904 0
0.85661596 1.3537116 -0.35062799 0
0.94894022 1.3523337 -0.35304347 0
1.0463728 1.3427314 -0.35164285 0
1.158695 1.3520833 -0.35161498 0
1.2512127 1.3316888 -0.35361078 0
1.3454854 1.3503687 -0.3554827 0
1.4502933 1.3548543 -0.35604081 0
1.5592604 1.3556163 -0.3567003 0
1.6496954 1.3493962 -0.35738534 0
1.7441412 1.3426343 -0.35857794 0
1.8272262 1.3517108 -0.35870212 0
1.9294186 1.3436007 -0.35946894 0
2.034317 1.3527131 -0.36100712 0
2.1489213 1.3418393 -0.36214289 0
2.2488234 1.3380066 -0.36245027 0
2.3482177 1.3520387 -0.36376074 0
2.4401519 1.3587713 -0.36377394 0
2.5465746 1.3472893 -0.36390778 0
2.6481555 1.3449135 -0.36480129 0
-2.2410409 1.4444596 -0.32756987 0
-2.1340134 1.4634148 -0.32757065 0
-2.0438809 1.4451789 -0.32761088 0
-1.9425325 1.4586148 -0.32960495 0
-1.8499988 1.4523809 -0.3310371 0
-1.7475806 1.4545709 -0.33230713 0
-1.6384811 1.4450825 -0.33228195 0
-1.5281117 1.4482605 -0.33348337 0
-1.4494258 1.4546459 -0.33468196 0
-1.3415756 1.4421289 -0.33337277 0
-1.2461703 1.4439068 -0.33528042 0
-1.1604362 1.4674371 -0.33658761 0
-1.0467088 1.4472847 -0.33627376 0
-0.95113224 1.4453138 -0.33829251 0
-0.86033154 1.4678065 -0.33811316 0
-0.75476658 1.4464773 -0.33791119 0
-0.6439743 1.4547098 -0.34008569 0
-0.55712903 1.4427747 -0.34030622 0
-0.43913564 1.4348689 -0.33968091 0
-0.34770465 1.4354131 -0.34147638 0
-0.24951257 1.4605472 -0.34261826 0
-0.14263624 1.4625688 -0.34346256 0
-0.049619876 1.4623659 -0.34338954 0
0.0450572 1.470497 -0.34531072 0
0.15307666 1.4700726 -0.34691161 0
0.24943325 1.4651781 -0.3475363 0
0.34375808 1.4569508 -0.34756148 0
0.45113024 1.4371175 -0.34846735 0
0.53631318 1.4393195 -0.34948406 0
0.64633119 1.4526536 -0.35048324 0
0.74201173 1.4544928 -0.35118166 0
0.84842426 1.4375725 -0.35182026 0
0.9491747 1.4611208 -0.3522397 0
1.0617243 1.4605279 -0.35327283 0
1.149161 1.4320985 -0.35416746 0
1.2393295 1.4360332 -0.35401049 0
1.3330989 1.4579706 -0.35437772 0
1.4492414 1.4585369 -0.35730085 0
1.5557625 1.4533947 -0.3576405 0
1.6578722 1.4480771 -0.35861215 0
1.7456623 1.4319184 -0.35861713 0
1.8536154 1.4550848 -0.36026108 0
1.9615148 1.4510609 -0.3605729 0
2.073535 1.4439554 -0.36140177 0
2.1710842 1.4661332 -0.36293879 0
2.265753 1.43751 -0.36320189 0
2.3653436 1.4770057 -0.36392355 0
2.4628127 1.4493709 -0.36560073 0
2.5570104 1.456323 -0.36544427 0
2.608047 1.4279879 -0.36522123 0
-2.2029738 1.5107828 -0.32798734 0
-2.1618457 1.5519013 -0.3267619 0
-2.0630569 1.5491166 -0.32932213 0
-1.9603857 1.5463921 -0.33012113 0
-1.8549052 1.5512757 -0.3317506 0
-1.7542158 1.5696923 -0.33184588 0
-1.6608547 1.5517403 -0.33262515 0
-1.561613 1.5449764 -0.33413243 0
-1.4589726 1.5373044 -0.33448797 0
-1.3674164 1.5616736 -0.3344216 0
-1.2546284 1.540736 -0.33567527 0
-1.1521096 1.5549338 -0.33648926 0
-1.0512513 1.5564232 -0.33776033 0
-0.94812906 1.5552475 -0.33885029 0
-0.84731978 1.5343293 -0.33767793 0
-0.75098497 1.56565 -0.33954662 0
-0.65373421 1.5585806 -0.34020239 0
-0.55726629 1.5556587 -0.34099594 0
-0.4520556 1.5565501 -0.34107533 0
-0.35370967 1.5424116 -0.34216267 0
-0.24973162 1.5373125 -0.3430481 0
-0.15036532 1.5534861 -0.34395313 0
-0.050264906 1.5609982 -0.34428039 0
0.056183219 1.5516613 -0.34671646 0
0.15390672 1.5506868 -0.34858453 0
0.25337559 1.5599756 -0.34843257 0
0.35326642 1.540666 -0.34847528 0
0.45095378 1.553273 -0.34859043 0
0.54715794 1.5539391 -0.35011867 0
0.65477091 1.5298913 -0.35089749 0
0.74153107 1.574827 -0.35216635 0
0.86306632 1.5581027 -0.3524403 0
0.958718 1.5378232 -0.35243624 0
1.0385725 1.5498245 -0.35378841 0
1.140923 1.542014 -0.35433322 0
1.2510779 1.5363531 -0.35543925 0
1.3560159 1.5487502 -0.35608357 0
1.4550762 1.5687073 -0.35643175 0
1.5425094 1.5405751 -0.35907015 0
1.6421486 1.550307 -0.35916832 0
1.7417549 1.5362338 -0.36003953 0
1.8564547 1.5452064 -0.35996735 0
1.9618558 1.5554117 -0.36176062 0
2.0428832 1.5417866 -0.36225995 0
2.139436 1.5511036 -0.36237121 0
2.2515075 1.5521854 -0.36401376 0
2.3269892 1.5472466 -0.36466849 0
2.432904 1.5435773 -0.36514649 0
2.5364316 1.5586405 -0.36636737 0
-2.1312459 1.6323514 -0.32965443 0
-2.0405583 1.6615093 -0.32991549 0
-1.932868 1.6323657 -0.33153644 0
-1.8454752 1.635715 -0.33141065 0
-1.7652063 1.656871 -0.33345616 0
-1.6583616 1.66433 -0.3337602 0
-1.5628057 1.6609969 -0.33396611 0
-1.4492861 1.6550452 -0.33485398 0
-1.3379898 1.6431328 -0.33563685 0
-1.262001 1.6573888 -0.3370969 0
-1.1436042 1.6548678 -0.33678639 0
-1.0420703 1.6555721 -0.33927265 0
-0.9420104 1.6496916 -0.33888417 0
-0.84773225 1.6350788 -0.33847988 0
-0.74037647 1.649955 -0.34071356 0
-0.64277875 1.6295863 -0.3405537 0
-0.54934174 1.6661304 -0.34225383 0
-0.46273899 1.6618005 -0.34190691 0
-0.34009439 1.6561733 -0.34356326 0
-0.24935637 1.6427506 -0.34369221 0
-0.15485603 1.6452639 -0.34510732 0
-0.052677494 1.6358733 -0.34524095 0
0.041290365 1.646009 -0.34703064 0
0.14769056 1.6464279 -0.3482624 0
0.25359493 1.635337 -0.34912598 0
0.35204679 1.6572489 -0.34988186 0
0.45789617 1.6649921 -0.34913215 0
0.556934 1.6627873 -0.34955224 0
0.66037172 1.6553664 -0.35146883 0
0.7517302 1.6470044 -0.35197407 0
0.84130526 1.6321056 -0.35399872 0
0.951092 1.6382887 -0.35347533 0
1.035099 1.6657686 -0.35438251 0
1.1526836 1.6426491 -0.35512719 0
1.2565844 1.6366733 -0.35618478 0
1.3543383 1.6631459 -0.35749215 0
1.4489446 1.6546543 -0.35755518 0
1.5476745 1.6383849 -0.35831341 0
1.6605314 1.6663585 -0.35963029 0
1.7559061 1.6563435 -0.36066112 0
1.822221 1.6305048 -0.36118102 0
1.9198805 1.6451753 -0.36166099 0
2.0345402 1.6446465 -0.36247906 0
2.1523736 1.640431 -0.36372983 0
2.2438743 1.6599369 -0.36441389 0
2.361768 1.6446649 -0.36526737 0
2.4719129 1.6589973 -0.36658999 0
-2.0455961 1.7564123 -0.33121118 0
-1.945969 1.7412742 -0.33159053 0
-1.8388329 1.7427357 -0.33263215 0
-1.7321218 1.7383627 -0.33303961 0
-1.6303746 1.7492743 -0.33385745 0
-1.5432812 1.7542214 -0.33406672 0
-1.4691426 1.7522968 -0.33534846 0
-1.34665 1.7540741 -0.33677799 0
-1.2358994 1.7319131 -0.33708027 0
-1.1594408 1.7569281 -0.3381103 0
-1.0599712 1.7671347 -0.33992743 0
-0.95602328 1.7312131 -0.33923581 0
-0.85591727 1.7391212 -0.34054351 0
-0.75259912 1.7588584 -0.34110689 0
-0.65753442 1.7396588 -0.34116492 0
-0.55141079 1.7567346 -0.34264499 0
-0.43948096 1.7437775 -0.34203911 0
