# .PCD v0.7 - Point Cloud Data file format
VERSION 0.7
FIELDS x y z intensity
SIZE 4 4 4 4
TYPE F F F F
COUNT 1 1 1 1
WIDTH 1340
HEIGHT 1
VIEWPOINT 0 0 0 1 0 0 0
POINTS 1340
DATA ascii
-1.8482622 -2.3604591 -0.31373683 0
-1.7601665 -2.3618548 -0.31490532 0
-1.6439368 -2.3428185 -0.31658566 0
-1.5351905 -2.3509433 -0.31746325 0
-1.452858 -2.3833561 -0.31924447 0
-1.3589239 -2.3408325 -0.32067916 0
-1.2554948 -2.3323131 -0.32230037 0
-1.156503 -2.3531415 -0.32342771 0
-1.0634683 -2.3446934 -0.32400456 0
-0.96625012 -2.3498688 -0.3263846 0
-0.86544561 -2.3401129 -0.32609209 0
-0.74957192 -2.3522356 -0.32837605 0
-0.65589994 -2.3515642 -0.32813257 0
-0.54427439 -2.3735311 -0.33102646 0
-0.45581734 -2.3438532 -0.33200034 0
-0.36230382 -2.3366392 -0.33323944 0
-0.26128829 -2.3467987 -0.33342659 0
-0.16141298 -2.3708065 -0.33563539 0
-0.058902659 -2.3510034 -0.33715755 0
0.042063739 -2.3515558 -0.33861086 0
0.13716997 -2.36163 -0.33964092 0
0.23880272 -2.3572457 -0.3404063 0
0.3474046 -2.3505383 -0.34243751 0
0.454166 -2.3658781 -0.34422696 0
0.55877632 -2.3592112 -0.34409666 0
0.66210866 -2.3419697 -0.34532896 0
0.74838626 -2.3258157 -0.34669161 0
0.85014319 -2.3493299 -0.34905177 0
0.94971931 -2.3581538 -0.34935844 0
1.0514064 -2.3401518 -0.35069883 0
1.145085 -2.3580167 -0.35270408 0
1.2472113 -2.3370795 -0.35380018 0
1.3486166 -2.3617988 -0.35500959 0
1.4634155 -2.3250177 -0.35627827 0
1.5449988 -2.3784285 -0.35779789 0
1.638276 -2.3348382 -0.35993123 0
1.7342755 -2.3620656 -0.35982811 0
-2.6438324 -2.245749 -0.30488378 0
-2.519989 -2.2226655 -0.30549997 0
-2.445312 -2.2519283 -0.30720633 0
-2.3548532 -2.2639589 -0.30673152 0
-2.2472312 -2.255337 -0.3082895 0
-2.1393309 -2.241303 -0.30991244 0
-2.0308945 -2.2533903 -0.31273746 0
-1.9489164 -2.236573 -0.31308228 0
-1.8479643 -2.2471504 -0.31394413 0
-1.7361546 -2.2613132 -0.31491902 0
-1.6397964 -2.2333755 -0.31664151 0
-1.5527166 -2.2580616 -0.31718367 0
-1.4501206 -2.267915 -0.3188251 0
-1.3435192 -2.2399442 -0.32073116 0
-1.2654178 -2.2534955 -0.32175127 0
-1.1572934 -2.2583826 -0.32272628 0
-1.0602094 -2.2514772 -0.3244946 0
-0.94811153 -2.2596946 -0.32600698 0
-0.83584142 -2.260061 -0.32639429 0
-0.74404335 -2.23857 -0.328233 0
-0.65124065 -2.2424605 -0.32849404 0
-0.54420286 -2.2608078 -0.33075228 0
-0.45604005 -2.2445698 -0.33198595 0
-0.34916607 -2.2519369 -0.33342767 0
-0.25176701 -2.2613127 -0.33333287 0
-0.14626938 -2.2646067 -0.3356317 0
-0.055938922 -2.2327588 -0.33676788 0
0.039746787 -2.2222941 -0.33848724 0
0.15565793 -2.2375197 -0.33917034 0
0.2654281 -2.2372403 -0.34011614 0
0.36062026 -2.2202935 -0.34277359 0
0.45091707 -2.2461686 -0.34404254 0
0.53878731 -2.2748191 -0.34366927 0
0.63852853 -2.2585585 -0.34498835 0
0.73885804 -2.2409568 -0.34689745 0
0.84490037 -2.2352591 -0.3486551 0
0.93558031 -2.275718 -0.34968302 0
1.0497977 -2.2290714 -0.35058007 0
1.1547285 -2.2803411 -0.3519389 0
1.2400839 -2.2457392 -0.35364559 0
1.3458036 -2.2555058 -0.35407355 0
1.4497505 -2.2317986 -0.3562282 0
1.5443257 -2.2577875 -0.35891211 0
1.6468047 -2.2428617 -0.35869178 0
1.7617984 -2.2609243 -0.35813278 0
1.8528917 -2.2588038 -0.36200649 0
1.9375018 -2.233999 -0.36367288 0
-2.7189224 -2.1239557 -0.30198884 0
-2.6748796 -2.1624238 -0.30350974 0
-2.5798831 -2.1474006 -0.30576771 0
-2.4675634 -2.1452186 -0.30657098 0
-2.3407371 -2.1555815 -0.3076205 0
-2.224504 -2.1386409 -0.3081215 0
-2.1576166 -2.1653593 -0.30987632 0
-2.0523679 -2.1602767 -0.3109957 0
-1.9550482 -2.138258 -0.31404099 0
-1.859121 -2.1539354 -0.31396317 0
-1.7408289 -2.1377976 -0.31500241 0
-1.6327718 -2.1475658 -0.31575727 0
-1.5563186 -2.1845841 -0.31768388 0
-1.4429052 -2.1497221 -0.31856045 0
-1.3484623 -2.1492221 -0.32034662 0
-1.2421389 -2.1397128 -0.32205057 0
-1.1484472 -2.1520324 -0.32333013 0
-1.0538695 -2.1574214 -0.32457289 0
-0.96534765 -2.1450191 -0.32519752 0
-0.85361874 -2.1642313 -0.32682571 0
-0.75398469 -2.1319878 -0.32737184 0
-0.65711492 -2.1471112 -0.32823959 0
-0.55448973 -2.166429 -0.33035007 0
-0.45721897 -2.1336563 -0.3318679 0
-0.35140616 -2.1639929 -0.33351219 0
-0.22318852 -2.1411178 -0.33423102 0
-0.14925256 -2.1341908 -0.3354941 0
-0.057616659 -2.1260669 -0.33697972 0
0.058649287 -2.1368799 -0.33871397 0
0.16072042 -2.1348474 -0.33921891 0
0.25249827 -2.1281447 -0.33990523 0
0.34243166 -2.1323471 -0.34262231 0
0.45006874 -2.1206408 -0.34379092 0
0.5548771 -2.1505082 -0.34378806 0
0.6464178 -2.1673887 -0.34491146 0
0.74442482 -2.1537793 -0.34746659 0
0.83704299 -2.1220715 -0.34803733 0
0.93969786 -2.1616802 -0.34947786 0
1.0625538 -2.136255 -0.35131621 0
1.1550725 -2.164438 -0.35235119 0
1.2614392 -2.1374824 -0.35335407 0
1.3440336 -2.1584103 -0.35445806 0
1.4528937 -2.1347568 -0.35669616 0
1.5653809 -2.164309 -0.35766554 0
1.6520685 -2.1408997 -0.35706162 0
1.7474549 -2.145843 -0.35973766 0
1.8494873 -2.1530297 -0.36212674 0
1.9494177 -2.1425104 -0.36234203 0
2.054184 -2.1396852 -0.36451289 0
-2.7643826 -2.044935 -0.3018575 0
-2.6458213 -2.0466263 -0.30301431 0
-2.5344615 -2.048908 -0.30510563 0
-2.4409523 -2.0317607 -0.30721426 0
-2.3437226 -2.057085 -0.30763516 0
-2.2429178 -2.046072 -0.30933318 0
-2.1593292 -2.0759821 -0.30881652 0
-2.055763 -2.0631802 -0.31040516 0
-1.9672993 -2.0317173 -0.31185821 0
-1.8493657 -2.0519755 -0.31528929 0
-1.7483763 -2.0451355 -0.31473812 0
-1.6506882 -2.0421596 -0.31652498 0
-1.5522597 -2.0520756 -0.31701916 0
-1.4540464 -2.0510285 -0.31877342 0
-1.3557258 -2.0548744 -0.31965151 0
-1.2575072 -2.0299928 -0.32205114 0
-1.1512893 -2.0496545 -0.32334995 0
-1.0438334 -2.0614178 -0.3242563 0
-0.95138437 -2.0203903 -0.32584944 0
-0.84190238 -2.0563295 -0.32706529 0
-0.74702907 -2.0199053 -0.327301 0
-0.64658535 -2.0599828 -0.32831588 0
-0.54559511 -2.040905 -0.330057 0
-0.45344043 -2.0446746 -0.33175442 0
-0.3482165 -2.0510552 -0.33314067 0
-0.26329434 -2.0667281 -0.33345547 0
-0.15341462 -2.0386887 -0.3354404 0
-0.051299464 -2.0495427 -0.33680749 0
0.051556639 -2.0604017 -0.33861282 0
0.15475781 -2.0557473 -0.33895591 0
0.2423224 -2.0422785 -0.3393347 0
0.34786984 -2.0483873 -0.34274134 0
0.45132831 -2.0347145 -0.34314683 0
0.55587846 -2.058316 -0.34325311 0
0.65214807 -2.0775642 -0.34551233 0
0.74523997 -2.0601976 -0.34748587 0
0.85377878 -2.0241392 -0.34860057 0
0.96046054 -2.0475848 -0.35030085 0
1.052465 -2.0419328 -0.35062572 0
1.1497159 -2.0473287 -0.35221484 0
1.2469505 -2.0454557 -0.35301986 0
1.3491011 -2.0550952 -0.35456976 0
1.4507699 -2.0364869 -0.3567405 0
1.5609509 -2.0634 -0.35681939 0
1.6492211 -2.0550928 -0.35749879 0
1.7416519 -2.0472996 -0.36069405 0
1.8606948 -2.0644758 -0.36174378 0
1.9590782 -2.0523901 -0.36365256 0
2.0269856 -2.0342696 -0.36332664 0
2.1347947 -2.0523548 -0.36430618 0
-2.8219404 -1.9651763 -0.30203301 0
-2.728539 -1.9292035 -0.30388397 0
-2.6634011 -1.9409131 -0.30325645 0
-2.5628469 -1.9628106 -0.30413327 0
-2.4404023 -1.9441242 -0.30559283 0
-2.3714869 -1.9739408 -0.30793753 0
-2.2760594 -1.950282 -0.3088848 0
-2.1542857 -1.9556179 -0.30980939 0
-2.0458896 -1.9388553 -0.31064048 0
-1.9424919 -1.9218394 -0.31183565 0
-1.8496509 -1.9654266 -0.31372342 0
-1.7377169 -1.9338086 -0.3168337 0
-1.655755 -1.9463829 -0.31562421 0
-1.5632478 -1.9573718 -0.31720531 0
-1.4566679 -1.9545683 -0.31870604 0
-1.3493041 -1.9524168 -0.31963032 0
-1.2375752 -1.9355661 -0.32168698 0
-1.1484116 -1.9459987 -0.32308978 0
-1.0478745 -1.9636267 -0.3245545 0
-0.94176954 -1.9279553 -0.32592911 0
-0.85893869 -1.9682822 -0.3263157 0
-0.75976849 -1.9263177 -0.3280139 0
-0.64758593 -1.9519216 -0.32819647 0
-0.55946773 -1.9607126 -0.32914761 0
-0.44696173 -1.9489132 -0.33182293 0
-0.35145742 -1.9346651 -0.33295244 0
-0.24402577 -1.9383899 -0.3332651 0
-0.14743328 -1.9592599 -0.33545813 0
-0.049297567 -1.9697307 -0.33672133 0
0.039861172 -1.9559441 -0.33880737 0
0.14875579 -1.9760288 -0.33886489 0
0.24750766 -1.9649627 -0.33953521 0
0.34872797 -1.9679852 -0.34264672 0
0.44730943 -1.9507277 -0.34274876 0
0.54435188 -1.9252294 -0.3433052 0
0.64309782 -1.9505011 -0.34568954 0
0.75039065 -1.9511696 -0.34745604 0
0.85805964 -1.9285444 -0.34814039 0
0.95000648 -1.964229 -0.34855318 0
1.0481179 -1.9418131 -0.35063928 0
1.1256744 -1.932465 -0.3515721 0
1.2451117 -1.9471246 -0.35297799 0
1.359485 -1.9671865 -0.35581505 0
1.45566 -1.9242102 -0.35567406 0
1.552687 -1.9634019 -0.35685927 0
1.6579117 -1.9680104 -0.35953924 0
1.7434349 -1.9343668 -0.36015925 0
1.8485894 -1.9645122 -0.36164799 0
1.9651463 -1.9722078 -0.36252487 0
2.0553391 -1.9570309 -0.3634356 0
2.1571414 -1.9396824 -0.36446527 0
2.2507031 -1.9445106 -0.36588684 0
-2.9153793 -1.8204509 -0.30070457 0
-2.8673375 -1.8334587 -0.30139744 0
-2.7608297 -1.8644456 -0.30105853 0
-2.6638093 -1.8550327 -0.30369309 0
-2.5525601 -1.8601013 -0.30472255 0
-2.4572134 -1.8451616 -0.30550027 0
-2.3388393 -1.8631968 -0.3073712 0
-2.2430317 -1.8400612 -0.30882588 0
-2.1266727 -1.8488661 -0.31043229 0
-2.0241885 -1.8375417 -0.31186855 0
-1.9442205 -1.8425815 -0.31118381 0
-1.841316 -1.8479469 -0.31323674 0
-1.7474335 -1.8418837 -0.31430605 0
-1.6545511 -1.8624393 -0.31768635 0
-1.5549341 -1.8545817 -0.31690246 0
-1.466138 -1.8540982 -0.3180306 0
-1.3542093 -1.8444337 -0.320052 0
-1.2468458 -1.8508021 -0.32054007 0
-1.1629025 -1.8571864 -0.32352704 0
-1.0593615 -1.8554193 -0.32446671 0
-0.94772941 -1.8350887 -0.32560086 0
-0.84845638 -1.8567455 -0.32692429 0
-0.75135583 -1.8654801 -0.3279776 0
-0.6595521 -1.8433387 -0.32905638 0
-0.55569541 -1.863513 -0.33024228 0
-0.45596075 -1.8428417 -0.33161175 0
-0.35247731 -1.8364327 -0.33261418 0
-0.24772298 -1.8598969 -0.33356625 0
-0.1395822 -1.8546987 -0.33568284 0
-0.053537481 -1.8436506 -0.33650094 0
0.055239532 -1.8456477 -0.33840719 0
0.14774592 -1.8597052 -0.33854255 0
0.24608524 -1.8473767 -0.33942676 0
0.34805438 -1.8547033 -0.34273687 0
0.45540002 -1.8634377 -0.34225985 0
0.55047035 -1.8457583 -0.34369373 0
0.65481722 -1.8426641 -0.34644526 0
0.75721043 -1.8605149 -0.34793103 0
0.85147804 -1.8423563 -0.34823236 0
0.95258749 -1.8641917 -0.34945339 0
1.0474625 -1.8343633 -0.3503221 0
1.1574103 -1.871624 -0.35187173 0
1.2526171 -1.8405015 -0.35365677 0
1.3413169 -1.8408774 -0.35422003 0
1.4310433 -1.8364667 -0.35544947 0
1.5566512 -1.8565309 -0.35761315 0
1.6552912 -1.8545297 -0.35889128 0
1.7309806 -1.8395555 -0.36053503 0
1.8422368 -1.8489482 -0.36118513 0
1.9545215 -1.8523363 -0.36168721 0
2.0597332 -1.8697176 -0.36299098 0
2.1532774 -1.8450748 -0.36499316 0
2.2296069 -1.8289944 -0.36571318 0
2.3433492 -1.8394946 -0.36687326 0
-2.8378067 -1.74389 -0.30110931 0
-2.7354689 -1.7354527 -0.30272883 0
-2.6575198 -1.7490712 -0.30242264 0
-2.5432637 -1.7619143 -0.30469605 0
-2.4209037 -1.7378068 -0.30653226 0
-2.3398952 -1.7397423 -0.30652311 0
-2.2620211 -1.7496901 -0.30871195 0
-2.1568005 -1.7519369 -0.30952492 0
-2.0516479 -1.749711 -0.31138057 0
-1.9408581 -1.7367405 -0.31266508 0
-1.8417952 -1.745483 -0.31291008 0
-1.7501422 -1.7398993 -0.31466559 0
-1.6667747 -1.7713599 -0.31554446 0
-1.553136 -1.7483122 -0.31812215 0
-1.4488682 -1.7535071 -0.31824821 0
-1.3403965 -1.745803 -0.32025129 0
-1.2552299 -1.7618315 -0.32151306 0
-1.1426656 -1.7531922 -0.32303709 0
-1.0361154 -1.7557266 -0.32463232 0
-0.95264101 -1.754964 -0.32577595 0
-0.86473668 -1.7322075 -0.32650143 0
-0.75207204 -1.7644409 -0.32840684 0
-0.66320932 -1.7469193 -0.32871589 0
-0.55105466 -1.764312 -0.33056617 0
-0.4627974 -1.7417854 -0.33141771 0
-0.36226425 -1.7517821 -0.3323141 0
-0.25115409 -1.7419261 -0.33436835 0
-0.1601485 -1.7291062 -0.33450043 0
-0.055648603 -1.7291952 -0.3363381 0
0.043544073 -1.7411902 -0.33860171 0
0.14775842 -1.7397418 -0.33777758 0
0.24787763 -1.7333198 -0.3387543 0
0.34880456 -1.735903 -0.34275311 0
0.43249145 -1.7577034 -0.34267658 0
0.54038608 -1.7656572 -0.34365875 0
0.64752913 -1.7505177 -0.34727436 0
0.74974698 -1.751794 -0.34746432 0
0.85391521 -1.7480192 -0.34769601 0
0.94536513 -1.7595747 -0.34899139 0
1.0469527 -1.7453142 -0.35030568 0
1.1418769 -1.757839 -0.35108042 0
1.252502 -1.7369661 -0.35342997 0
1.3547459 -1.764496 -0.35460654 0
1.4356372 -1.7373259 -0.35585797 0
1.5554736 -1.7508837 -0.35787341 0
1.6562443 -1.7519459 -0.35988775 0
1.7487084 -1.7549912 -0.35971868 0
1.8258277 -1.7303861 -0.35971129 0
1.9439642 -1.7393569 -0.36144266 0
2.0538373 -1.7597715 -0.3633002 0
2.1737053 -1.7572681 -0.36443463 0
2.2804203 -1.7638974 -0.36572227 0
2.3726552 -1.7551597 -0.36622998 0
2.4432149 -1.7275014 -0.36826381 0
-2.864768 -1.6768409 -0.30019459 0
-2.7812059 -1.6548228 -0.30131501 0
-2.6842923 -1.6495492 -0.30295646 0
-2.5719826 -1.6576771 -0.30400512 0
-2.473731 -1.6449119 -0.30499235 0
-2.3675396 -1.6487182 -0.30680573 0
-2.2608075 -1.6474928 -0.30788395 0
-2.1465926 -1.6604705 -0.30930248 0
-2.0566576 -1.6383919 -0.31091893 0
-1.9399979 -1.638425 -0.31242254 0
-1.8596573 -1.6480168 -0.31351039 0
-1.7740673 -1.6573482 -0.31407571 0
-1.6579027 -1.6448635 -0.31559688 0
-1.5627385 -1.6607901 -0.3161892 0
-1.4416008 -1.6463373 -0.3187049 0
-1.3420227 -1.6480693 -0.31925121 0
-1.2434326 -1.6437176 -0.3217158 0
-1.1523281 -1.6606158 -0.32241043 0
-1.0489293 -1.6504542 -0.32413352 0
-0.95008761 -1.6639264 -0.32552591 0
-0.84424269 -1.6380372 -0.32679933 0
-0.74806142 -1.6493945 -0.32840177 0
-0.65165383 -1.6520426 -0.32950768 0
-0.54352432 -1.6376972 -0.33110669 0
-0.44150719 -1.6518917 -0.33240831 0
-0.34659374 -1.6535474 -0.33240381 0
-0.25247684 -1.6668863 -0.33302552 0
-0.14822769 -1.6539575 -0.334225 0
-0.051332116 -1.6468362 -0.33666033 0
0.047650345 -1.6460613 -0.33862326 0
0.15399221 -1.6515436 -0.338162 0
0.25352204 -1.6453086 -0.3405585 0
0.35554796 -1.658172 -0.34208572 0
0.45223936 -1.6727053 -0.34132466 0
0.54419684 -1.6642987 -0.34425125 0
0.64184743 -1.6589019 -0.34722093 0
0.73790842 -1.6353614 -0.34757054 0
0.82952434 -1.6476345 -0.34849754 0
0.95297736 -1.6414376 -0.34885231 0
1.0539447 -1.6482201 -0.35010311 0
1.1474462 -1.6603936 -0.35152954 0
1.2368823 -1.6349415 -0.35306618 0
1.3454084 -1.6520562 -0.35432148 0
1.4601887 -1.6675419 -0.35630259 0
1.5436958 -1.6405119 -0.35796779 0
1.6666876 -1.6489292 -0.35833779 0
1.762105 -1.6699951 -0.35871217 0
1.8460127 -1.6518084 -0.35994461 0
1.9351635 -1.6342655 -0.36206236 0
2.0373037 -1.6470002 -0.3627547 0
2.1421938 -1.656909 -0.36398259 0
2.2663171 -1.6514728 -0.36600354 0
2.3741822 -1.6534003 -0.36730829 0
2.4819441 -1.6589484 -0.36875859 0
2.5298376 -1.6304927 -0.36955953 0
-2.9197412 -1.5986257 -0.30020329 0
-2.8385742 -1.5540994 -0.3006967 0
-2.7336667 -1.5479535 -0.30193523 0
-2.6347923 -1.5423188 -0.30298865 0
-2.5307775 -1.5552086 -0.30480361 0
-2.4307795 -1.5421505 -0.30594569 0
-2.3426962 -1.5577804 -0.30644456 0
-2.2194047 -1.5455611 -0.3083621 0
-2.1482666 -1.5500559 -0.3094056 0
-2.0253112 -1.5359477 -0.31056681 0
-1.969383 -1.5689094 -0.31170508 0
-1.8624959 -1.5502467 -0.3131091 0
-1.7575318 -1.5502033 -0.31479672 0
-1.6548827 -1.5461087 -0.31595209 0
-1.5447122 -1.5502253 -0.3178359 0
-1.4374478 -1.5452557 -0.31768161 0
-1.3409116 -1.5358754 -0.32011718 0
-1.2590048 -1.5550848 -0.32034206 0
-1.1425366 -1.5330548 -0.32223493 0
-1.052925 -1.5565062 -0.32359034 0
-0.94490355 -1.5549157 -0.32551616 0
-0.8591429 -1.5506434 -0.32603401 0
-0.74982339 -1.5437804 -0.32840192 0
-0.65069956 -1.5563084 -0.32957175 0
-0.55751151 -1.5582707 -0.33067265 0
-0.45119566 -1.5543272 -0.33183965 0
-0.35333651 -1.5412256 -0.33165985 0
-0.24589348 -1.5544753 -0.33318961 0
-0.14764108 -1.5490376 -0.33371207 0
-0.052002031 -1.5449746 -0.33651331 0
0.049546864 -1.5390105 -0.33860841 0
0.14752436 -1.5456717 -0.33821028 0
0.24949987 -1.5365685 -0.33974671 0
0.34558567 -1.5573974 -0.34138608 0
0.45422491 -1.5636766 -0.34214687 0
0.54660207 -1.5455918 -0.34500739 0
0.64878637 -1.5511677 -0.34606344 0
0.75655687 -1.5487421 -0.34678775 0
0.84597701 -1.5581992 -0.34711841 0
0.93883228 -1.5397578 -0.34875196 0
1.0549001 -1.5500029 -0.3495799 0
1.1490154 -1.555707 -0.35180801 0
1.2486678 -1.5378938 -0.35241324 0
1.3431407 -1.5561863 -0.35454985 0
1.4531788 -1.5486683 -0.35629553 0
1.5548577 -1.553151 -0.35707483 0
1.6320088 -1.5467052 -0.35697192 0
1.7477356 -1.5637708 -0.35855052 0
1.8624049 -1.5501674 -0.36104265 0
1.9596285 -1.55365 -0.36132109 0
2.046999 -1.5448388 -0.36308256 0
2.1378036 -1.5345937 -0.36443487 0
2.2300358 -1.5530257 -0.36547366 0
2.3437984 -1.5344014 -0.36668828 0
2.4425061 -1.5495468 -0.36842838 0
2.5585587 -1.5621227 -0.37009671 0
2.6113663 -1.5035216 -0.36998278 0
-2.8647149 -1.4635289 -0.30036631 0
-2.7598407 -1.4432549 -0.30167288 0
-2.6434286 -1.4473382 -0.30372369 0
-2.5634038 -1.4759238 -0.30353367 0
-2.4793389 -1.4513282 -0.30483696 0
-2.3842258 -1.4418172 -0.30623236 0
-2.2689698 -1.4623891 -0.30755833 0
-2.1735454 -1.4453036 -0.3085573 0
-2.0543432 -1.4525342 -0.31019917 0
-1.9333032 -1.4517508 -0.31202397 0
-1.8388927 -1.4435955 -0.31338108 0
-1.7448081 -1.4313465 -0.31480914 0
-1.6440895 -1.4458439 -0.31586915 0
-1.5350118 -1.454843 -0.31721714 0
-1.4339237 -1.4390403 -0.31975749 0
-1.3510337 -1.4566355 -0.31822783 0
-1.2555937 -1.4380716 -0.32057112 0
-1.1517102 -1.4475849 -0.32170302 0
-1.0448791 -1.4533098 -0.32313588 0
-0.93836069 -1.4518329 -0.32554862 0
-0.83991909 -1.4430894 -0.32607231 0
-0.75768936 -1.4701657 -0.32699087 0
-0.65322244 -1.4485251 -0.32900476 0
-0.54164124 -1.4538217 -0.33019295 0
-0.45121175 -1.4378518 -0.33121541 0
-0.35737351 -1.4619254 -0.33102909 0
-0.25066188 -1.4422675 -0.33352974 0
-0.15083392 -1.4370933 -0.33184806 0
-0.05369227 -1.4547273 -0.33653474 0
0.047098238 -1.4625484 -0.33858681 0
0.15375997 -1.4600114 -0.339571 0
0.252509 -1.4459724 -0.33929542 0
0.35634884 -1.4447824 -0.3414616 0
0.44467798 -1.4327462 -0.34291726 0
0.54232484 -1.4523145 -0.34602839 0
0.64973283 -1.4512005 -0.34542429 0
0.73645842 -1.4593649 -0.34707925 0
0.84062904 -1.4480634 -0.34742829 0
0.94981116 -1.4622487 -0.34802294 0
1.0444608 -1.4584904 -0.34997049 0
1.1336954 -1.4461629 -0.3512674 0
1.2367183 -1.4328882 -0.35294002 0
1.3437374 -1.4487091 -0.35433248 0
1.4555484 -1.4606568 -0.35585028 0
1.5510643 -1.4490651 -0.35574588 0
1.6674153 -1.4706889 -0.35751903 0
1.74703 -1.4330927 -0.35915282 0
1.8522776 -1.4540186 -0.36003938 0
1.9391485 -1.4489832 -0.36169776 0
2.0429292 -1.4445094 -0.36362022 0
2.1571889 -1.4416624 -0.36388087 0
2.2609403 -1.4497232 -0.36547387 0
2.3544612 -1.4468729 -0.36738029 0
2.4504526 -1.4423522 -0.36831284 0
2.5487459 -1.4514419 -0.36945042 0
2.6356928 -1.4431387 -0.3703337 0
2.7036433 -1.405719 -0.37415472 0
-2.8309507 -1.3455257 -0.3003656 0
-2.7290256 -1.3452272 -0.30142999 0
-2.6327651 -1.345157 -0.30282196 0
-2.5370793 -1.3655813 -0.30513978 0
-2.4440536 -1.3380817 -0.30589101 0
-2.3238857 -1.3603374 -0.30668521 0
-2.2300365 -1.3485759 -0.30804169 0
-2.1242604 -1.3476758 -0.30945238 0
-2.0432894 -1.344852 -0.31055489 0
-1.9631046 -1.3602028 -0.31141174 0
-1.84726 -1.3458519 -0.3126094 0
-1.7441424 -1.3360325 -0.31493211 0
-1.6643753 -1.3519363 -0.31588864 0
-1.5481849 -1.3459471 -0.3164582 0
-1.4597253 -1.3519176 -0.31837749 0
-1.3500093 -1.354894 -0.32051441 0
-1.2445788 -1.3378633 -0.32007924 0
-1.1410141 -1.3412566 -0.32141218 0
-1.035163 -1.3370321 -0.32212168 0
-0.94899511 -1.3585168 -0.32453999 0
-0.844459 -1.3416715 -0.32598534 0
-0.74078369 -1.3645986 -0.3272737 0
-0.65571254 -1.3423245 -0.32812437 0
-0.54719651 -1.3484374 -0.33006579 0
-0.4447031 -1.3491329 -0.33132058 0
-0.34947217 -1.367678 -0.33104518 0
-0.26126251 -1.3596904 -0.3326444 0
-0.1452378 -1.3416847 -0.33316967 0
-0.053227365 -1.35219 -0.33598581 0
0.048715498 -1.3511056 -0.33715317 0
0.15091434 -1.3574905 -0.33913049 0
0.24779776 -1.3440983 -0.3392809 0
0.33866203 -1.356901 -0.34200573 0
0.45567912 -1.3449088 -0.34306353 0
0.54734141 -1.3650603 -0.34356436 0
0.65044278 -1.348835 -0.34641385 0
0.73968738 -1.3432908 -0.34703818 0
0.86289597 -1.3494457 -0.34748212 0
0.95932233 -1.3465331 -0.34854236 0
1.045455 -1.357794 -0.34954438 0
1.1542711 -1.3690019 -0.35141796 0
1.2413992 -1.3341184 -0.35267699 0
1.3404582 -1.3451374 -0.35416716 0
1.4488119 -1.3535235 -0.35512072 0
1.5557613 -1.352563 -0.3560777 0
1.6587694 -1.3605506 -0.35764021 0
1.7520299 -1.3486913 -0.35888168 0
1.827065 -1.3464814 -0.36103502 0
1.9417428 -1.3522764 -0.36180434 0
2.0493159 -1.3416113 -0.3622953 0
2.1570263 -1.3468204 -0.36425269 0
2.2649415 -1.3475605 -0.36586368 0
2.3648233 -1.3615274 -0.36734572 0
2.4707575 -1.3528392 -0.36830503 0
2.5740783 -1.338329 -0.36995372 0
2.6805096 -1.3452958 -0.37135646 0
2.7203901 -1.3169285 -0.37110189 0
-2.7761314 -1.247138 -0.30137849 0
-2.6797819 -1.2502971 -0.30263224 0
-2.5676374 -1.2656647 -0.30339384 0
-2.4739013 -1.2416093 -0.30407679 0
-2.3628652 -1.250198 -0.30710703 0
-2.2415304 -1.2378819 -0.30841321 0
-2.1623223 -1.2538102 -0.30826807 0
-2.0603564 -1.2459902 -0.31013796 0
-1.9674656 -1.2482772 -0.31176704 0
-1.8509839 -1.2462174 -0.31330276 0
-1.7637917 -1.2470131 -0.31377038 0
-1.6548753 -1.2612901 -0.31541595 0
-1.5540619 -1.2432371 -0.31730828 0
-1.4337683 -1.2463903 -0.31795508 0
-1.3462402 -1.2471173 -0.31895509 0
-1.2512584 -1.2484322 -0.32160196 0
-1.1347309 -1.2467216 -0.32234269 0
-1.0547414 -1.2580594 -0.32245496 0
-0.95468324 -1.2488525 -0.32320854 0
-0.85075516 -1.244548 -0.32631406 0
-0.74079674 -1.2432983 -0.32729599 0
-0.64370811 -1.2564886 -0.32801536 0
-0.56320733 -1.265849 -0.32849842 0
-0.45468459 -1.2427934 -0.33140263 0
-0.34497175 -1.2542827 -0.3309513 0
-0.24624923 -1.2544911 -0.33358568 0
-0.15203336 -1.2473489 -0.33422074 0
-0.049291596 -1.2517009 -0.33572048 0
0.049361583 -1.2522401 -0.33589697 0
0.14897454 -1.256814 -0.33918887 0
0.24829918 -1.2450111 -0.34027088 0
0.35522619 -1.2565172 -0.34101874 0
0.44307357 -1.2481033 -0.34248042 0
0.55834186 -1.254707 -0.3447617 0
0.64105541 -1.2437768 -0.34615797 0
0.75938046 -1.264442 -0.3460466 0
0.85600513 -1.2386477 -0.34728959 0
0.9521786 -1.2587909 -0.3479344 0
1.0505481 -1.2528633 -0.34988156 0
1.1578662 -1.2553148 -0.35133463 0
1.2660533 -1.2616545 -0.35289019 0
1.3401178 -1.2412679 -0.35386336 0
1.4454634 -1.2529356 -0.35409623 0
1.5544927 -1.2382408 -0.35636052 0
1.6495025 -1.2570407 -0.35810015 0
1.7638249 -1.2471119 -0.35965863 0
1.8667715 -1.2718982 -0.3598505 0
1.9370574 -1.2484359 -0.36072865 0
2.0499856 -1.2464639 -0.36289796 0
2.1362734 -1.2299368 -0.36449888 0
2.2291355 -1.2413201 -0.36524007 0
2.342586 -1.2609487 -0.36671245 0
2.4507601 -1.2595719 -0.36888742 0
2.5266399 -1.245517 -0.36863637 0
2.6259396 -1.2480835 -0.37044382 0
2.7487397 -1.2442344 -0.37205422 0
-2.8184693 -1.1468327 -0.30046597 0
-2.7368214 -1.1595433 -0.30145288 0
-2.6179802 -1.1536866 -0.3031092 0
-2.5243351 -1.1558498 -0.30459234 0
-2.4248724 -1.152521 -0.30552879 0
-2.3255558 -1.1463209 -0.30633953 0
-2.2304859 -1.1346071 -0.30755657 0
-2.1521871 -1.1584432 -0.31019133 0
-2.0490229 -1.1475941 -0.31007713 0
-1.9392455 -1.1500078 -0.31146884 0
-1.8323445 -1.1442119 -0.31358179 0
-1.7415178 -1.1401997 -0.31529814 0
-1.6388687 -1.1412642 -0.3157416 0
-1.5499808 -1.1362008 -0.31625056 0
-1.4478792 -1.1468085 -0.3180514 0
-1.3659492 -1.1535752 -0.31973103 0
-1.2544128 -1.1440889 -0.31957749 0
-1.159716 -1.1577429 -0.32151705 0
-1.0531048 -1.151899 -0.32340303 0
-0.95018083 -1.147486 -0.32407522 0
-0.84637719 -1.1355556 -0.32543913 0
-0.7658639 -1.1581392 -0.32762244 0
-0.65117627 -1.148738 -0.32818714 0
-0.54388523 -1.1552069 -0.32958442 0
-0.44625971 -1.1561506 -0.33220154 0
-0.34484842 -1.1869937 -0.33127183 0
-0.29267833 -1.1973741 -0.33028048 0
0.45952436 -1.1897444 -0.34178668 0
0.54881388 -1.1654062 -0.34526518 0
0.64895976 -1.1365185 -0.34422624 0
0.75728613 -1.1477208 -0.34635442 0
0.85332304 -1.1449567 -0.34674907 0
0.95005441 -1.1655141 -0.34805131 0
1.0402534 -1.1377217 -0.34963462 0
1.1564349 -1.1605517 -0.35097694 0
1.2565942 -1.1572057 -0.35242063 0
1.3609698 -1.1527112 -0.35245863 0
1.442633 -1.1325804 -0.35526836 0
1.5298426 -1.1487237 -0.35686952 0
1.6305643 -1.1528856 -0.35807538 0
1.7272115 -1.1486282 -0.35810786 0
1.8400046 -1.1526258 -0.35957941 0
1.9504217 -1.1604476 -0.36153159 0
2.047636 -1.1402473 -0.36344251 0
2.1740451 -1.1501949 -0.36407626 0
2.2606635 -1.1345716 -0.36538357 0
2.3778374 -1.1510762 -0.36693248 0
2.4744539 -1.1544627 -0.36813602 0
2.572022 -1.1554343 -0.36962214 0
2.669672 -1.153658 -0.37072149 0
2.772527 -1.1512612 -0.37226212 0
2.8105822 -1.143616 -0.37257928 0
-2.7450604 -1.0488228 -0.30046934 0
-2.6508455 -1.056653 -0.30214626 0
-2.5605795 -1.0419595 -0.30329242 0
-2.4690733 -1.0461048 -0.30502644 0
-2.3710763 -1.0448828 -0.30612043 0
-2.272259 -1.0404136 -0.30788434 0
-2.1626246 -1.0469639 -0.30859965 0
-2.0663772 -1.0556303 -0.31010437 0
-1.9753194 -1.0450512 -0.31137872 0
-1.8627484 -1.0406994 -0.31248027 0
-1.729391 -1.0289813 -0.31400728 0
-1.6671669 -1.0576597 -0.31606513 0
-1.5528139 -1.0486267 -0.31693661 0
-1.4598192 -1.0479329 -0.31761092 0
-1.3451988 -1.0405294 -0.31934881 0
-1.2469282 -1.0574174 -0.31996879 0
-1.1336905 -1.0439749 -0.32130879 0
-1.0505927 -1.0415734 -0.32227889 0
-0.94506621 -1.0475199 -0.32449931 0
-0.8596251 -1.0555943 -0.32531872 0
-0.74605489 -1.0349125 -0.32789326 0
-0.6622591 -1.0523183 -0.32867992 0
-0.57664829 -1.0806209 -0.32823989 0
0.68827575 -1.0935204 -0.34621537 0
0.74807441 -1.0501111 -0.3456133 0
0.84692067 -1.0552493 -0.34712023 0
0.9468928 -1.0583278 -0.34905091 0
1.0576776 -1.0614573 -0.34924173 0
1.1370851 -1.0471553 -0.35099822 0
1.2438132 -1.0507063 -0.35111082 0
1.3411629 -1.0464556 -0.35364288 0
1.4655576 -1.0626262 -0.35588744 0
1.5330768 -1.039019 -0.35668796 0
1.6350285 -1.0440481 -0.35628128 0
1.7560142 -1.05146 -0.35899857 0
1.8583211 -1.0465695 -0.3606236 0
1.9566499 -1.053221 -0.36133629 0
2.0243547 -1.0473331 -0.36184725 0
2.1311941 -1.0505407 -0.36357903 0
2.2350895 -1.0427881 -0.3649168 0
2.3309329 -1.0471281 -0.36625519 0
2.4271014 -1.048834 -0.36740911 0
2.5285952 -1.049962 -0.36914334 0
2.6261847 -1.0467235 -0.36999002 0
2.7181528 -1.0609558 -0.37092477 0
2.8314843 -1.0447679 -0.37205386 0
-2.8000164 -0.9120037 -0.30073708 0
-2.7648368 -0.98893309 -0.30057108 0
-2.6793277 -0.95842856 -0.30117157 0
-2.5628998 -0.94425446 -0.30302909 0
-2.4350224 -0.9504692 -0.30488479 0
-2.3438823 -0.92767066 -0.30554223 0
-2.2911341 -0.97070807 -0.30660084 0
-2.1559954 -0.94980145 -0.30897534 0
-2.0372028 -0.95413959 -0.31074521 0
-1.9299358 -0.95144302 -0.31200963 0
-1.8348148 -0.9539324 -0.31328654 0
-1.7399145 -0.93653661 -0.31410101 0
-1.6461129 -0.94773245 -0.31544653 0
-1.5463941 -0.95354545 -0.31763944 0
-1.4415407 -0.95847344 -0.31822622 0
-1.3322933 -0.9420895 -0.31873533 0
-1.2471641 -0.95072514 -0.31999734 0
-1.1504328 -0.9515419 -0.32065409 0
-1.0440856 -0.94401228 -0.32348776 0
-0.95949769 -0.95829242 -0.32320988 0
-0.84502786 -0.94823182 -0.32624099 0
-0.76229471 -0.94984525 -0.32643425 0
0.85520536 -0.97648156 -0.3478778 0
0.9458577 -0.94925898 -0.34991369 0
1.0462964 -0.94979435 -0.34937578 0
1.1571319 -0.96150017 -0.34991282 0
1.2404335 -0.93290496 -0.35151219 0
1.3614591 -0.94807744 -0.35341012 0
1.464131 -0.95850259 -0.35469657 0
1.5604892 -0.95050055 -0.35569847 0
1.6670858 -0.94403416 -0.35757023 0
1.7487042 -0.95744091 -0.35801581 0
1.8533572 -0.9467625 -0.35972029 0
1.9401095 -0.95633012 -0.36086732 0
2.0636845 -0.96280968 -0.36263159 0
2.1527512 -0.93028498 -0.36374277 0
2.2737164 -0.96332192 -0.36546141 0
2.3624067 -0.94158959 -0.36710554 0
2.4735367 -0.94521928 -0.36768815 0
2.5667176 -0.93883127 -0.36868951 0
2.6545153 -0.94941342 -0.36996865 0
2.7454243 -0.95982581 -0.37097284 0
2.8523242 -0.95168078 -0.37247163 0
2.9008698 -0.92193592 -0.37373701 0
-2.8131118 -0.87193859 -0.30069843 0
-2.721874 -0.84373838 -0.30137378 0
-2.6236625 -0.85447234 -0.30248797 0
-2.5232167 -0.86193585 -0.30331555 0
-2.4381666 -0.8328802 -0.3043274 0
-2.3402631 -0.83083576 -0.30514374 0
-2.2540154 -0.80622131 -0.30670241 0
-2.1212666 -0.8987385 -0.30837354 0
-2.0438309 -0.8659305 -0.30918163 0
-1.9627887 -0.86501223 -0.31121659 0
-1.8540086 -0.83811325 -0.31281358 0
-1.765726 -0.85479867 -0.31424621 0
-1.6572708 -0.84666234 -0.31500006 0
-1.5652078 -0.84538615 -0.31692097 0
-1.4312769 -0.84774089 -0.31900528 0
-1.366439 -0.86118698 -0.31954002 0
-1.2498444 -0.84062523 -0.32008272 0
-1.143739 -0.84205687 -0.32225692 0
-1.0565736 -0.85994416 -0.32081375 0
-0.94325483 -0.84408534 -0.32354248 0
-0.86435938 -0.85521764 -0.32590762 0
0.97090536 -0.86869609 -0.34912863 0
1.0484504 -0.8475911 -0.35004312 0
1.1513312 -0.83897734 -0.35047919 0
1.2555269 -0.85275626 -0.35146067 0
1.3442328 -0.83609921 -0.35313833 0
1.4503864 -0.84886581 -0.35465908 0
1.5336494 -0.85401678 -0.35541335 0
1.6321862 -0.85085207 -0.35684952 0
1.7443229 -0.85239881 -0.35866317 0
1.8347509 -0.8559829 -0.35987508 0
1.9440002 -0.84688967 -0.3611052 0
2.0584888 -0.83760113 -0.36299908 0
2.1358612 -0.85128516 -0.36419106 0
2.2269309 -0.85099906 -0.3646777 0
2.3370965 -0.854846 -0.36534762 0
2.422585 -0.8276062 -0.36692578 0
2.5316596 -0.84469366 -0.36815351 0
2.6570234 -0.85856849 -0.36979628 0
2.7459192 -0.851363 -0.37190676 0
2.8480241 -0.83829367 -0.37336335 0
2.9243393 -0.86072809 -0.37430286 0
-2.7489789 -0.74542224 -0.30094123 0
-2.6540637 -0.740058 -0.30188271 0
-2.5609627 -0.75379235 -0.30342385 0
-2.4675984 -0.74559397 -0.30439973 0
-2.3729918 -0.74022126 -0.30603832 0
-2.2753022 -0.74120903 -0.30696762 0
-2.1714468 -0.74181306 -0.30846488 0
-2.0571713 -0.73581368 -0.30981487 0
-1.8122174 -0.78319734 -0.31269267 0
-1.654542 -0.77189016 -0.3151021 0
-1.5417418 -0.7599718 -0.31592989 0
-1.4399308 -0.74878865 -0.31749532 0
-1.3433437 -0.76068282 -0.31953183 0
-1.2361776 -0.73160636 -0.32055891 0
-1.1512582 -0.74527794 -0.32023102 0
-1.0469018 -0.75146121 -0.32291064 0
-0.94924206 -0.75610173 -0.32293001 0
1.0643288 -0.75258917 -0.34938291 0
1.1534381 -0.74352407 -0.35009307 0
1.2565215 -0.75118595 -0.35209647 0
1.3341503 -0.74290431 -0.35347036 0
1.4335027 -0.75571066 -0.35418302 0
1.5465447 -0.74867779 -0.35577211 0
1.6687659 -0.74965453 -0.35768247 0
1.7481947 -0.73591071 -0.35876513 0
1.8541572 -0.75447983 -0.35962057 0
1.9451313 -0.74325842 -0.36051223 0
2.0330155 -0.74354643 -0.36140713 0
2.1489754 -0.75130832 -0.3627618 0
2.2599585 -0.75404906 -0.36455956 0
2.3593094 -0.74973315 -0.36637333 0
2.4573023 -0.7423535 -0.36805177 0
2.5522513 -0.75123954 -0.36973318 0
2.6416328 -0.75704652 -0.37059295 0
2.7352688 -0.74165505 -0.37134162 0
2.8262451 -0.74466109 -0.37218326 0
2.9318235 -0.75007987 -0.373377 0
-2.876075 -0.67038804 -0.3009266 0
-2.7538993 -0.64189827 -0.3015449 0
-2.6394367 -0.63540316 -0.30301619 0
-2.5766134 -0.65924072 -0.3025102 0
-2.4398725 -0.65345377 -0.30495319 0
-2.3614969 -0.64958066 -0.30567956 0
-2.2502375 -0.64483786 -0.3069368 0
-2.1366096 -0.66230464 -0.30845463 0
-2.0376487 -0.64777678 -0.30994749 0
-1.9524182 -0.65152991 -0.31160444 0
-1.8731204 -0.63990623 -0.31352851 0
-1.4677457 -0.6847437 -0.31724301 0
-1.3437752 -0.65059197 -0.3186636 0
-1.2352123 -0.65346771 -0.32105982 0
-1.1489856 -0.63982499 -0.32124504 0
-1.0481064 -0.64982516 -0.32238901 0
-0.98984361 -0.6892935 -0.3232078 0
1.1445519 -0.64972824 -0.35026127 0
1.2485558 -0.65218461 -0.35222533 0
1.3703358 -0.6491158 -0.35295835 0
1.4629449 -0.65717572 -0.3540588 0
1.5454271 -0.6547963 -0.35521418 0
1.6415712 -0.65423554 -0.35633633 0
1.7277102 -0.64475036 -0.35731587 0
1.8499142 -0.64680547 -0.35865089 0
1.9700344 -0.63863844 -0.36098358 0
2.0649769 -0.65622872 -0.36219707 0
2.1673846 -0.66853774 -0.36356157 0
2.2384574 -0.64596725 -0.36579755 0
2.3642414 -0.65331912 -0.36696053 0
2.4686882 -0.63159657 -0.36799505 0
2.5752754 -0.65886736 -0.36923692 0
2.6670771 -0.64186287 -0.36999145 0
2.7560959 -0.64244264 -0.3709549 0
2.849817 -0.64276111 -0.37256694 0
2.9594707 -0.64525318 -0.37407351 0
-2.8868327 -0.58632433 -0.30037478 0
-2.7508533 -0.53829765 -0.30155379 0
-2.6544342 -0.55919528 -0.30268961 0
-2.5425992 -0.55444247 -0.30432838 0
-2.4191346 -0.55932713 -0.30554742 0
-2.3434114 -0.55530381 -0.3059234 0
-2.2368476 -0.55526751 -0.30777252 0
-2.150794 -0.55026001 -0.308855 0
-2.0659173 -0.54432148 -0.30966666 0
-1.947291 -0.5312444 -0.31115118 0
-1.8801798 -0.54175949 -0.31109187 0
-1.2390834 -0.58344859 -0.31900334 0
-1.1475387 -0.57380855 -0.32207811 0
-1.0679232 -0.55519581 -0.32260516 0
1.18786 -0.55437917 -0.35131478 0
1.2595044 -0.55498499 -0.35113713 0
1.3509438 -0.56426257 -0.35198781 0
1.4363104 -0.54735464 -0.35355005 0
1.5549866 -0.55639941 -0.3561025 0
1.6532178 -0.53851753 -0.35675612 0
1.7566342 -0.54067922 -0.35756862 0
1.8458743 -0.54331452 -0.35929856 0
1.9277076 -0.5524075 -0.3605206 0
2.0470231 -0.56145841 -0.36247396 0
2.1528015 -0.54439497 -0.36392885 0
2.2389348 -0.53883475 -0.36476183 0
2.3245633 -0.55944037 -0.36580777 0
2.4397845 -0.55028558 -0.3672089 0
2.5527906 -0.5569008 -0.36886382 0
2.6501441 -0.53827262 -0.37058893 0
2.7832921 -0.54460078 -0.37239614 0
2.8719749 -0.54060936 -0.37352687 0
2.9716957 -0.56679803 -0.37484315 0
3.0111651 -0.54453778 -0.37572092 0
-2.8102157 -0.4461585 -0.3003751 0
-2.7195776 -0.45173925 -0.30160722 0
-2.6255715 -0.45541522 -0.30275455 0
-2.5372384 -0.44009224 -0.30397618 0
-2.4403932 -0.45936605 -0.30575588 0
-2.3454511 -0.44139147 -0.30680832 0
-2.2526734 -0.45752946 -0.30722013 0
-2.1704338 -0.44082668 -0.3081471 0
-2.0630474 -0.44990399 -0.3097198 0
-1.9433303 -0.44967639 -0.31125832 0
-1.8609003 -0.44509083 -0.31227821 0
-1.7486159 -0.4532845 -0.31302017 0
-1.6395054 -0.43204322 -0.31388056 0
-1.5590099 -0.41677201 -0.31552967 0
1.2452077 -0.46554637 -0.35189945 0
1.3489203 -0.44541276 -0.35346863 0
1.4662789 -0.44630122 -0.35502577 0
1.5445431 -0.45457709 -0.35525528 0
1.6390381 -0.45965904 -0.35653618 0
1.7639984 -0.451323 -0.35787943 0
1.8436308 -0.43279809 -0.35924113 0
1.9551502 -0.45572996 -0.36073241 0
2.0438366 -0.44554833 -0.36210299 0
2.1301739 -0.44848204 -0.36337435 0
2.2429652 -0.44545713 -0.36496717 0
2.3503997 -0.45990455 -0.36654773 0
2.4415252 -0.44151643 -0.36733493 0
2.5282924 -0.45720848 -0.36846992 0
2.619103 -0.45431137 -0.36959273 0
2.7414806 -0.44717962 -0.37092656 0
2.8816619 -0.4574945 -0.37258255 0
2.9783278 -0.46200728 -0.37363949 0
3.0219946 -0.43553159 -0.37489706 0
-2.8208835 -0.32441729 -0.3000325 0
-2.7248995 -0.35298333 -0.30106032 0
-2.6358783 -0.34145212 -0.30214891 0
-2.5435567 -0.34805059 -0.30313709 0
-2.4488254 -0.35296199 -0.30457109 0
-2.354481 -0.33933032 -0.3056412 0
-2.2743084 -0.36114612 -0.30758116 0
-2.1500957 -0.34142959 -0.30909953 0
-2.0420935 -0.36200774 -0.31051451 0
-1.9281385 -0.34301952 -0.31151196 0
-1.845894 -0.36116919 -0.31219915 0
-1.7449093 -0.34141833 -0.31376436 0
-1.6626573 -0.35006782 -0.31432444 0
-1.5736647 -0.34637976 -0.31482205 0
-1.4555247 -0.33921573 -0.31672525 0
-1.3464149 -0.33719471 -0.31806073 0
-1.2552369 -0.31527141 -0.31836882 0
-1.150733 -0.30319807 -0.31886077 0
1.263646 -0.35227367 -0.35160819 0
1.3558404 -0.35600159 -0.35319072 0
1.4715754 -0.35089278 -0.35451227 0
1.5583639 -0.35145101 -0.35700169 0
1.6550461 -0.34847915 -0.35717669 0
1.7451309 -0.35714343 -0.35821971 0
1.8252972 -0.34268788 -0.35899571 0
1.9547873 -0.34382251 -0.360957 0
2.0613735 -0.34236407 -0.361709 0
2.1423509 -0.35581672 -0.36283386 0
2.2588718 -0.34206879 -0.36405981 0
2.3609028 -0.35752702 -0.36543584 0
2.4510629 -0.33532181 -0.36639479 0
2.5385129 -0.34728709 -0.36764666 0
2.6259625 -0.35925233 -0.36889848 0
2.7169213 -0.35192162 -0.37001008 0
2.8437345 -0.35604191 -0.37192354 0
2.9478652 -0.33927834 -0.37341747 0
3.0197551 -0.3400155 -0.37439212 0
-2.83108 -0.28459889 -0.30075973 0
-2.7370977 -0.25542676 -0.30127269 0
-2.6476865 -0.24708474 -0.3023361 0
-2.556669 -0.25704905 -0.30341247 0
-2.4673474 -0.2480704 -0.30449986 0
-2.2732897 -0.29446429 -0.30564266 0
-2.1488259 -0.27834225 -0.30729681 0
-2.0243073 -0.27697054 -0.30934495 0
-1.9412673 -0.26560831 -0.31033862 0
-1.8286333 -0.29030257 -0.31183073 0
-1.7523078 -0.27818558 -0.31283224 0
-1.6755018 -0.27831012 -0.31438583 0
-1.585363 -0.27492112 -0.31533962 0
-1.4541465 -0.26933426 -0.3172912 0
-1.341422 -0.26336852 -0.31892654 0
-1.2497185 -0.25059468 -0.32045263 0
-1.1727425 -0.2468456 -0.32121614 0
1.2902955 -0.25255066 -0.35236552 0
1.3615829 -0.24627423 -0.35313395 0
1.4481137 -0.25875989 -0.35406882 0
1.5295571 -0.25271177 -0.35559723 0
1.6582291 -0.23659626 -0.35691202 0
1.7460003 -0.25158378 -0.35769492 0
1.8263143 -0.24985778 -0.35868931 0
1.9384228 -0.25107461 -0.36007524 0
2.0573027 -0.244259 -0.36195746 0
2.1597676 -0.24835715 -0.36308816 0
2.2680831 -0.24439205 -0.36428836 0
2.3475204 -0.25295848 -0.36626023 0
2.4710553 -0.24844798 -0.3675738 0
2.5617332 -0.23902321 -0.36876014 0
2.6494331 -0.24720581 -0.369789 0
2.737133 -0.25538847 -0.37081787 0
2.824183 -0.24308771 -0.37154591 0
2.9389431 -0.26017639 -0.3728908 0
3.0256908 -0.25324804 -0.37398303 0
-2.8384404 -0.12195788 -0.30028653 0
-2.7422888 -0.15711413 -0.30083656 0
-2.6494844 -0.15181564 -0.30161533 0
-2.5599039 -0.14668167 -0.30272534 0
-2.4703231 -0.14154768 -0.30383539 0
1.3374753 -0.14927211 -0.35268906 0
1.4439691 -0.15558748 -0.35400611 0
1.5236101 -0.15317316 -0.35466614 0
1.6398548 -0.14759177 -0.35664782 0
1.7580478 -0.1513207 -0.35859931 0
1.8413907 -0.15845361 -0.35998347 0
1.9296454 -0.15215354 -0.36115256 0
2.0418866 -0.14857271 -0.36148539 0
2.1550345 -0.13904685 -0.36273363 0
2.2728274 -0.13725315 -0.36305171 0
2.35006 -0.16490182 -0.36550981 0
2.4685166 -0.15932739 -0.36633989 0
2.5510087 -0.14623496 -0.36686936 0
2.6392372 -0.15129164 -0.36825204 0
2.7274656 -0.15634835 -0.36963475 0
2.8201454 -0.14136 -0.37118277 0
2.9418659 -0.15607706 -0.37300786 0
3.0361307 -0.14147052 -0.37436789 0
-2.7404625 -0.078474358 -0.30025405 0
-2.6484761 -0.056894504 -0.3010447 0
-2.5587709 -0.0549681 -0.30214256 0
-2.4690657 -0.053041697 -0.30324039 0
1.3490936 -0.048286181 -0.35294825 0
1.4524704 -0.051991284 -0.35413519 0
1.5318011 -0.054850221 -0.35507283 0
1.6501477 -0.047250915 -0.35643727 0
1.7633647 -0.050483447 -0.35785559 0
1.843346 -0.04910896 -0.35901892 0
1.9274721 -0.055102468 -0.35989076 0
2.0533371 -0.044048384 -0.36188284 0
2.1762583 -0.046690907 -0.36336505 0
2.274055 -0.035649195 -0.36419159 0
2.342612 -0.059722867 -0.36565349 0
2.4794815 -0.053259015 -0.36707476 0
2.5675738 -0.055151209 -0.36815476 0
2.6556664 -0.0570434 -0.36923477 0
2.7437589 -0.058935594 -0.37031475 0
2.8332534 -0.040606707 -0.37133539 0
2.9213243 -0.041867509 -0.37237537 0
3.0267889 -0.043383755 -0.37362075 0
-2.6448798 0.037870202 -0.30052891 0
-2.5552111 0.036587179 -0.30165538 0
-2.4655426 0.035304155 -0.30278185 0
1.3503995 0.04838407 -0.35324878 0
1.4535029 0.052063942 -0.35421228 0
1.5317611 0.054819886 -0.35497376 0
1.6505077 0.047226667 -0.35673934 0
1.7641342 0.050490767 -0.35847157 0
1.846687 0.052924108 -0.35975149 0
1.931868 0.055391066 -0.36066586 0
2.0525215 0.044095088 -0.36191013 0
2.1756001 0.046742152 -0.3635343 0
2.2806225 0.039576113 -0.36425859 0
2.3534045 0.058608048 -0.36647376 0
2.4633338 0.061596002 -0.36761317 0
2.5696056 0.055276435 -0.36830732 0
2.6576395 0.057164911 -0.36932144 0
2.7456732 0.059053387 -0.37033555 0
2.8267314 0.040444721 -0.37084386 0
2.9148784 0.041705828 -0.37198621 0
3.022876 0.043232605 -0.37338781 0
-2.7400849 0.1767734 -0.30041754 0
-2.6466801 0.15179667 -0.30116022 0
-2.5571775 0.14666812 -0.30233547 0
-2.4676752 0.14153959 -0.3035107 0
1.2953223 0.16313265 -0.34989998 0
1.3523588 0.14032757 -0.35204408 0
1.4393432 0.15509604 -0.353441 0
1.5242447 0.15324916 -0.35520458 0
1.6402929 0.14766103 -0.35627457 0
1.7570736 0.15125427 -0.35743913 0
1.8348718 0.15793626 -0.35827795 0
1.9497502 0.15952107 -0.35969529 0
2.0557868 0.14473483 -0.36191669 0
2.1546328 0.13136055 -0.36278298 0
2.2752857 0.14677478 -0.36375377 0
2.3520019 0.1517351 -0.36558783 0
2.4714918 0.15946749 -0.36654595 0
2.5592556 0.14674616 -0.3675527 0
2.6472695 0.15178855 -0.36869287 0
2.7352836 0.15683094 -0.36983311 0
2.8314178 0.14189427 -0.37143597 0
2.9376063 0.14723335 -0.37284076 0
3.0306516 0.15187585 -0.37361872 0
-2.6347775 0.24583589 -0.30074042 0
-2.549552 0.25638622 -0.30245563 0
-2.4603558 0.24742047 -0.30363765 0
-2.2428513 0.29052156 -0.3069452 0
-2.1188829 0.27446368 -0.30911288 0
-2.0304446 0.27776843 -0.31012911 0
-1.9476447 0.26643842 -0.3113572 0
-1.8298249 0.29049173 -0.3113009 0
-1.7539272 0.27844268 -0.31264138 0
-1.6489611 0.26995003 -0.31414738 0
-1.5709131 0.28569022 -0.31463471 0
-1.4459455 0.26667756 -0.31737137 0
-1.3483487 0.26123956 -0.31959945 0
-1.2483257 0.25626442 -0.31921777 0
-1.1656477 0.24543351 -0.31927791 0
1.2889063 0.25208125 -0.35197598 0
1.3602798 0.24598663 -0.35252652 0
1.4580243 0.26122892 -0.35257781 0
1.5337086 0.24503079 -0.35454327 0
1.6660519 0.25214595 -0.35637158 0
1.7458353 0.25155565 -0.35755289 0
1.8261684 0.25323525 -0.35881609 0
1.9448214 0.24574457 -0.35971075 0
2.0717537 0.25328222 -0.36100659 0
2.1545515 0.24777716 -0.36221263 0
2.2693148 0.24449319 -0.36383802 0
2.3727763 0.25562942 -0.36511716 0
2.4603317 0.26506367 -0.36617228 0
2.5551233 0.23837055 -0.36768818 0
2.6427796 0.24654861 -0.36870351 0
2.7304361 0.25472665 -0.36971888 0
2.8219912 0.24294144 -0.37125623 0
2.953645 0.25427601 -0.37284395 0
3.0331235 0.26115879 -0.3738077 0
-2.7279437 0.35331929 -0.30079773 0
-2.6353862 0.34134197 -0.30177653 0
-2.5409222 0.3476705 -0.30269441 0
-2.4467649 0.35261774 -0.30408207 0
-2.3560355 0.33947527 -0.30526558 0
-2.2665262 0.35982454 -0.30606392 0
-2.1518695 0.34162802 -0.30769342 0
-2.0453713 0.35482565 -0.30874431 0
-1.9292734 0.34431309 -0.31091964 0
-1.8494776 0.35587651 -0.31226826 0
-1.7393796 0.34035659 -0.31316122 0
-1.6572411 0.34891406 -0.31355083 0
-1.5703179 0.3542119 -0.31469297 0
-1.4529634 0.34342688 -0.31724393 0
-1.3482816 0.34512496 -0.3192285 0
-1.2619874 0.31703007 -0.32005885 0
-1.1619189 0.30614537 -0.32196033 0
1.2630018 0.35226813 -0.35144159 0
1.3502426 0.35154766 -0.35083634 0
1.4621936 0.35341936 -0.35237575 0
1.5467043 0.34237653 -0.35415336 0
1.6426044 0.35813826 -0.35525626 0
1.7630546 0.356628 -0.35712388 0
1.8359369 0.3349044 -0.35846338 0
1.9656149 0.34370589 -0.36085758 0
2.0671833 0.34334564 -0.36214647 0
2.1478643 0.35674846 -0.36297679 0
2.2583025 0.34200215 -0.36384025 0
2.3594258 0.3573339 -0.36519763 0
2.444284 0.3522296 -0.3656925 0
2.5337596 0.34664425 -0.36676431 0
2.621134 0.35859928 -0.36796328 0
2.7409012 0.36183012 -0.36960396 0
2.8564134 0.34106895 -0.37053448 0
2.9801683 0.34270954 -0.37171263 0
3.0103159 0.34620935 -0.37206569 0
-2.7134888 0.43077675 -0.30068329 0
-2.6104567 0.45276871 -0.30100644 0
-2.5221083 0.4374437 -0.30215818 0
-2.4233093 0.45618966 -0.3029328 0
-2.3422577 0.44095969 -0.30430409 0
-2.2565968 0.45837489 -0.30621532 0
-2.1749156 0.44178605 -0.30764273 0
-2.0575688 0.44258428 -0.30995136 0
-1.9354423 0.45490059 -0.31129742 0
-1.8708464 0.46454889 -0.31155589 0
-1.7449636 0.44196984 -0.31286886 0
-1.6465973 0.43386087 -0.31499794 0
-1.5588824 0.42270803 -0.3159453 0
-1.4663424 0.40888619 -0.31746629 0
1.1927999 0.49532399 -0.34607092 0
1.2476094 0.45935377 -0.35128736 0
1.3480181 0.44509321 -0.35295776 0
1.4595298 0.4442203 -0.35304213 0
1.5388041 0.45290917 -0.35397625 0
1.6398802 0.45296267 -0.35523209 0
1.7731571 0.44204873 -0.35796618 0
1.8714118 0.45041037 -0.35920057 0
1.9529001 0.4552725 -0.35996616 0
2.035862 0.44391558 -0.36057717 0
2.1506124 0.45942545 -0.36215883 0
2.2439327 0.43490568 -0.3635757 0
2.3396952 0.45776019 -0.36470249 0
2.4369686 0.44062123 -0.36642703 0
2.5236061 0.45628819 -0.36745477 0
2.6440411 0.46524599 -0.36919656 0
2.7503071 0.43667561 -0.37073791 0
2.8809791 0.45741886 -0.37251168 0
2.9698498 0.44976309 -0.37348971 0
3.0119991 0.45611873 -0.37406838 0
-2.681102 0.58461523 -0.30066776 0
-2.550004 0.53696775 -0.30186972 0
-2.421536 0.55989057 -0.30369809 0
-2.3532672 0.5557825 -0.30468345 0
-2.231144 0.55384684 -0.3069723 0
-2.1478801 0.54957014 -0.3080802 0
-2.0646403 0.5440132 -0.30943096 0
-1.9452816 0.54245478 -0.31128013 0
-1.8737482 0.55158812 -0.31133416 0
-1.7934005 0.50008559 -0.31393129 0
-1.2513256 0.58742315 -0.31914663 0
-1.1474725 0.56889153 -0.31948486 0
-1.0609714 0.55172223 -0.32052216 0
1.187248 0.55398476 -0.35112101 0
1.2611351 0.54509479 -0.3509793 0
1.3487867 0.56342006 -0.3529515 0
1.4358804 0.54714042 -0.35475501 0
1.5552151 0.54350746 -0.355315 0
1.672979 0.54491389 -0.35607043 0
1.7507945 0.54398149 -0.35680303 0
1.8412776 0.54195946 -0.35824031 0
1.9407549 0.55614823 -0.35931361 0
2.0539765 0.55715382 -0.36129165 0
2.1527476 0.54437673 -0.36244005 0
2.2251627 0.5523116 -0.36317128 0
2.3164952 0.55745167 -0.36455128 0
2.4434543 0.55864686 -0.36613625 0
2.5683713 0.54081273 -0.3674289 0
2.6794167 0.54420161 -0.36849976 0
2.7715864 0.54226398 -0.36980924 0
2.8579648 0.55916476 -0.37083057 0
2.9639018 0.55789387 -0.37203383 0
-2.667182 0.64184719 -0.30035177 0
-2.5629516 0.64583385 -0.30298579 0
-2.4479887 0.64501542 -0.30477977 0
-2.3629048 0.66314507 -0.30504557 0
-2.2389657 0.64753395 -0.30641863 0
-2.134779 0.66171509 -0.3079114 0
-2.0327516 0.64608765 -0.30928606 0
-1.939563 0.64708114 -0.3097136 0
-1.8526425 0.64764017 -0.31088161 0
-1.5640948 0.68924332 -0.31612638 0
-1.4654572 0.67822498 -0.31547931 0
-1.3471702 0.64721221 -0.31747219 0
-1.2381942 0.64377266 -0.31887597 0
-1.1622571 0.66017431 -0.31848606 0
-1.0522544 0.64642131 -0.32175627 0
-0.98796773 0.68805468 -0.32260564 0
1.1394359 0.64532614 -0.35098043 0
1.238767 0.65147334 -0.35173932 0
1.3698494 0.6550656 -0.35412583 0
1.4528971 0.63620687 -0.35499308 0
1.5568902 0.64650261 -0.35560486 0
1.6356754 0.65195024 -0.35622957 0
1.7255676 0.64530391 -0.35670537 0
1.8467952 0.64570242 -0.35802546 0
1.9651182 0.63697809 -0.35988826 0
2.0647142 0.65619749 -0.36170778 0
2.171145 0.66576052 -0.36258492 0
2.2566769 0.6467098 -0.36407179 0
2.3833508 0.64626318 -0.36543596 0
2.4706557 0.65094471 -0.36611468 0
2.5619855 0.65542221 -0.36737755 0
2.6591263 0.63990378 -0.36899278 0
2.7447841 0.6605168 -0.37010315 0
2.8357365 0.66097796 -0.37119359 0
2.9485056 0.64293063 -0.37252721 0
-2.7619236 0.72771871 -0.30056104 0
-2.6518195 0.73935527 -0.30110839 0
-2.5509512 0.75088006 -0.30207601 0
-2.4614358 0.74369836 -0.30348638 0
-2.3616424 0.75855285 -0.30559993 0
-2.258182 0.75338829 -0.30624363 0
-2.1563859 0.73657286 -0.30747181 0
-2.0727661 0.75821781 -0.30733055 0
-1.9569633 0.73799169 -0.30874187 0
-1.8272309 0.76385516 -0.31133506 0
-1.7409351 0.76717079 -0.3134082 0
-1.6429037 0.75807327 -0.31372851 0
-1.5416982 0.74920386 -0.31440017 0
-1.4350468 0.7462135 -0.31666079 0
-1.3322278 0.75441718 -0.31711715 0
-1.2480415 0.74261695 -0.31811988 0
-1.1541533 0.74565363 -0.3193886 0
-1.0500637 0.74990964 -0.32112005 0
-0.95028579 0.75707567 -0.32344145 0
1.0597895 0.74936932 -0.34789124 0
1.1484691 0.74925143 -0.34976727 0
1.2527962 0.74955106 -0.35217977 0
1.3335243 0.74760121 -0.35247403 0
1.449422 0.75356174 -0.35402009 0
1.5582039 0.74895632 -0.35490072 0
1.6641896 0.74756813 -0.35594833 0
1.7631807 0.74700361 -0.35728842 0
1.8500133 0.75273204 -0.35820717 0
1.9387782 0.7566973 -0.35954157 0
2.0288208 0.74213886 -0.35988095 0
2.1455889 0.75009269 -0.36217108 0
2.2551661 0.75235599 -0.36365518 0
2.3540242 0.74820632 -0.36519316 0
2.4473894 0.73937225 -0.36623165 0
2.538713 0.7471925 -0.36740154 0
2.6263778 0.75265759 -0.36814365 0
2.7178814 0.7579093 -0.36968699 0
2.8367994 0.75480348 -0.3705968 0
2.9257302 0.73963356 -0.37208945 0
-2.7142863 0.86267656 -0.30076417 0
-2.6200697 0.8533718 -0.30178025 0
-2.5217803 0.86143422 -0.30293718 0
-2.4368441 0.83241814 -0.30405959 0
-2.3300545 0.83811182 -0.30482268 0
-2.2363665 0.87288499 -0.30600536 0
-2.1392763 0.83499074 -0.30701372 0
-2.0481205 0.8506186 -0.30867407 0
-1.9641234 0.84889406 -0.3104018 0
-1.8502574 0.83635837 -0.31214455 0
-1.7563155 0.85970175 -0.31239027 0
-1.6507552 0.8583746 -0.31357926 0
-1.5612545 0.83756304 -0.31535667 0
-1.4441857 0.83926445 -0.31595984 0
-1.3589107 0.86213833 -0.31569165 0
-1.2562534 0.84658366 -0.31788424 0
-1.1402767 0.83865303 -0.3202534 0
-1.054119 0.86474806 -0.32209331 0
-0.94113445 0.84480935 -0.32457703 0
