# .PCD v0.7 - Point Cloud Data file format
VERSION 0.7
FIELDS x y z intensity
SIZE 4 4 4 4
TYPE F F F F
COUNT 1 1 1 1
WIDTH 1399
HEIGHT 1
VIEWPOINT 0 0 0 1 0 0 0
POINTS 1399
DATA ascii
-45.282276 -14.061762 2.4793384 9
-45.293098 -13.356231 2.4694839 9
-45.327293 -12.662852 2.4614861 9
-45.329609 -11.965614 2.4523294 9
-45.362286 -11.281117 2.4453785 9
-45.401325 -10.602036 2.4393182 9
-45.420067 -9.9219322 2.4327083 9
-45.446587 -9.2471237 2.4270508 9
-45.564442 -5.9126682 2.4057837 9
-45.284458 -13.353762 4.1252027 10
-45.307606 -12.65743 4.1106496 10
-45.32325 -11.964008 4.0963731 10
-45.353691 -11.279051 4.0843735 10
-45.389278 -10.59929 4.0737567 10
-45.408867 -9.9195509 4.0626111 10
-45.43924 -9.2456932 4.0533276 10
-45.563805 -5.9126296 4.0175405 10
-45.586704 -5.2521677 4.0127611 10
-44.802433 -26.279869 0.89528048 8
-44.843422 -25.446924 0.88904637 8
-44.852764 -24.608894 0.88247287 8
-44.907104 -23.807543 0.87706017 8
-44.923206 -22.997156 0.87116915 8
-44.953609 -22.205179 0.86581743 8
-45.005821 -21.43387 0.86113536 8
-45.029957 -20.658651 0.85615939 8
-45.080513 -19.137016 0.84696317 8
-45.11731 -18.393785 0.84292269 8
-45.146233 -17.655058 0.83895558 8
-45.178753 -16.925091 0.83526987 8
-44.896847 -23.802187 2.6529403 9
-44.921204 -22.996214 2.6349506 9
-44.951973 -22.204454 2.618135 9
-45.01239 -20.650675 2.5867307 9
-45.046165 -19.889458 2.5723367 9
-45.066032 -19.13096 2.5578599 9
-45.094421 -18.384539 2.544559 9
-45.125591 -17.647072 2.5320902 9
-45.151409 -16.91493 2.519978 9
-45.190674 -16.194695 2.5092564 9
-45.196438 -15.469236 2.4973061 9
-44.732025 -27.992537 0.90887237 8
-44.779751 -27.136856 0.90217608 8
-37.605095 -6.5347562 0.66381824 8
-37.633434 -5.9851627 0.66295052 8
-37.659313 -5.4369016 0.66217667 8
-37.631016 -5.9848213 1.9947177 9
-37.643181 -5.4346113 1.991241 9
-37.611107 -5.9816976 3.3296435 10
-37.626442 -5.4322357 3.323981 10
-37.591831 -6.5324979 1.9971827 9
-37.59507 -6.5331073 3.335954 10
-23.322603 15.545006 0.4911567 8
-23.312714 15.538689 1.4702798 9
-23.066517 15.856684 0.49045318 8
-22.941988 16.260382 0.49265859 8
-23.062334 15.854095 1.4686297 9
-22.9384 16.258139 1.4753793 9
-21.220533 10.10732 0.4120647 8
-21.208609 10.101795 1.2329838 9
-21.205967 10.100689 2.0568979 10
-21.152929 8.6246099 0.40043589 8
-21.196598 9.3599577 0.40620643 8
-21.199202 9.7267113 0.40889558 8
-21.154882 8.6255293 1.199046 9
-21.178108 9.3519316 1.215099 9
-21.196077 9.7254229 1.224016 9
-21.155025 8.6257114 2.0005682 10
-21.17078 8.9883051 2.0140593 10
-21.194426 9.7248125 2.0420344 10
-20.264099 -48.579086 8.3132381 12
-19.436947 -48.543049 8.2584467 12
-18.620716 -48.50824 8.2061834 12
-17.820326 -48.490891 6.3202057 11
-17.821592 -48.492943 8.1594601 12
-17.023184 -48.456097 6.2831497 11
-17.023285 -48.45491 8.1110992 12
-16.238701 -48.432274 6.249177 11
-16.237907 -48.428314 8.0667963 12
-15.459582 -48.399616 6.2156811 11
-15.459543 -48.397797 8.0239258 12
-14.905868 1.9342988 0.26289111 8
-14.922066 2.2639081 0.26405832 8
-14.940845 2.5964394 0.26538283 8
-14.949432 2.9306359 0.26666844 8
-14.972684 3.2709203 0.2683323 8
-14.901082 1.933699 0.78802413 9
-14.926064 2.2645326 0.7918393 9
-14.918514 2.5925884 0.79426736 9
-14.95226 2.8198981 0.79818219 9
-14.944156 3.0408974 0.80004066 9
-14.951945 3.2664287 0.80292612 9
-14.919936 1.9361675 1.3168333 10
-14.908102 2.2617979 1.3198956 10
-14.931003 2.594789 1.3266007 10
-14.947006 2.9303191 1.3334264 10
-14.957988 3.2677879 1.3403975 10
-14.685101 -48.357574 4.3989658 10
-14.687094 -48.362339 6.1831818 11
-14.686677 -48.359135 7.9817548 12
-14.693365 -48.379314 9.8047905 13
-13.927049 -48.343246 4.3790226 10
-13.92753 -48.342968 6.1545196 11
-13.923286 -48.324268 9.7521582 13
-13.208698 -0.94854563 -0.23148021 7
-13.257172 3.4745161e-05 -0.23142208 7
-13.280193 0.95371598 -0.23214495 7
-13.229857 1.9100547 -0.23282644 7
-12.953996 -2.8295622 -0.23248281 7
-13.114076 -1.8931916 -0.23194985 7
-13.15666 2.874171 -0.23437369 7
-13.019205 3.8394265 -0.23608339 7
-12.852954 4.8155308 -0.23863102 7
-13.170493 -48.310047 4.3584447 10
-13.170274 -48.307129 6.1252737 11
-12.822894 30.768021 6.4746237 13
-13.168513 -48.298538 7.9061346 12
-12.826974 30.779284 7.6936393 14
-12.824096 30.77389 8.9284639 15
-13.169416 -48.299698 9.7080908 13
-12.509165 -4.6857743 -0.23501033 7
-12.75528 -3.7609923 -0.23355298 7
-12.598639 5.7807088 -0.24095802 7
-12.41895 -48.269733 4.3382912 10
-12.425295 -48.292126 6.1001511 11
-12.423408 -48.282463 7.8735361 12
-12.425349 -48.287693 9.6688776 13
-12.21968 -5.6054311 -0.23694342 7
-12.326847 6.7643299 -0.24444158 7
-12.319069 30.79561 6.4422889 13
-12.315401 30.787977 7.6505704 14
-12.31592 30.790844 8.8809118 15
-11.876801 -6.5154276 -0.23917721 7
-11.97902 7.7389369 -0.24800935 7
-11.68224 -48.26564 2.5804567 9
-11.681298 -48.25927 4.3218565 10
-11.681431 -48.257328 6.0739813 11
-11.806887 30.788465 6.4044099 13
-11.68212 -48.257656 7.8413806 12
-11.817026 30.816498 7.6144519 14
-11.819395 30.824305 8.8404455 15
-11.679701 -48.245132 9.6258488 13
-11.480084 -7.4139996 -0.24171361 7
-11.561197 8.70333 -0.25179926 7
-11.222992 -1.8261105 1.3954897 11
-11.289276 -1.3827791 1.3959913 11
-11.314862 -1.0166178 1.3945819 11
-11.351027 -0.57013643 1.3952953 11
-11.367357 -0.24451974 1.3959885 11
-11.369532 0.20377904 1.3963797 11
-11.336834 0.56940025 1.3939565 11
-11.311886 1.0164042 1.3949391 11
-11.259789 1.3791912 1.3933243 11
-11.222267 1.7025377 1.3942416 11
-11.314189 30.818584 6.375958 13
-11.319631 30.83506 7.5778313 14
-11.315905 30.826614 8.7933369 15
-11.048098 -8.3136568 -0.24497931 7
-11.086455 9.6649303 -0.25613329 7
-10.993799 -2.9017994 1.3948716 11
-11.071518 -2.6271152 1.3961573 11
-11.169278 -2.1893268 1.3966475 11
-11.178546 1.9427021 1.3937067 11
-11.123716 2.1805882 1.392491 11
-11.018248 2.6148505 1.3912812 11
-10.906134 3.005084 1.3899218 11
-10.944834 -48.232918 2.5700629 9
-10.945385 -48.232647 4.304987 10
-10.871881 30.979965 6.3761196 13
-10.861137 30.951105 7.5669732 14
-10.946245 -48.23098 7.8107586 12
-10.846992 30.912582 8.7722569 15
-10.945643 -48.225567 9.5896711 13
-10.545824 -9.1892424 -0.24824525 7
-10.579467 10.649791 -0.26170331 7
-10.77065 3.4299798 1.3888316 11
-10.627059 3.808851 1.3871503 11
-10.467756 4.1811419 1.3850321 11
-10.000414 -10.061354 -0.25215837 7
-10.314176 4.5550141 1.3855262 11
-10.07091 5.0207152 1.3828236 11
-10.212146 -48.195488 2.5600226 9
-10.214485 -48.200623 6.0275316 11
-10.214821 -48.1992 7.7811236 12
-10.213273 -48.188866 9.5523071 13
-9.9916506 11.615724 -0.26746967 7
-9.8538771 5.407721 1.3812441 11
-9.6688404 5.6730347 1.3774593 11
-9.3991613 -10.919971 -0.25648001 7
-9.3296738 12.56565 -0.273637 7
-9.4901085 -48.187439 0.83556628 8
-9.5440521 5.8793945 1.3774068 11
-9.342411 6.1796103 1.3764081 11
-9.4874229 -48.170555 2.551239 9
-9.4871683 -48.166016 4.2730498 10
-9.4878263 -48.166092 6.00562 11
-8.9956017 6.6223903 1.3725445 11
-8.8143053 6.8365927 1.3705016 11
-8.7396641 -11.762292 -0.2611993 7
-8.6055937 13.516229 -0.28065929 7
-8.7661476 -48.141777 0.83254629 8
-8.424839 -2.0949557 1.3740605 12
-8.4897623 -1.7907898 1.3736196 12
-8.5706444 -1.3945657 1.374801 12
-8.6328764 -1.0259641 1.3765935 12
-8.6632462 -0.59095794 1.3751571 12
-8.671649 -0.21768798 1.3738847 12
-8.6799507 0.18669033 1.37532 12
-8.6501884 0.59002358 1.3735379 12
-8.6119709 1.0234997 1.3740443 12
-8.5462303 1.3906839 1.3719479 12
-8.4722233 1.7873987 1.372147 12
-8.6029959 7.0769939 1.3686877 11
-8.768795 -48.152744 2.5434155 9
-8.7681131 -48.145401 4.2596731 10
-8.7667198 -48.134136 5.9853945 11
-8.7686205 -48.140934 7.7280283 12
-8.7677193 -48.132305 9.487443 13
-8.0149183 -12.577599 -0.26614928 7
-8.0509844 -48.118397 0.83010608 8
-8.2059145 -2.8082225 1.3723897 12
-8.2798843 -2.6035872 1.373614 12
-8.3796005 -2.2760713 1.3742927 12
-8.3733444 2.1785407 1.3711149 12
-8.2203951 2.6612158 1.3694243 12
-8.0943584 2.999831 1.3681371 12
-8.274312 7.4259295 1.3658986 11
-8.0525656 7.6552711 1.3648329 11
-8.0541239 -48.13319 2.5360713 9
-8.0501051 -48.105179 4.2455182 10
-8.0523672 -48.114677 5.9680595 11
-8.0535183 -48.117504 7.7049985 12
-8.0509119 -48.097847 9.4569883 13
-7.8003058 14.44096 -0.28806755 7
-7.9098902 3.4257741 1.3662879 12
-7.7394447 3.789557 1.3658431 12
-7.8194089 7.8728452 1.3630562 11
-7.3398561 -48.094669 0.82785159 8
-7.5289426 4.1555638 1.3630966 12
-7.2607346 4.5815878 1.3607626 12
-7.3891249 8.2268085 1.3582768 11
-7.3422642 -48.105995 2.5288908 9
-7.340632 -48.090832 4.2345901 10
-7.3431182 -48.102627 5.9529591 11
-7.3417616 -48.089203 7.6828899 12
-7.3414044 -48.082279 9.4323359 13
-7.0978074 -13.126793 -0.26655874 7
-6.9312983 15.374537 -0.2966558 7
-6.8619175 -1.4474102 1.3626544 13
-6.9389553 -1.0270239 1.3632916 13
-6.9852948 -0.55193245 1.3620018 13
-7.0023685 -0.20093271 1.3616782 13
-7.0026302 0.15055656 1.3617136 13
-6.9750261 0.57635182 1.3609282 13
-6.9155083 1.0491244 1.3601786 13
-6.8442593 1.4440086 1.3603592 13
-7.1369534 4.7581191 1.3594195 12
-6.9541388 5.005332 1.35806 12
-6.9449496 8.5602293 1.3537159 11
-6.6300035 -48.052753 0.82547414 8
-6.5035114 -2.5965691 1.3600508 13
-6.6298714 -2.2509575 1.3600072 13
-6.7531853 -1.8341855 1.359522 13
-6.7445841 1.8324125 1.3593254 13
-6.6078243 2.2445238 1.3573705 13
-6.4739885 2.5862069 1.356048 13
-6.6175098 5.4177623 1.355466 12
-6.4459639 5.6208882 1.3552669 12
-6.6928172 8.7513609 1.3527752 11
-6.486691 8.8710423 1.3493209 11
-6.631846 -48.061092 2.5213397 9
-6.6335421 -48.068344 4.2238717 10
-6.633235 -48.061028 5.9355063 11
-6.6313901 -48.04253 7.6595349 12
-6.6327128 -48.046947 9.4058657 13
-6.2532277 3.0527356 1.3536757 13
-6.0682621 3.3876274 1.3519092 13
-6.2210221 5.8303285 1.3511845 12
-6.2936544 9.0076532 1.349045 11
-5.8274136 -12.909188 -0.25318 7
-5.970799 16.264215 -0.30549902 7
-5.9291148 -48.051105 0.82397562 8
-5.6290917 -1.6596202 1.3539962 14
-5.68893 -1.3930136 1.351739 14
-5.7862515 -0.94844991 1.3534459 14
-5.8354635 -0.60884249 1.3545063 14
-5.8508987 -0.20990644 1.3517188 14
-5.8588734 0.18904649 1.3536884 14
-5.8258452 0.60793996 1.3528415 14
-5.7702551 0.9815743 1.3519849 14
-5.6791801 1.3909856 1.3507136 14
-5.6022367 1.6523961 1.349079 14
-5.8331923 3.7494867 1.3491336 13
-5.6074638 4.0978932 1.3508055 13
-5.8434958 6.1721911 1.3469737 12
-5.9269147 -48.027512 2.5149395 9
-5.9274611 -48.026173 4.2123461 10
-5.9291687 -48.034222 5.9211726 11
-5.9299064 -48.034355 7.6439791 12
-5.9288278 -48.019703 9.3830204 13
-5.2185268 -1.9544227 -0.29274184 6
-5.331172 -1.5716884 -0.29182404 6
-5.4286289 -1.185632 -0.29159957 6
-5.4994092 -0.79383337 -0.29144967 6
-5.552052 -0.39867616 -0.29184228 6
-5.5512204 0.19916409 -0.29125848 6
-5.5031271 0.79451686 -0.29122129 6
-5.4522977 1.1911365 -0.29224101 6
-5.3672132 1.582918 -0.29297492 6
-5.272584 1.9756305 -0.29477221 6
-5.2259536 -48.005379 0.82190692 8
-5.2452145 -2.5899925 1.3492777 14
-5.4211674 -2.2096412 1.3505651 14
-5.5712576 -1.8176442 1.3521544 14
-5.5603414 1.814835 1.3511925 14
-5.4037247 2.2037668 1.3482747 14
-5.2593322 2.5056872 1.3458499 14
-5.491035 4.2282581 1.347981 13
-5.2808452 4.4734936 1.3460975 13
-5.3603292 6.5759854 1.3441272 12
-5.2279558 -48.017136 2.5103006 9
-5.2277765 -48.008808 4.2039075 10
-5.2272596 -47.997353 5.9068766 11
-5.2289476 -48.006096 7.6268649 12
-5.2299695 -48.008636 9.365345 13
-4.9268265 -2.7020776 -0.29552302 6
-5.0810151 -2.3302498 -0.29381773 6
-5.1254711 2.3520517 -0.29523176 6
-4.9868636 2.7369792 -0.29782715 6
-4.8032889 3.1037557 -0.2994549 6
-5.1845927 -2.7476819 1.3531244 14
-4.8406515 -1.370784 1.3475277 15
-4.920207 -1.0194318 1.346058 15
-4.993679 -0.58725893 1.347268 15
-5.0226097 -0.19825651 1.3470168 15
-5.0226812 0.18002647 1.3471729 15
-4.9876442 0.58670563 1.3462527 15
-4.9244843 0.98386168 1.3463125 15
-4.8310556 1.3500288 1.3448333 15
-5.145947 2.7292907 1.3456879 14
-4.9884124 2.9999211 1.3449726 14
-4.839819 3.2271602 1.3437881 14
-5.0728502 4.6868429 1.3432328 13
-4.8669243 4.9014144 1.3433031 13
-5.0879984 6.7538466 1.3394375 12
-4.8905721 6.8949952 1.3389238 12
-4.6835647 -12.736586 -0.24270041 7
-4.5273771 -3.4056487 -0.2982842 6
-4.7313871 -3.0546718 -0.29635465 6
-4.5893822 3.4557767 -0.30089349 6
-4.5221353 -7.9465299 0.47542948 9
-4.5133882 -2.1884975 1.3431048 15
-4.6849833 -1.7928897 1.3434494 15
-4.7772732 -1.5585681 1.3455448 15
-4.7777777 1.5217453 1.3442361 15
-4.6756487 1.7906319 1.3426769 15
-4.5003176 2.1837585 1.3415139 15
-4.670722 3.4478147 1.3413838 14
-4.4742112 3.6815937 1.3385342 14
-4.6190825 5.1073265 1.3391174 13
-4.4497766 5.2512703 1.3383532 13
-4.6152053 7.0643516 1.3365171 12
-4.0265355 -4.0491781 -0.30097717 6
-4.2782063 -3.7263622 -0.2988781 6
-4.3748527 3.8150492 -0.30411109 6
-4.092494 4.1212125 -0.30440542 6
-4.2008958 -7.9683728 0.4683612 9
-4.3873057 -2.4472177 1.3446285 15
-4.2621188 2.5947978 1.3386101 15
-4.0715532 2.887176 1.3383341 15
-4.2847385 3.9026151 1.3388909 14
-4.0771956 4.1065373 1.3367006 14
-4.192451 5.4429779 1.3360139 13
-4.1537867 7.313798 1.3319426 12
-3.6295784 -12.587947 -0.23436323 7
-3.747031 -4.350944 -0.30279005 6
-3.8304155 4.4549742 -0.30807313 6
-3.6858797 -8.0072355 0.45822406 9
-3.8909461 -7.9961457 0.46228123 9
-3.6657798 -4.0175304 1.0549369 13
-3.7820592 -3.970072 1.0636574 13
-3.9353278 3.0534022 1.3356321 15
-3.7035265 3.3250809 1.3347728 15
-3.8274786 4.3253946 1.3341204 14
-3.6618266 4.4501114 1.3309717 14
-3.8005605 5.6988034 1.3316998 13
-3.8018892 7.486824 1.3293958 12
-3.452529 -4.6436424 -0.30526924 6
-3.249917 -1.3517791 -0.30855706 5
-3.3663561 -0.99228126 -0.3073265 5
-3.4476452 -0.62465584 -0.30690062 5
-3.4934835 -0.25083807 -0.30648774 5
-3.5126705 0.12601469 -0.30769503 5
-3.4618194 0.62797195 -0.3079195 5
-3.3829923 0.99778771 -0.3084625 5
-3.2717643 1.3619845 -0.3101427 5
-3.5315793 4.7590108 -0.31091213 6
-3.2128463 5.0494289 -0.31418163 6
-3.2785368 -8.0117359 0.44995192 9
-3.4751093 -7.9978929 0.45326969 9
-3.4656646 -6.6681914 0.65434837 10
-3.2094085 -4.8768501 0.92213035 12
-3.3997002 -4.1215062 1.0365561 13
-3.2011838 -3.6104591 1.1118755 14
-3.4164207 -3.5087917 1.1288006 14
-3.5032048 3.5288899 1.3331413 15
-3.3400333 3.6676095 1.3299755 15
-3.4192905 4.6318388 1.3297894 14
-3.4153798 5.9158535 1.3278077 13
-3.2432227 6.0096531 1.3271201 13
-3.5543296 7.5973024 1.3276807 12
-3.3553669 7.6678009 1.3248221 12
-3.1350415 -4.9160552 -0.30771893 6
-2.8386934 -2.1346123 -0.31148693 5
-3.0318444 -1.8061944 -0.30955467 5
-3.0614209 1.8270646 -0.31205451 5
-2.8652806 2.1580782 -0.31384313 5
-2.8703809 5.318193 -0.31746551 6
-2.9719746 9.0963173 0.16512187 8
-2.9822886 -8.015027 0.4445048 9
-2.9767132 -6.7153759 0.63953441 10
-2.8440762 -5.7371244 0.78342783 11
-2.973459 9.1015968 0.49995726 9
-2.9943001 -4.9242749 0.91036189 12
-3.003242 -4.256434 1.0104574 13
-3.0663815 -3.6643288 1.1010332 14
-2.9505196 9.1057949 0.94806093 10.333333
-3.0442321 3.9247549 1.3317211 15
-3.0840139 4.8484678 1.3268657 14
-3.0705187 6.1023979 1.3274703 13
-2.9706433 9.0946426 1.5136805 12
-3.0420027 9.0925112 1.8620819 13
-2.9021451 9.1072521 2.2050779 14
-2.9012551 9.1050329 2.5589108 15
-2.6392505 -12.439435 -0.227488 7
-2.4389901 -5.3974299 -0.31278157 6
-2.798805 -5.1715808 -0.31044886 6
-2.5217931 -2.5347893 -0.31376782 5
-2.688122 -2.3404388 -0.31267902 5
-2.4710445 -0.63300097 -0.31352282 4
-2.5433602 -0.27413958 -0.31433925 4
-2.5455194 0.22867444 -0.31434917 4
-2.4819121 0.63620293 -0.31477472 4
-2.4102712 0.90329731 -0.31604245 4
-2.7146831 2.3680351 -0.31524813 5
-2.5484715 2.5672836 -0.31664449 5
-2.5022492 5.5557661 -0.32032418 6
-2.6158938 9.0999517 -0.16745844 7
-2.5507574 9.1190815 0.16311751 8
-2.6957552 -8.028923 0.44016954 9
-2.5198913 -7.8768554 0.71987832 10
-2.7084265 -6.7547922 0.63350749 10
-2.6611357 -5.7781768 0.77828383 11
-2.548455 9.1117182 0.49374977 9
-2.5740864 -6.6955724 0.87755036 11
-2.6087477 -5.773088 1.000487 12
-2.6708264 -5.0198665 0.96613282 12.333333
-2.7634401 -4.3323131 0.99648803 13
-2.5834613 9.110836 0.99369323 10.5
-2.5849931 9.1170979 1.4990776 12
-2.5850368 9.1179438 1.8404124 13
-2.5839653 9.1148033 2.1855109 14
-2.5849571 9.1196737 2.538193 15
-2.0575328 -5.5883965 -0.3145467 6
-2.1546512 -2.8961689 -0.31694564 5
-2.3440213 -2.7203372 -0.31520632 5
-2.1625648 -1.3958554 -0.31694657 4
-2.3619528 -0.9820897 -0.3145012 4
-2.0036139 -0.28913212 -0.32064211 3
-2.3423321 1.07516 -0.31647518 4
-2.1922688 1.3628068 -0.31759852 4
-2.3673549 2.7545676 -0.31802255 5
-2.1759176 2.9337282 -0.31992418 5
-2.1160505 5.771297 -0.32340804 6
-2.1682124 9.1248913 0.16131619 8
-2.1708243 9.1363134 0.48982069 9
-2.1692154 9.1305542 0.98441094 10.5
-2.1704876 9.137536 1.4853762 12
-2.1691344 9.131834 1.822356 13
-2.1701417 9.1372709 2.1661484 14
-2.1682758 9.1297693 2.5123649 15
-1.6664542 -5.7706275 -0.31729668 6
-1.8393703 -3.1238737 -0.31861725 5
-1.8270969 -1.8363628 -0.31917918 4
-1.621529 -1.218478 -0.32147625 3
-1.761386 -0.96548337 -0.31882125 3
-1.9475894 -0.49903122 -0.31867334 3
-1.6228932 -0.35426158 -0.32285976 2
-1.7989602 0.31983662 -0.31950757 2.5
-1.9178064 0.6033749 -0.31905511 3
-1.7755643 0.9750936 -0.32154831 3
-1.6258993 1.2252197 -0.3226997 3
-1.8408173 1.8554492 -0.32174385 4
-1.9731704 3.1030941 -0.32220826 5
-1.7528604 3.2502356 -0.32369414 5
-1.7161701 5.9751649 -0.32735619 6
-1.9292909 9.1331806 -0.16555065 7
-1.7613024 9.1465473 0.1599239 8
-1.7606417 9.143589 0.48540315 9
-1.7600913 9.1416931 0.97627032 10.5
-1.7594953 9.1395359 1.4717126 12
-1.7590833 9.1383505 1.8065406 13
-1.7599137 9.1435728 2.1473567 14
-1.7601058 9.1459341 2.4932935 15
-1.2638153 -5.9445 -0.32105866 6
-1.3854536 -3.380477 -0.3212164 5
-1.3618875 -2.2195642 -0.32107338 4
-1.2166462 -1.6332295 -0.32298529 3
-1.4285568 -1.4347047 -0.32153761 3
-1.3090782 -1.0206621 -0.32330364 2
-1.325997 -0.66590106 -0.32269579 1.3333334
-1.3663095 -0.29821053 -0.32278848 1
-1.3653789 0.29834029 -0.32278094 1
-1.324905 0.66711545 -0.32290152 1.3333334
-1.3465698 0.9775731 -0.32435742 2
-1.4382056 1.4496279 -0.324348 3
-1.2257181 1.6543649 -0.32660162 3
-1.4182564 2.2323067 -0.32580763 4
-1.4047148 3.4493015 -0.3268922 5
-1.293681 6.1312976 -0.33026296 6
-1.2584838 9.1659594 -0.16455729 7
-1.356899 9.1511345 0.15854418 8
-1.3591818 9.1679497 0.48284259 9
-1.3570192 9.1551094 0.97021705 10.5
-1.3570117 9.1560965 1.4632875 12
-1.3907112 9.1573858 1.7977445 13
-1.3565465 9.1554384 2.1340985 14
-1.3565967 9.1574373 2.4778473 15
-1.0247114 -3.5420325 -0.32405269 5
-0.99984562 -2.4356465 -0.32438481 4
-1.0111192 -1.7863634 -0.32620391 3
-0.9486317 -1.373922 -0.32582757 2
-1.009248 -1.0005127 -0.3259722 1
-1.0616033 -0.68427926 -0.32561132 0.25
-1.1847807 -0.25855514 -0.32481575 0
-1.17442 0.25662515 -0.32227027 0
-1.0582753 0.68480635 -0.32559204 0.25
-1.0016198 1.0103432 -0.32678726 1
-0.95164716 1.38773 -0.32873487 2
-1.0118871 1.801386 -0.32844371 3
-1.0070317 2.4747756 -0.32902953 4
-1.0353332 3.6107938 -0.32971916 5
-0.86347622 6.2999535 -0.33545497 6
-0.95782149 9.162118 0.15757617 8
-0.95885092 9.1735439 0.48021257 9
-0.95867938 9.1750135 0.96683741 10.5
-0.95808953 9.1717911 1.4575163 12
-0.95723939 9.1658955 1.7883273 13
-0.9576928 9.1696968 2.1254876 14
-0.95744461 9.1688051 2.4671216 15
-0.77534145 -3.6378341 -0.32691237 5
-0.64708459 -2.5741725 -0.32710081 4
-0.43377772 -2.0249009 -0.32872024 3
-0.5888617 -1.8510041 -0.32874402 2.6666667
-0.62688512 -1.4227837 -0.32895496 1.5
-0.67389756 -1.0723801 -0.32777435 0.25
-0.66334665 1.0868853 -0.32999349 0.25
-0.61954415 1.3829517 -0.33083987 1.3333334
-0.62052518 1.7888291 -0.3314566 2.5
-0.50138175 2.0286717 -0.3320837 3
-0.64675444 2.6117442 -0.33155805 4
-0.64963675 3.7497988 -0.33452421 5
-0.41288042 6.3947778 -0.33838114 6
-0.595456 9.1880198 -0.1642528 7
-0.56225914 9.1891232 0.15717509 8
-0.72797757 9.1924887 0.47988075 9
-0.46352458 9.2006245 0.47920471 9
-0.57818335 9.1832495 0.96410692 10.5
-0.59577584 9.2029934 1.1288824 11
-0.56125021 9.1829586 1.4537637 12
-0.56115901 9.185154 1.7853649 13
-0.56151485 9.1912355 2.1225436 14
-0.56105435 9.1887636 2.4633245 15
-0.35516709 -1.6536863 -0.329321 2
-0.32069281 -1.3272017 -0.33102 0.66666669
-0.34630299 -1.1861072 -0.33132133 0
-0.33677271 1.1848767 -0.33093414 0
-0.1761418 1.3294693 -0.33409789 0.5
-0.1977888 1.7037258 -0.33492628 2
-0.2067858 2.0904489 -0.3339645 3
-0.18920644 2.7142351 -0.33394364 4
-0.14008616 3.8410654 -0.33450159 5
-0.048020836 6.4784641 -0.33087906 6
-0.061446387 9.2061996 -0.14869411 7
-0.33124846 9.1950102 0.15689385 8
-0.13342115 9.2047024 0.15682296 8
-0.26505879 9.194191 0.4783158 9
-0.067248069 9.2087326 0.47871414 9
-0.19871406 9.1921082 1.0170354 10.666667
-0.067024983 9.2011871 0.80111873 10
-0.33050346 9.1926613 1.4532239 12
-0.13275422 9.2058306 1.4543806 12
-0.33055067 9.1985579 1.7854611 13
-0.13260047 9.2057705 1.785759 13
-0.19837578 9.1993284 2.1206813 14
-0.198452 9.2046757 2.1216955 14
-0.32992107 9.1907396 2.4604621 15
-0.13233386 9.2103338 2.4642446 15
0.39626873 -6.2989345 -0.33320197 6
0.2630266 -3.78478 -0.33339453 5
0.23534441 -2.7097847 -0.33525497 4
0.22626208 -2.0932996 -0.33461943 3
0.21509314 -1.7093128 -0.33633369 2
0.19634007 -1.3289779 -0.3350223 0.5
0.20290911 1.3552585 -0.3345741 0.60000002
0.15975502 1.7142718 -0.3329145 2
0.16434307 2.1238801 -0.33460501 3
0.2657406 2.7371297 -0.3336525 4
0.24263144 3.871938 -0.33373973 5
0.10335625 9.2189922 0.17310983 8
0.10280548 9.2134829 0.49506742 9
0.10204941 9.21348 0.98092955 10.5
0.2007077 9.2180681 1.4730202 12
0.20037261 9.2247486 1.8063831 13
0.19975898 9.216197 2.1412661 14
0.19951425 9.2267237 2.4863729 15
0.4874236 -6.3043451 -0.33379892 6
0.56250852 -3.7675536 -0.33467242 5
0.69182581 -2.6515193 -0.33769438 4
0.53401393 -2.0539885 -0.33725217 3
0.61666846 -1.7462549 -0.33570766 2.3333333
0.61675954 -1.4183017 -0.33774224 1.3333334
0.62504286 -1.0741731 -0.33612725 0
0.56503499 1.1170106 -0.3361834 0
0.63618773 1.3108331 -0.33619049 1
0.5921362 1.6481408 -0.33855507 2
0.54426205 2.0707884 -0.33644146 3
0.66279835 2.7030089 -0.33760187 4
0.52314198 3.87005 -0.33577216 5
0.42166463 6.5452843 -0.33449659 6
0.60201091 9.2421427 -0.14883485 7
0.5017494 9.2385845 0.17419758 8
0.50052434 9.2268839 0.49698767 9
0.50068766 9.2406845 0.98581976 10.5
0.60004354 9.2468939 1.4807163 12
0.69940287 9.2431135 1.8153106 13
0.69886374 9.2415094 2.1533651 14
0.69943619 9.2553482 2.5010061 15
1.1810731 -18.594835 -0.33255482 7
0.94985497 -6.3344812 -0.33799008 6
0.97501123 -3.7287695 -0.33869436 5
1.0713122 -2.5438037 -0.34003469 4
1.0339016 -1.8678764 -0.33956522 3
0.93572289 -1.3626872 -0.34097284 1.6666666
1.0041206 -0.99171585 -0.34001073 0.75
1.1168628 -0.57280844 -0.33970481 0
1.1409503 0.56232697 -0.3431192 0
0.99355781 1.0123415 -0.33988991 0.75
1.0183388 1.4228321 -0.33923623 2
0.98042053 1.9168437 -0.33857262 3
1.0514122 2.600203 -0.34025136 4
0.9431988 3.8188829 -0.33822876 5
0.89806044 6.5585275 -0.33717886 6
0.90259206 9.2476921 0.17538323 8
0.90402269 9.2660284 0.5011996 9
0.90221858 9.2549582 0.99103498 10.5
0.90262729 9.2648649 1.4880093 12
1.000162 9.2418928 1.8207694 13
1.0014946 9.2581253 2.1639502 14
1.0007924 9.2559385 2.5088983 15
1.4577978 -18.707323 -0.33482286 7
1.4141884 -6.3085842 -0.34096658 6
1.3867587 -3.6480308 -0.34256786 5
1.3488162 -2.4338398 -0.34245655 4
1.5183046 -2.3286259 -0.34202632 4
1.3634024 -1.669349 -0.34233186 3
1.3941784 -1.3749416 -0.34230259 2.5
1.4305367 -1.0280918 -0.34428081 2
1.3728685 -0.53388339 -0.3427828 1
1.3586595 -0.1879831 -0.34236857 0.5
1.3630924 0.20755602 -0.3437967 0.5
1.3681815 0.57318276 -0.34371284 1
1.3748512 0.98998547 -0.34274974 1.75
1.3897935 1.4100144 -0.34329888 2.5
1.3532914 1.7062033 -0.34239244 3
1.5085307 2.3850825 -0.34228039 4
1.3234729 2.4693434 -0.33972847 4
1.3609124 3.7304845 -0.34108555 5
1.3807446 6.5470729 -0.3404513 6
1.2761995 9.2718506 -0.14973527 7
1.308584 9.262249 0.17697582 8
1.3105547 9.2783594 0.5048911 9
1.3089441 9.2724123 0.9985227 10.5
1.3088772 9.2761402 1.4980114 12
1.3072466 9.2689199 1.8340005 13
1.3074145 9.2725496 2.1766531 14
1.3063054 9.2677326 2.5228648 15
1.8806784 -6.2517509 -0.34408903 6
1.7798619 -3.494925 -0.34425822 5
1.7762508 -2.1721027 -0.34527391 4
1.7020473 -1.3489993 -0.34471366 3
1.8750023 -1.0901234 -0.34405017 3
1.6756458 -0.57158786 -0.34532988 2
1.764691 -0.19937828 -0.34609869 2
1.7529824 0.22161628 -0.34395209 2
1.6690719 0.5942409 -0.3444379 2
1.9361606 1.0219936 -0.34549809 3
1.6925144 1.379705 -0.34375748 3
1.7699409 2.2252927 -0.34522521 4
1.902334 3.5365074 -0.34487554 5
1.6322101 3.6388416 -0.34251818 5
1.8667337 6.5009413 -0.34384266 6
1.9683101 9.3014307 -0.1515245 7
1.8044736 9.2925291 0.17954965 8
1.8046821 9.2954426 0.51070458 9
1.7989546 9.2918997 0.97631681 10.4
1.8031133 9.2932501 1.5144157 12
1.8007352 9.2833748 1.853462 13
1.8016547 9.290657 2.2005265 14
1.7206444 9.2918701 2.5478404 15
2.3466504 -6.1612415 -0.34723192 6
2.1662822 -3.3178394 -0.3473106 5
2.1795716 -1.7904062 -0.34708557 4
2.3924072 -1.5070494 -0.34702286 4
2.0015845 -0.89065164 -0.34711707 3
2.1134834 -0.55463946 -0.3465212 3
2.187571 -0.2077118 -0.34774306 3
2.1863861 0.2354659 -0.34753689 3
2.1241717 0.58623201 -0.34825864 3
2.2172053 1.8032591 -0.34740448 4
2.0010629 2.023277 -0.34547043 4
2.1561589 3.3983674 -0.34567252 5
2.3520601 6.4154334 -0.34713048 6
2.2860081 9.3083448 0.18218213 8
2.2889893 9.3213291 0.51806635 9
2.2872086 9.3166876 1.023872 10.5
2.285605 9.3125668 1.5344272 12
2.2866039 9.3180695 1.8809807 13
2.2474353 9.3042603 2.2260866 14
2.2247181 9.3085432 2.5811877 15
2.5384324 -3.099328 -0.3510491 5
2.5380661 -1.3545613 -0.3528856 4
2.652832 -1.0670671 -0.35067368 4
2.7567105 -0.77640766 -0.35069457 4
2.7288897 0.9130609 -0.35074094 4
2.5133526 1.3824919 -0.34950688 4
2.645957 3.0836403 -0.34913573 5
2.4128351 3.2592134 -0.34834892 5
2.6876223 9.3356619 -0.15433601 7
2.6143017 9.3330431 0.18444529 8
2.6113036 9.3237753 0.52284127 9
2.6142304 9.3352365 0.86375302 10
2.6127558 9.3324242 1.3784091 11.5
2.6103606 9.325655 1.8987812 13
2.6129532 9.3361254 2.2549882 14
2.611593 9.3327913 2.6139143 15
2.8822529 -19.140434 -0.34489658 7
2.8186457 -6.0559139 -0.35150433 6
2.8671799 -2.819972 -0.35181412 5
3.0735939 -2.6169031 -0.35287905 5
2.8241589 -0.58010793 -0.35281721 4
2.8715007 -0.272695 -0.35286897 4
2.8915031 0.20529196 -0.35386765 4
2.8419032 0.51402724 -0.35244662 4
3.1037388 2.7102439 -0.35432959 5
2.8776436 2.9027169 -0.35133049 5
2.8318331 6.2871857 -0.35013157 6
2.9087029 9.3427048 0.18639965 8
2.9076934 9.34027 0.52843696 9
3.0368826 -47.680622 0.81499869 8
2.9084647 9.3440199 0.87215501 10
2.9064672 9.3395023 1.3915179 11.5
2.9083185 9.3471766 1.9196517 13
2.9039998 9.3345728 2.274111 14
3.0360537 -47.682125 2.4850023 9
2.9043107 9.3365412 2.6375582 15
3.0353289 -47.685314 4.1613293 10
3.0332305 -47.667038 5.8454728 11
3.0328414 -47.675709 7.547049 12
3.0324757 -47.684902 9.2682114 13
3.2773576 -5.8960524 -0.3546423 6
3.289222 -2.4159527 -0.35647914 5
3.473484 -2.1859422 -0.35818443 5
3.4615271 2.2383842 -0.35486481 5
3.3032508 2.4899015 -0.35588965 5
3.3048375 6.1221094 -0.35315314 6
3.4398267 9.3626299 -0.15805575 7
3.4162297 9.3657513 0.19021066 8
3.2524438 -26.780493 0.46078941 8
3.4149613 9.3630943 0.53873223 9
3.4164007 9.3677139 0.88905698 10
3.2654257 -26.891844 1.4095707 9
3.3803132 9.367878 1.3813902 11.4
3.4604595 9.3693886 1.8688221 12.75
3.2740521 -26.967442 2.3665121 10
3.4137199 9.3645496 2.3193045 14
3.4138756 9.3658571 2.6897373 15
3.2802241 -27.022919 3.3321424 11
3.2907903 -27.11459 4.3157368 12
3.3031397 -27.221016 5.3196092 13
3.7233312 -5.6948595 -0.35733718 6
3.6889007 -1.7998099 -0.35799098 5
3.8822711 -1.4005041 -0.35924199 5
3.9958458 -1.1246616 -0.36098674 5
3.8881626 1.4558524 -0.35817042 5
3.706955 1.8647115 -0.35780603 5
3.7706633 5.9244313 -0.35642952 6
3.8730989 9.3790464 0.19381139 8
3.7165029 -24.672178 0.42646429 8
3.8346124 9.3834724 0.54810506 9
3.7235169 -47.675266 0.81595355 8
3.8744543 9.3841105 0.90542728 10
3.7143009 -24.661186 1.2979997 9
3.8747663 9.3855553 1.2642626 11
3.80584 9.3796225 1.7421252 12.333333
3.7149956 -24.669397 2.1736174 10
3.9131317 9.3849936 2.2419865 13.666667
3.7218504 -47.666027 2.4869103 9
3.8731382 9.3847237 2.7395942 15
3.7156732 -24.677525 3.0551441 11
3.7131875 -24.664713 3.9414628 12
3.7200973 -47.65572 4.1631999 10
3.7142715 -24.675602 4.8413525 13
3.7190804 -47.6549 5.850153 11
3.7185435 -47.660328 7.5525146 12
3.7160714 -47.641125 9.2693453 13
4.3874173 -19.514027 -0.35576805 7
4.160357 -5.4639239 -0.36026591 6
4.0683727 -0.83529037 -0.36083174 5
4.1188774 -0.5411247 -0.36057913 5
4.1480241 -0.24397422 -0.36031693 5
4.1593499 0.29435292 -0.36096737 5
4.1346917 0.59341735 -0.36126843 5
4.0364985 1.0324745 -0.36011186 5
4.2295299 5.6972322 -0.36015391 6
4.2444215 9.4060535 -0.16320488 7
4.0746665 -24.645597 0.42711905 8
4.1610417 9.4013605 0.55604744 9
4.2465796 9.4128561 0.92104495 10
4.07652 -24.660135 1.3010391 9
4.2442837 9.408474 1.2852184 11
4.2337995 9.3860111 1.6490469 12
4.0750155 -24.654406 2.1773763 10
4.2410564 9.4027376 2.0236576 13
4.2434516 9.4087362 2.4019766 14
4.073741 -24.650087 3.0588238 11
4.0734849 -24.651951 3.9485161 12
4.0716615 -24.644377 4.8463511 13
4.5938773 -5.2113571 -0.36399493 6
4.6612234 5.4184122 -0.36287001 6
4.5797634 9.416707 0.20025302 8
4.6184916 -24.630386 0.42872342 8
4.5799832 9.4178629 0.5665772 9
4.4081316 -47.633125 0.81645858 8
4.493711 9.4135542 0.9305073 10
4.6161642 -24.620852 1.3041781 9
4.5768704 9.4126616 1.3034967 11
4.5795789 9.4190388 1.6776019 12
4.4341621 -24.627462 2.1805491 10
4.5791297 9.4187584 2.0549536 13
4.4058757 -47.619179 2.4877384 9
4.4925694 9.4136152 2.4276133 14
4.6167502 -24.630234 3.0683074 11
4.5790157 9.4197245 2.8266947 15
4.4354224 -24.640814 3.9566829 12
4.4051738 -47.622036 4.1655831 10
4.6151433 -24.627501 4.8618279 13
4.4043279 -47.62339 5.8536768 11
4.7975082 -24.628599 5.7841115 14
4.433784 -24.64156 6.6997223 15
4.403409 -47.624062 7.5562425 12
4.4025092 -47.625057 9.2777996 13
4.9949036 -4.9072895 -0.36640507 6
5.0735779 5.105813 -0.36557859 6
5.1081505 9.4468927 -0.16962917 7
5.0130801 9.4322262 0.20438221 8
5.1637654 -24.605488 0.43035844 8
5.01932 9.4444275 0.57873946 9
5.0948191 -47.604626 0.81737739 8
5.0128627 9.4328022 0.95306468 10
5.163085 -24.605055 1.3091379 9
5.0145936 9.4366207 1.3309712 11
5.0121593 9.4326038 1.7110505 12
4.9821978 -24.621914 2.1893542 10
4.9236226 9.4300489 2.0873647 13
5.0931201 -47.59795 2.4904308 9
5.0123296 9.4339724 2.486541 14
5.1628027 -24.609364 3.0790114 11
5.0122905 9.4343872 2.8833227 15
4.9828143 -24.630625 3.9717147 12
5.0944648 -47.619713 4.1715879 10
5.1630158 -24.616133 4.8805246 13
5.0912495 -47.598957 5.8592958 11
5.1627526 -24.617805 5.7985578 14
5.1606712 -24.610874 6.7292504 15
5.0889902 -47.587204 7.5614519 12
5.0863485 -47.571983 9.2809753 13
5.387012 -4.5818257 -0.36954832 6
5.4732895 4.7690296 -0.36891073 6
5.4686427 9.4545794 0.20906813 8
5.5334263 -24.606379 0.43188953 8
5.374866 9.4481287 0.58827013 9
5.3785806 9.4550371 0.9706201 10
5.5285492 -24.587391 1.3124568 9
5.3774953 9.4538078 1.3547316 11
5.379766 9.458045 1.7431098 12
5.5286679 -24.590603 2.1968443 10
5.3758368 9.4517527 2.133795 13
5.3731275 9.4474316 2.5298865 14
5.5283961 -24.592104 3.0866368 11
5.3734193 9.4485083 2.9337709 15
5.5261397 -24.584801 3.982743 12
5.526207 -24.590645 5.8104277 14
5.5249143 -24.587744 6.7440982 15
5.9700699 -19.799694 -0.36708993 7
5.7399421 -4.2119532 -0.37149435 6
5.8329883 4.3877821 -0.37118438 6
5.7521772 9.4673758 0.21209182 8
5.8986559 -24.578739 0.4330225 8
5.7529593 9.4689741 0.59967971 9
5.7526903 9.4691105 0.98869771 10
5.8941865 -24.562695 1.3156964 9
5.7548542 9.472908 1.3806905 11
5.7536702 9.4714394 1.7754129 12
5.899158 -24.585962 2.2039456 10
5.7499027 9.4656134 2.1734483 13
5.7507777 9.4677162 2.5786216 14
5.8960509 -24.575617 3.0950506 11
5.754272 9.4738178 2.9918783 15
5.8955741 -24.576239 3.9948354 12
5.8959823 -24.580578 4.9053826 13
5.8971977 -24.588306 5.8294621 14
5.8932204 -24.574467 6.7631512 15
6.3781548 -5.3461971 -0.14365613 7
6.3766937 -5.0045424 -0.13964279 7
6.3582973 -4.5960321 -0.13480403 7
6.3400764 -4.1477442 -0.12978491 7
6.2407179 -3.778971 -0.2083829 6.6666665
6.3832817 -3.4008698 -0.37624574 6
6.1632175 3.9775546 -0.37334397 6
6.0461106 9.4848003 -0.17753963 7
6.3796344 -5.269845 0.146367 8
6.3730927 -5.0020313 0.14354925 8
6.3561039 -4.560873 0.13900994 8
6.3374157 -4.1141005 0.22232452 8.333333
6.3198657 -3.7569258 0.25998175 8.5
6.1494918 9.495348 0.21662669 8
6.2715364 -24.57428 0.43466753 8
6.3889284 -5.2780809 0.58190256 9.5
6.3812923 -5.0090566 0.57004708 9.5
6.3657193 -4.5338273 0.59593725 9.666667
6.3442411 -4.1512008 0.53265756 9.5
6.3238721 -3.7597475 0.64740032 10
6.0434203 9.4813509 0.60857689 9
6.396668 -5.4412394 1.0337462 11
6.3804755 -5.0090184 0.99902844 11
6.3613534 -4.5657134 0.9648208 11
6.3414373 -4.1175652 1.0215151 11.333333
6.3287759 -3.7325568 1.0813359 11.666667
6.3940358 -3.526794 0.9009046 11
6.1439486 9.4876022 1.0087057 10
6.2671642 -24.559628 1.3203976 9
6.3993912 -5.2876711 1.3178229 12
6.3809853 -5.0098763 1.4344655 12.5
6.3616934 -4.5663548 1.3851168 12.5
6.3500156 -4.1885853 1.3912182 12.666667
6.3334026 -3.76652 1.4371445 13
6.0402327 9.4771271 1.3999337 11
6.3942242 -5.3360267 1.7230875 13.333333
6.3862777 -4.940948 1.868203 14
6.3664966 -4.6043792 1.8182131 14
6.3543434 -4.236444 1.7679578 14
6.3332334 -3.7667694 1.8431386 14.5
6.1445236 9.4892035 1.8111714 12
6.2690911 -24.569635 2.2105043 10
6.3998389 -5.289227 2.2286022 15
6.3845882 -4.9028325 2.161299 15
6.3656311 -4.5700088 2.1044562 15
6.3519077 -4.1581841 2.0394137 15
6.0411973 9.4794149 2.2059555 13
6.1396132 9.4824038 2.6297054 14
6.26864 -24.570358 3.1055863 11
6.1410985 9.485055 3.0500288 15
6.2653236 -24.559877 4.0065689 12
6.2651286 -24.561647 4.9192348 13
6.2673101 -24.572763 5.846693 14
6.2617993 -24.553785 6.781692 15
6.6084957 -3.5210123 -0.1274841 7
6.6547151 -2.9538968 -0.3781434 6
6.7308154 3.0826457 -0.37758881 6
6.4550653 3.5372975 -0.3750098 6
6.4002347 -5.4431047 0.14847665 8
6.6155467 -3.5252204 0.26549095 8.5
6.548883 9.5023203 0.22100803 8
6.6390319 -24.540279 0.43589547 8
6.404109 -5.4469757 0.59033167 9.5
6.6178493 -3.5269041 0.66026813 10
6.5570989 9.5144663 0.62548804 9
6.4007483 -5.2884059 1.022203 11
6.6073933 -3.5218 1.0574167 11.5
6.440124 9.4911175 1.0235742 10
6.6407065 -24.548836 1.3249947 9
6.4052496 -5.4489236 1.3348118 12
6.6079655 -3.5225725 1.4608084 13
6.552906 9.5090246 1.4386263 11
6.4030066 -5.4478188 1.9443693 14
6.6096001 -3.5237601 1.7348782 14
6.5489101 9.5036631 1.8491396 12
6.6398292 -24.547972 2.217092 10
6.407053 -5.1423554 2.2053986 15
6.6096559 -3.5241134 2.0130732 15
6.5555677 9.513587 2.267453 13
6.4421282 9.4954405 2.6711247 14
6.6407394 -24.553734 3.1154034 11
6.5516 9.5084801 3.1169105 15
6.6373963 -24.543797 4.0192657 12
6.639369 -24.55353 4.9363804 13
6.6349454 -24.53966 5.8610697 14
6.6369214 -24.54948 6.8063102 15
6.9396658 -3.5068786 -0.13218606 7
6.89503 -2.485486 -0.3800399 6
7.0789261 -1.9911549 -0.38067004 6
7.1270447 2.0946314 -0.37984443 6
6.9571204 2.6001315 -0.37927422 6
7.0900826 9.5362444 -0.18755165 7
6.9412999 -3.5079739 0.13961618 8
6.8612351 9.5110769 0.22459064 8
6.942421 -3.5089965 0.54850835 9.5
6.9830751 9.5343456 0.63972986 9
6.9402061 -3.5083508 0.95973915 11
6.9769268 9.5261889 1.0537874 10
6.9415426 -3.5094836 1.3774924 12.5
6.9746723 9.5234566 1.4705465 11
6.9381118 -3.5082946 1.8009627 14
7.0858631 9.5319595 1.9028882 12
6.944375 -3.5117445 2.0915847 15
6.980391 9.5317774 2.3186865 13
6.9702311 9.5182581 2.746434 14
6.868012 9.5225554 3.169184 15
7.0134602 -24.535511 4.9526873 13
7.0119958 -24.532784 5.8830619 14
7.4186821 -3.4850557 -0.13906904 7
7.2434702 -1.4864873 -0.38214469 6
7.3459477 -0.96499217 -0.38226539 6
7.4201064 -0.4369553 -0.38286662 6
7.4415984 0.52492005 -0.38315374 6
7.3738456 1.055902 -0.38199806 6
7.2762189 1.5816122 -0.38128272 6
7.4312696 -3.4912493 0.14765669 8
7.4187055 9.54105 0.23143832 8
7.4258823 -3.4892097 0.57876843 9.5
7.4225855 9.546546 0.65457845 9
7.4326921 -3.4929612 1.0137794 11
7.4268203 9.5520821 1.0798118 10
7.3858972 -3.4930379 1.3968425 12.333333
7.4184694 9.5416441 1.5056584 11
7.4619141 -3.4858708 1.8067776 13.666667
7.4104896 9.5317326 1.9343879 12
7.4186792 -3.4877164 2.2035556 15
7.4174733 9.5409698 2.3718104 13
7.2989969 9.5301466 2.7944713 14
7.5269408 9.5405836 2.8289545 14
7.4159026 9.5393705 3.2615921 15
7.6285696 -19.990469 -0.37890756 7
7.8171277 -3.4695911 -0.14489026 7
7.8210821 -3.4716773 0.15409063 8
7.7684708 9.5595865 0.23585276 8
7.8239899 -3.4734683 0.60407579 9.5
7.7689972 9.5604506 0.66679662 9
7.8134465 -3.4692965 1.0554767 11
7.8855586 9.5621567 1.1060768 10
7.8191013 -3.4721444 1.3612072 12
7.7681537 9.5598536 1.5344844 11
7.8175287 -3.4719644 1.825649 13.5
7.7678285 9.5596752 1.9734507 12
7.8179469 -3.4726779 2.2995889 15
7.7652187 9.556695 2.4166193 13
7.7637243 9.555088 2.8660316 14
7.7502699 9.5387945 3.3175421 15
8.2502499 9.5765314 -0.19960387 7
8.1061468 -3.4597218 0.15885442 8
8.1314335 9.5760746 0.24050471 8
8.0967207 -3.4562151 0.62134302 9.5
8.1278563 9.5721884 0.67967939 9
8.1039438 -3.4598098 1.0880172 11
8.2601795 9.588583 1.1293597 10
8.0991554 -3.4581146 1.4012902 12
8.1314573 9.5767708 1.5650327 11
8.0894899 -3.4543424 1.7166709 13
8.0057039 9.5681953 1.9987311 12
8.1096411 -3.4634752 2.2068317 14.5
8.2517614 9.5792027 2.0255644 12
8.1248636 9.5693274 2.4636617 13
8.1272469 9.5723066 2.9232364 14
8.1236906 9.5683908 3.3881516 15
9.356432 -20.068987 -0.39107361 7
11.160409 -20.048094 -0.40403545 7
13.022387 -19.890963 -0.4172703 7
14.251014 -47.237148 0.84656453 8
14.244295 -47.219166 2.5701861 9
14.246448 -47.230598 4.3014302 10
14.244296 -47.227776 6.0422339 11
14.241221 -47.221958 7.7972631 12
14.239628 -47.221077 9.5723267 13
14.92821 -19.581327 -0.43061802 7
14.978508 -47.190823 0.84989679 8
14.982893 -47.208794 2.5814555 9
14.975875 -47.190853 4.3173342 10
14.980875 -47.210804 6.0673366 11
14.976223 -47.200394 7.8287783 12
15.724225 -47.183216 0.85414624 8
15.720183 -47.175148 2.5920925 9
15.716231 -47.167347 4.3357763 10
15.717907 -47.17646 6.0916896 11
15.718337 -47.181877 7.8627167 12
16.463638 -47.137669 0.85793287 8
16.467688 -47.153206 2.6040237 9
16.455347 -47.121849 4.3532715 10
16.459881 -47.138809 6.1171169 11
16.457499 -47.136013 7.8940358 12
16.879919 -19.12673 -0.44442838 7
17.218435 -47.117439 0.86240798 8
17.211754 -47.103008 2.6150553 9
17.212852 -47.109886 4.3749657 10
17.21356 -47.115715 6.1459727 11
17.211391 -47.113716 7.9312787 12
17.975336 -47.083385 0.86686492 8
17.96929 -47.071327 2.6277874 9
17.970915 -47.079376 4.3960733 10
17.966438 -47.071461 6.1736383 11
17.968912 -47.081791 7.9689345 12
18.553255 -33.322048 0.65993583 8
18.507513 -32.146946 0.64227772 8
18.46623 -31.037724 0.62576264 8
18.480633 -30.072411 0.61199796 8
18.739466 -47.049034 0.87155461 8
18.566689 -33.348492 1.99468 9
18.513624 -32.159801 1.9396902 9
18.473547 -31.05216 1.8890933 9
18.47628 -30.067392 1.845535 9
18.740156 -47.054462 2.6420445 9
18.484776 -31.073181 3.1588433 10
18.471535 -30.061741 3.0830612 10
18.578398 -33.371872 3.3360698 10
18.53091 -32.192062 3.2447958 10
18.479019 -30.07601 4.3305168 11
18.734426 -47.043808 4.4178553 10
18.585184 -33.386414 4.6862574 11
18.529013 -32.191032 4.5557375 11
18.489004 -31.08246 4.4363551 11
18.465656 -30.056374 5.5835333 12
18.536835 -32.206898 5.8809109 12
18.495655 -31.095816 5.7263169 12
18.740326 -47.062351 6.2075272 11
18.594923 -33.406303 6.0501451 12
18.504784 -31.113379 7.032609 13
18.474037 -30.072134 6.8568797 13
18.593981 -33.407021 7.4264812 13
18.554266 -32.239479 7.2257953 13
18.736887 -47.057503 8.0099602 12
18.511883 -31.127556 8.3572206 14
18.564207 -32.259094 8.5881891 14
18.612421 -33.442581 8.830821 14
18.482277 -30.089893 9.4587727 15
18.846603 -18.495951 -0.45816579 7
19.063452 -30.046232 0.61738658 8
19.055109 -30.035145 1.8605622 9
19.056587 -30.03953 3.1089196 10
19.053442 -30.03665 4.3641782 11
19.058126 -30.04612 5.6322618 12
19.055342 -30.043842 6.9124751 13
19.050394 -30.038191 8.2090111 14
19.506342 -47.009827 4.4409614 10
19.650293 -30.015102 3.1356742 10
19.648031 -30.013706 4.4017763 11
19.64925 -30.017651 5.6796141 12
19.641174 -30.009552 8.2777739 14
20.256365 -29.989294 0.62877589 8
20.295336 -46.989071 0.88183713 8
20.252363 -29.985405 1.8935772 9
20.293222 -46.98774 2.6708646 9
20.257006 -29.994318 3.1639762 10
20.255068 -29.993496 4.4414115 11
20.244732 -29.980267 5.727345 12
20.290693 -46.989086 6.273057 11
20.243933 -29.981178 7.0297122 13
20.29019 -46.991573 8.0954952 12
20.259161 -30.005842 8.3565054 14
20.750973 20.834332 -0.46506652 7
20.866116 -29.956734 0.63475484 8
21.087063 -46.960651 0.88739234 8
20.867727 -29.961073 1.9111987 9
21.084223 -46.957848 2.6865838 9
20.866581 -29.961462 3.1922097 10
21.073978 -46.938572 4.4905076 10
20.862778 -29.958046 4.4804707 11
20.867306 -29.966604 5.7817817 12
21.085011 -46.96669 6.3103013 11
20.860701 -29.959208 7.0944548 13
21.074118 -46.946018 8.1393976 12
20.863832 -29.965816 8.4283047 14
21.50106 -29.943434 0.64140433 8
21.494478 -29.936283 1.9295498 9
21.491058 -29.93354 3.2222126 10
21.489557 -29.933487 4.5229011 11
21.493729 -29.941355 5.8362651 12
21.497166 -29.948217 7.1646094 13
21.481796 -29.928917 8.5042019 14
21.883354 -46.921772 0.89301395 8
21.87981 -46.917633 2.7024786 9
21.872149 -46.904694 4.5173359 10
21.876875 -46.918331 6.3458338 11
21.876287 -46.920601 8.1890774 12
22.135334 -29.911877 0.64793664 8
22.244164 24.341938 0.6302551 8
22.136532 -29.915512 1.9489514 9
22.262112 24.361944 1.7847074 9
22.263229 24.363548 2.9431837 10
22.139441 -29.921461 3.2552378 10
22.273823 24.375515 4.1107774 11
22.126312 -29.905752 4.5666752 11
22.272058 24.37397 5.2867556 12
22.13233 -29.915934 5.8930674 12
22.280878 24.38401 6.4788675 13
22.119452 -29.900602 7.2288642 13
22.288513 24.39275 7.6879473 14
22.122406 -29.906693 8.5876579 14
22.28545 24.389801 8.913372 15
22.540894 23.967131 0.62876379 8
22.686014 -46.876198 0.89877802 8
22.552696 23.980003 1.7801551 9
22.688404 -46.88456 2.7195704 9
22.554375 23.982121 2.9358065 10
22.550102 23.977917 4.0977821 11
22.68564 -46.882275 4.5465817 10
22.554537 23.982967 5.2715163 12
22.68716 -46.888882 6.3857446 11
22.564907 23.994324 6.4606161 13
22.56254 23.992153 7.6628704 14
22.684771 -46.887432 8.239768 12
22.572454 24.00304 8.8894253 15
22.8431 19.860804 -0.47946912 7
22.9776 23.401981 0.6266104 8
22.977093 23.40167 1.7733952 9
22.97802 23.402851 2.9246612 10
22.985029 23.410288 4.0843062 11
23.139521 23.231886 5.250052 12
22.848682 23.607765 5.2604733 12
23.135254 23.227848 6.4302058 13
22.854872 23.614445 6.4458809 13
23.1415 23.234373 7.6296835 14
22.858782 23.618778 7.6475124 14
23.147814 23.240959 8.8494663 15
22.855555 23.615753 8.8664694 15
23.456476 -6.594111 -0.40868852 7
23.514116 -7.7170339 0.44790989 8
23.486671 -7.336597 0.44577211 8
23.479069 -6.9662175 0.44411865 8
23.463175 -6.5968628 0.44241405 8
23.449055 -6.2313986 0.44084606 8
23.434893 -5.8690968 0.4393791 8
23.40049 22.828512 0.6243943 8
23.511835 -46.857037 0.90532857 8
23.508619 -7.7161398 1.3130207 9
23.51586 -7.3466086 1.3078456 9
23.470091 -6.9644403 1.3000506 9
23.474249 -6.6008496 1.2953396 9
23.471088 -6.2381134 1.2905288 9
23.449053 -5.8734918 1.2849853 9
23.399965 22.828201 1.7674723 9
23.513079 -7.7185154 2.1818805 10
23.51013 -7.3457203 2.1720538 10
23.50465 -6.9755812 2.1625266 10
23.47274 -6.6013007 2.1511011 10
23.448498 -6.232975 2.1409073 10
23.442364 -5.8726702 2.1328747 10
23.507885 -46.852551 2.7375367 9
23.531183 -7.7253757 3.0582254 11
23.515617 -7.3483405 3.0426466 11
23.489058 -6.9718485 3.0264137 11
23.491217 -6.6073775 3.0146205 11
23.465599 -6.238389 2.9999893 11
23.450129 -5.8754725 2.9873757 11
23.411573 22.839718 2.9163413 10
23.533346 -7.7270122 3.9408455 12
23.522842 -7.351512 3.9214902 12
23.496588 -6.9749837 3.9004955 12
23.481123 -6.6054296 3.8822603 12
23.468386 -6.2400069 3.8654134 12
23.453819 -5.8772631 3.8491874 12
23.41865 22.846821 4.0727425 11
23.50576 -46.851707 4.5763903 10
23.511921 -6.9804468 4.7864995 13
23.49703 -6.6108027 4.7641439 13
23.476788 -6.2431288 4.7418604 13
23.459875 -5.8796558 4.7213879 13
23.541565 -7.7306485 4.8347473 13
23.523485 -7.3526378 4.8093567 13
23.418674 22.84705 5.2383652 12
23.549227 -7.7341146 5.7414031 14
23.542988 -7.3596702 5.7140431 14
23.504276 -6.9791017 5.6802506 14
23.499094 -6.6122942 5.6559749 14
23.475927 -6.2438002 5.6287408 14
23.477892 -5.8850584 5.6088672 14
23.50226 -46.848152 6.4259968 11
23.5534 -7.7364526 6.6624436 15
23.529026 -7.3562598 6.6255193 15
23.506958 -6.9808393 6.5909281 15
23.497952 -6.6129012 6.5616226 15
23.501862 -6.2516112 6.537488 15
23.475916 -5.8854675 6.5066061 15
23.418097 22.846687 6.4169388 13
23.439211 22.867481 7.6187611 14
23.500546 -46.848183 8.2918062 12
23.417637 22.846661 8.8262758 15
23.683836 22.451035 0.62315768 8
23.968353 22.076857 1.7615449 9
23.689154 22.456228 1.764666 9
23.98 22.087702 2.906718 10
23.684801 22.452267 2.9098241 10
23.979939 22.08777 4.058176 11
23.696892 22.463886 4.0645375 11
23.999187 22.10561 5.2238846 12
23.697742 22.464855 5.2280288 12
23.704462 22.47138 6.4062743 13
23.717096 22.483517 7.6033192 14
23.715811 22.482468 8.8160315 15
24.243824 21.696053 0.62094259 8
24.340578 -46.821529 0.91185361 8
24.255663 21.70672 1.7594355 9
24.334415 -46.813023 2.755898 9
24.263815 21.714098 2.9029069 10
24.267292 21.717291 4.0535069 11
24.338833 -46.824871 4.6079564 10
24.275063 21.724327 5.2154026 12
24.281565 21.730223 6.3907614 13
24.328959 -46.809261 6.4684262 11
24.277548 21.726719 7.5796595 14
24.000263 22.106848 7.5914903 14
24.327631 -46.810108 8.3465385 12
24.289902 21.737856 8.7935753 15
24.493629 -5.7621226 0.45805651 8
24.527369 21.324223 0.62013423 8
24.476845 -5.7590518 1.3370556 9
24.472954 -5.7590165 2.2192986 10
24.482826 -5.7622218 3.1084752 11
24.538023 21.33358 2.8986347 10
24.487379 -5.7641864 4.0052128 12
24.472115 -5.7614961 4.9083433 13
24.549343 21.343504 5.2078433 12
24.453548 -5.7580414 5.8219934 14
24.554226 21.347795 6.3810921 13
24.485704 -5.766541 6.7632213 15
24.565002 21.357208 7.5727887 14
24.558947 21.352001 8.7789946 15
24.848566 18.653807 -0.49316806 7
25.084301 20.57531 0.61865461 8
24.814287 20.95636 0.6195401 8
25.181288 -46.787033 0.91869563 8
25.095982 20.584866 1.7539289 9
24.816753 20.958456 1.7554376 9
25.182444 -46.792492 2.7762425 9
25.10388 20.59132 2.8941138 10
25.103649 20.59111 4.0408225 11
24.825903 20.966202 4.0443039 11
25.177828 -46.787231 4.6398907 10
25.118292 20.603094 5.2005944 12
24.830791 20.970343 5.2030139 12
25.118998 20.603645 6.3711958 13
24.832203 20.971542 6.3743052 13
25.174803 -46.784966 6.5148764 11
25.13294 20.615051 7.5619788 14
25.173908 -46.786671 8.4064589 12
25.128815 20.611645 8.7672291 15
24.848263 20.985126 8.7736931 15
25.388788 20.222906 0.61873984 8
25.371441 20.209044 1.7525367 9
25.378201 20.214371 2.8918095 10
25.386887 20.221233 4.0391016 11
25.408731 20.238508 6.3701749 13
25.405602 20.235962 7.5556774 14
25.404099 20.234709 8.760869 15
25.929193 19.464401 0.61760175 8
25.929384 19.464432 1.7513355 9
25.653984 19.839371 1.7520008 9
25.945288 19.476244 2.8911138 10
25.654726 19.839857 2.8903773 10
25.949358 19.479179 4.0375524 11
25.661449 19.844967 4.0368619 11
25.947042 19.477329 5.1930699 12
25.664595 19.847313 5.1932192 12
25.962053 19.488462 6.3656077 13
25.973227 19.496727 7.5545077 14
25.674952 19.855135 7.550066 14
25.685934 19.863535 8.7586517 15
26.210995 19.094324 0.61748934 8
26.228354 19.106817 1.7525992 9
26.215372 19.097218 2.8901501 10
26.228563 19.106676 4.0376954 11
26.225433 19.104248 5.1931615 12
26.233065 19.109648 6.3639407 13
26.231133 19.108089 7.5487652 14
26.253935 19.124538 8.7610655 15
26.771374 17.243731 -0.50671667 7
26.762171 18.344393 0.61731523 8
26.486122 18.719187 0.6173352 8
26.75975 18.342531 1.7517149 9
26.499933 18.728764 1.7523688 9
