# .PCD v0.7 - Point Cloud Data file format
VERSION 0.7
FIELDS x y z intensity
SIZE 4 4 4 4
TYPE F F F F
COUNT 1 1 1 1
WIDTH 1409
HEIGHT 1
VIEWPOINT 0 0 0 1 0 0 0
POINTS 1409
DATA ascii
-8.0712814 7.2195783 1.3303612 11
-8.1891422 -47.900093 2.5314684 9
-8.1895332 -47.899178 4.2359571 10
-8.1885862 -47.890415 5.9498239 11
-8.1877956 -47.882545 7.6779389 12
-8.1863546 -47.870838 9.4239254 13
-7.9450464 3.0347075 1.3478315 12
-7.7960925 3.3679507 1.3460414 12
-7.6587706 3.6391673 1.3438228 12
-7.8540368 7.4404507 1.3291366 11
-7.6218328 7.6463461 1.3262132 11
-7.2902207 -11.376472 -0.23965387 7
-7.4872332 -47.912415 0.83143073 8
-7.5465131 3.8204248 1.3406094 12
-7.3394914 4.178246 1.3386221 12
-7.4110894 7.8167887 1.3232117 11
-7.4841886 -47.889347 2.5250587 9
-7.4833012 -47.880104 4.2244506 10
-7.4811606 -47.862812 5.9325752 11
-7.482409 -47.86718 7.6576157 12
-7.4813476 -47.856739 9.3992138 13
-7.1416841 19.277588 -0.36105403 7
-6.8091974 -1.6891174 1.3629273 13
-6.8460522 -1.4405881 1.3594108 13
-6.908844 -1.0456382 1.3579508 13
-6.9501982 -0.64810205 1.356734 13
-6.9683914 -0.24942364 1.3554462 13
-6.9611692 0.22409049 1.3541704 13
-6.9304132 0.64619672 1.3533823 13
-6.8731265 1.0402834 1.351751 13
-6.8237166 1.2841033 1.3501142 13
-7.022871 4.6446109 1.3345426 12
-6.8728065 4.8583627 1.3338625 12
-6.9852662 8.1488152 1.3183355 11
-6.51894 -11.977844 -0.2420148 7
-6.785306 -47.901157 0.82954443 8
-6.526083 -2.5720274 1.3623981 13
-6.6353793 -2.247365 1.3608763 13
-6.7537708 -1.8558857 1.3607148 13
-6.770422 1.4504191 1.3464762 13
-6.6726427 1.8087398 1.3445873 13
-6.5453782 2.1833136 1.3420407 13
-6.4390855 2.4598658 1.3406001 13
-6.7329874 5.0169778 1.3307706 12
-6.466403 5.3422966 1.3293152 12
-6.7031717 8.3496895 1.3150411 11
-6.518889 8.4870768 1.3142273 11
-6.7847152 -47.892986 2.5199571 9
-6.7842984 -47.886024 4.2160645 10
-6.7817798 -47.864201 5.9202065 11
-6.7814121 -47.857525 7.6398654 12
-6.7816067 -47.854794 9.3789177 13
-6.0856242 -47.88271 0.82771862 8
-6.3481069 2.662339 1.3389093 13
-6.1719055 3.0143898 1.3361959 13
-6.0074306 3.2888234 1.3320632 13
-6.276639 5.5350652 1.3261743 12
-6.1054325 5.7029285 1.3239177 12
-6.2615027 8.6538076 1.3117362 11
-6.0838523 -47.864201 2.5136957 9
-6.0851727 -47.870049 4.2066565 10
-6.0855255 -47.86824 5.9094315 11
-6.083147 -47.844891 7.6232781 12
-6.084662 -47.852158 9.3604927 13
-5.7208076 -12.57523 -0.24528795 7
-5.6095719 -0.40192989 -0.29482824 6
-5.6631036 1.464708e-05 -0.29679766 6
-5.666966 0.4060927 -0.29768813 6
-5.6685295 0.81663609 -0.30001158 6
-5.6296864 1.2272108 -0.30178514 6
-5.7068601 -7.8739023 0.50675941 9
-5.6217675 -1.653491 1.3519971 14
-5.6848631 -1.3886164 1.3506029 14
-5.7619562 -1.0202123 1.3507048 14
-5.8119349 -0.64007366 1.349829 14
-5.8340554 -0.20887212 1.3478254 14
-5.8285627 0.18773392 1.3466798 14
-5.800704 0.6144703 1.3471836 14
-5.7233467 1.0136433 1.3425838 14
-5.6327109 1.3979384 1.340579 14
-5.9296107 3.4419453 1.3336029 13
-5.694809 3.786557 1.3302975 13
-5.8557301 5.918016 1.319277 12
-5.6558256 6.0966392 1.3176746 12
-5.7531033 8.9461679 1.30604 11
-5.2158813 -1.948612 -0.29228708 6
-5.3488216 -1.5731664 -0.29256907 6
-5.4527698 -1.1881887 -0.2927483 6
-5.5435352 -0.79842776 -0.29370129 6
-5.5592251 1.6359013 -0.30347657 6
-5.4839458 2.0501206 -0.30657807 6
-5.3634439 2.4553971 -0.30887994 6
-5.2235265 2.8597133 -0.31183544 6
-5.432857 -7.9032168 0.49975985 9
-5.3896179 -47.869705 0.82616961 8
-5.2616229 -2.5912032 1.3528345 14
-5.4263501 -2.2363243 1.3540993 14
-5.5682082 -1.8122963 1.3511267 14
-5.5895829 1.5583804 1.3402508 14
-5.4966354 1.811735 1.3370763 14
-5.3558383 2.1641459 1.3347553 14
-5.2096629 2.4760652 1.3324509 14
-5.5630627 3.9331734 1.3251001 13
-5.3879628 4.1675229 1.3250238 13
-5.4117956 6.3150206 1.3177323 12
-5.2344899 6.427206 1.313205 12
-5.4636426 9.1047344 1.3035363 11
-5.3896279 -47.864567 2.509505 9
-5.389986 -47.862511 4.1988893 10
-5.3888021 -47.846714 5.8967595 11
-5.3884182 -47.837975 7.6092253 12
-5.3875389 -47.82478 9.3392191 13
-4.8027487 -12.936885 -0.24506858 7
-4.8698721 -2.6634681 -0.29159141 6
-5.0487065 -2.3094161 -0.29154581 6
-5.0646362 3.2639756 -0.31553355 6
-4.8488865 3.6408617 -0.31758249 6
-5.0178738 -7.9525089 0.48991701 9
-4.839572 -1.3672298 1.3469723 15
-4.9301796 -0.98249906 1.3467143 15
-4.9786849 -0.60842156 1.344008 15
-5.0115614 -0.19726552 1.344045 15
-4.9982333 0.15486398 1.3403108 15
-4.9566941 0.60585767 1.3387172 15
-4.8844986 1.0100442 1.3372266 15
-4.8272724 1.23493 1.3357015 15
-5.1254358 2.6184008 1.3297346 14
-4.9039946 2.9897759 1.3270704 14
-5.1970792 4.389184 1.3229889 13
-4.9988599 4.6035848 1.3218307 13
-4.9997869 6.6084757 1.312899 12
-5.0340314 9.1887226 1.2861476 11
-4.4463158 -3.3339751 -0.29215896 6
-4.6692419 -3.0056372 -0.29182097 6
-4.6237345 4.0197659 -0.32094881 6
-4.6113963 -7.9862347 0.4804368 9
-4.6231604 -6.5228014 0.69696242 10
-4.4367537 -2.426558 1.3534945 15
-4.557982 -2.150913 1.3495471 15
-4.7009668 -1.7948123 1.3476075 15
-4.7927542 -1.5598763 1.3495756 15
-4.7742662 1.4051393 1.3343039 15
-4.6302495 1.7945218 1.3316299 15
-4.4533958 2.1757624 1.3291728 15
-4.7887459 3.1845901 1.3285156 14
-4.6046686 3.406673 1.3235525 14
-4.4246144 3.6302454 1.3220643 14
-4.6039953 4.9642115 1.3169738 13
-4.7527781 6.7727194 1.3106022 12
-4.567441 6.8683567 1.3065586 12
-4.6562381 9.1912327 1.2645562 11
-4.4968357 9.200964 1.2568405 11
-4.1973987 -3.6432126 -0.29228708 6
-4.3619332 4.3778429 -0.32381245 6
-4.088532 4.7375364 -0.32798806 6
-4.1830907 -8.0197353 0.47117344 9
-4.1953115 -6.594902 0.68129808 10
-4.155026 -3.7922778 1.0915641 13
-4.3412375 -2.5589151 1.3487589 15
-4.3544464 2.3441877 1.3259461 15
-4.1968002 2.6002381 1.3242453 15
-4.0179849 2.8417475 1.3194886 15
-4.2490292 3.8211427 1.3203064 14
-4.0255332 4.0411868 1.317502 14
-4.3375607 5.1742315 1.312838 13
-4.1494784 5.3257966 1.3128943 13
-4.183321 7.0879211 1.303588 12
-4.3340092 9.1993294 1.2479434 11
-4.0993109 9.2083511 1.2368791 11
-3.7417364 -12.818081 -0.23714526 7
-3.6356215 -4.2033672 -0.29244214 6
-3.9207728 -3.9276061 -0.29194161 6
-3.7860808 5.0806513 -0.33221141 6
-3.8357754 -8.041995 0.46409783 9
-3.8124213 -6.6553321 0.66852736 10
-3.7075114 -5.6042295 0.82266879 11
-3.8544974 -5.5634346 0.82867455 11
-3.6770909 -4.0134277 1.0559353 13
-3.8267994 -3.9437938 1.0662373 13
-3.8563948 3.0577879 1.3200164 15
-3.662899 3.2791564 1.3181363 15
-3.8295918 4.2098923 1.3147606 14
-3.8485873 5.5278349 1.3095498 13
-3.6617975 5.6386037 1.3069983 13
-3.789371 7.2877159 1.3007157 12
-3.7862287 9.205862 1.2213295 11
-3.3507392 -4.4847188 -0.2946634 6
-3.297415 -1.2318356 -0.30814874 5
-3.3792431 -0.99388516 -0.30831289 5
-3.4661198 -0.62607604 -0.30843592 5
-3.5336287 -0.25321719 -0.30997866 5
-3.5564137 0.1274102 -0.31153691 5
-3.5234597 0.63734138 -0.31342056 5
-3.4669664 1.0205376 -0.31612921 5
-3.3572192 1.3947468 -0.31820592 5
-3.2269645 1.7674751 -0.3218587 5
-3.4441948 5.387157 -0.33537972 6
-3.2359118 9.1445837 0.16815452 8
-3.4353611 -8.075902 0.45710489 9
-3.4398069 -6.7098951 0.65713745 10
-3.2319701 9.1338463 0.50661355 9
-3.3593986 -5.6729293 0.80732292 11
-3.3142445 -4.8564038 0.92899758 12
-3.4804451 -4.7999072 0.93678474 12
-3.4132271 -4.1195016 1.0380301 13
-3.4206524 -3.499486 1.1279351 14
-3.2329674 9.1370392 0.84680223 10
-3.4581773 3.4719694 1.3140998 15
-3.2468326 3.6570756 1.3109523 15
-3.3211503 4.5766001 1.3579665 14.25
-3.3864388 5.7872066 1.3033905 13
-3.4729924 7.4206715 1.2972974 12
-3.2349358 9.1433601 1.5349834 12
-3.4809239 9.2040977 1.2072248 11
-3.2352307 9.1445827 1.8843387 13
-3.2356887 9.1462717 2.238668 14
-3.2378359 9.1527319 2.6002333 15
-2.8843188 -13.365746 -0.24280436 7
-3.0342081 -4.7311678 -0.29590514 6
-2.8137045 -2.1092513 -0.30803266 5
-3.0221035 -1.7957189 -0.30805591 5
-3.177218 -1.4532152 -0.30589828 5
-3.0368617 2.1162829 -0.32404718 5
-2.8106821 2.4451909 -0.32598689 5
-3.0896525 5.6924706 -0.33987832 6
-2.8745728 9.1518307 0.16612402 8
-3.0635076 -8.0678282 0.5999524 9.5
-3.1337264 -6.7541146 0.64884126 10
-3.0717714 -5.7363348 0.7965619 11
-2.8750348 9.1538916 0.50153136 9
-3.0049953 -6.8581719 0.9165926 11
-3.0107265 -6.6122932 0.88939041 11
-3.0201278 -5.7380905 1.0244365 12
-3.069685 -4.9007993 1.0170197 12.5
-3.147764 -4.2125478 1.0199662 13
-2.9989996 9.1462193 1.01077 10.5
-3.1919537 3.7006981 1.3100379 15
-2.9820044 9.1499481 1.5230535 12
-3.018327 9.151206 1.871847 13
-3.0907524 9.1511221 2.2287078 14
-2.9466567 9.1529427 2.5754004 15
-2.6914299 -4.9402862 -0.29624 6
-2.4914243 -2.4947391 -0.30893514 5
-2.6570251 -2.3054543 -0.30819213 5
-2.4067459 -0.89906472 -0.31547475 4
-2.4818587 -0.63425416 -0.31473458 4
-2.5671353 -0.27636898 -0.31722975 4
-2.5789351 0.23191941 -0.31850085 4
-2.5338364 0.64850157 -0.321383 4
-2.4319773 1.0108643 -0.32365039 4
-2.6424692 2.6541445 -0.32776952 5
-2.4702108 2.8648226 -0.33110166 5
-2.6973441 5.9488506 -0.34293208 6
-2.6552036 9.1350183 -0.16746263 7
-2.5872982 9.1449909 0.1644481 8
-2.5900645 9.1555567 0.49720779 9
-2.6088073 9.1592445 0.99990147 10.5
-2.5933623 9.1680536 1.5075878 12
-2.5912809 9.1615763 1.8492147 13
-2.6267059 9.1614962 2.1989422 14
-2.5923777 9.1661959 2.5508964 15
-2.3466916 -5.1518846 -0.29814282 6
-2.103466 -2.8135021 -0.30788854 5
-2.3036005 -2.6619625 -0.30850112 5
-2.1460879 -1.3807428 -0.31391904 4
-2.3324535 -1.0667379 -0.31494722 4
-2.0126123 -0.28994361 -0.32200935 3
-2.0078027 0.2894589 -0.32135078 3
-2.2206802 1.4335417 -0.32522222 4
-2.0174518 1.7562983 -0.32860655 4
-2.2666497 3.0447705 -0.33231008 5
-2.0620193 3.2290347 -0.33548191 5
-2.2901325 6.1942692 -0.34691551 6
-2.2084906 9.1690502 0.16300218 8
-2.2076671 9.1659517 0.49248791 9
-2.2068889 9.163415 0.98935825 10.5
-2.2090948 9.1736298 1.4928689 12
-2.2076735 9.1686058 1.8314971 13
-2.209861 9.1775789 2.1777179 14
-2.2104349 9.1805439 2.5285475 15
-1.7976557 -5.4209313 -0.30100462 6
-1.8050061 -3.0461161 -0.31058338 5
-1.809357 -1.8110881 -0.31497562 4
-1.6094596 -1.2058721 -0.31837004 3
-1.7644615 -0.96498656 -0.31893113 3
-1.9210041 -0.60218722 -0.31932035 3
-1.6226617 -0.35364592 -0.32268265 2
-1.6443981 0.35885474 -0.32729983 2
-1.9469455 0.61172831 -0.32392412 3
-1.7950854 1.0270511 -0.32834649 3
-1.6537174 1.243963 -0.32801074 3
-1.8982993 1.9081415 -0.33069447 4
-1.6879207 2.1086261 -0.33211792 4
-1.7159505 3.4575059 -0.33832708 5
-1.8598657 6.4058065 -0.35060349 6
-1.9627976 9.1502066 -0.16507675 7
-1.7955304 9.1665707 0.16121885 8
-1.7963687 9.1717358 0.48796958 9
-1.7973175 9.1773806 0.98142022 10.5
-1.7965591 9.1743736 1.4787943 12
-1.7981749 9.1829567 1.8169773 13
-1.7970749 9.1787748 2.1573818 14
-1.7969999 9.178977 2.504216 15
-1.2195643 -5.6341228 -0.30362424 6
-1.3595887 -3.2870123 -0.31207144 5
-1.3878614 -2.1604583 -0.31599575 4
-1.2118673 -1.6188549 -0.32014096 3
-1.4245046 -1.4243468 -0.31944048 3
-1.3044479 -1.0135341 -0.32131645 2
-1.3466613 -0.70249385 -0.32047406 1.5
-1.3746444 -0.2996054 -0.32461986 1
-1.3757929 0.30032849 -0.32529357 1
-1.3605484 0.66189873 -0.32936317 1.3333334
-1.3873181 0.96818846 -0.33024028 2
-1.401399 1.4104124 -0.33104071 2.75
-1.2585907 1.694075 -0.33460695 3
-1.4711125 2.3063948 -0.33621496 4
-1.3049364 2.4109468 -0.33697101 4
-1.3483094 3.6544309 -0.34133914 5
-1.4177601 6.6185031 -0.35599339 6
-1.2918699 9.1836452 -0.16394213 7
-1.39107 9.1732521 0.1599132 8
-1.391505 9.1773539 0.48440355 9
-1.3923818 9.1845274 0.97459817 10.5
-1.3916365 9.1808634 1.4685671 12
-1.3913506 9.1796293 1.8025293 13
-1.3931801 9.1928663 2.1443369 14
-1.3923624 9.1881857 2.4877861 15
-1.0056146 -3.4299955 -0.31341249 5
-0.90294051 -2.4201927 -0.31740236 4
-1.086745 -2.3798952 -0.32146224 4
-0.9687947 -1.7735772 -0.32050696 3
-0.9961167 -1.3299379 -0.32314891 2
-0.99667376 -0.99607998 -0.32269639 1
-1.054999 -0.69101638 -0.32504445 0.25
-1.1752325 -0.25615561 -0.32204887 0
-1.1892346 0.25967923 -0.326395 0
-1.0721791 0.6936031 -0.32988021 0.25
-0.97581655 0.9840793 -0.33314222 0.75
-0.97078562 1.4113934 -0.33445758 2
-1.0068637 1.8631181 -0.33637941 3
-1.044529 2.5523105 -0.33925855 4
-0.96109378 3.8302593 -0.34642333 5
-0.95162678 6.7785244 -0.36024642 6
-0.99213719 9.1892338 0.15907158 8
-0.99169987 9.1851835 0.48188064 9
-1.0251365 9.1897278 1.0241841 10.666667
-0.89335811 9.2016201 0.80636811 10
-0.99181432 9.1908607 1.4617136 12
-1.0248836 9.1886263 1.7947633 13
-1.0258815 9.2000189 1.7967993 13
-0.89251763 9.1985321 2.1308448 14
-1.0934761 9.2084894 2.1383159 14
-1.0913848 9.191988 2.4776423 15
-0.89321822 9.2071123 2.4757435 15
-0.76204222 -3.5092437 -0.31488106 5
-0.64628875 -2.5303783 -0.32113725 4
-0.6101191 -1.9433585 -0.32311553 3
-0.62210834 -1.3985291 -0.32358283 1.5
-0.67404872 -1.0653634 -0.32552043 0.25
-0.63800466 1.0609765 -0.33374527 0
-0.64734519 1.3970919 -0.33606288 1.3333334
-0.54388034 1.6661606 -0.34127223 2
-0.55658871 2.0721149 -0.34083357 3
-0.67729521 2.7050614 -0.34313256 4
-0.55169445 3.9521608 -0.34999976 5
-0.4697738 6.9040399 -0.36444488 6
-0.62859583 9.2015066 -0.16340433 7
-0.59494495 9.1932602 0.15831797 8
-0.62754643 9.1898985 0.48024574 9
-0.62868351 9.2065601 0.48106793 9
-0.75990784 9.1930227 0.80449128 10
-0.60181588 9.2025642 0.99952924 10.6
-0.75929826 9.1889029 1.4576446 12
-0.56296486 9.2197857 1.4601802 12
-0.69363099 9.1969337 1.7899891 13
-0.4962396 9.2122402 1.7902795 13
-0.7594949 9.1945086 2.1270676 14
-0.56231719 9.2130632 2.1279669 14
-0.62723136 9.1972198 2.4670115 15
-0.62816781 9.2105989 2.470854 15
-0.35975957 -1.6409167 -0.32627258 2
-0.35385451 -1.3733245 -0.32712427 1
-0.30584216 -1.1837479 -0.32711667 0
-0.19329688 1.3534404 -0.34012231 0.5
-0.20782329 1.7525804 -0.34394023 2
-0.21870793 2.151185 -0.34310371 3
-0.38657528 2.7852468 -0.34585473 4
-0.095107101 2.8146 -0.3452825 4
-0.26853845 3.994606 -0.3512657 5
-0.2327287 9.205862 0.15803491 8
-0.36349136 9.1830225 0.47892901 9
-0.16680583 9.2119589 0.48002589 9
-0.23205696 9.1940279 1.0181707 10.666667
-0.10079578 9.2158356 0.80334651 10
-0.19930182 9.2075558 1.4556607 12
-0.19906786 9.2062912 1.7868358 13
-0.10005935 9.1986914 2.1203766 14
-0.29781085 9.2048483 2.1230054 14
-0.19891164 9.2086611 2.4647198 15
0.34555182 -5.9253435 -0.31241786 6
0.23583493 -3.6503096 -0.32070178 5
0.27171996 -2.6296344 -0.32518092 4
0.21130477 -2.0641761 -0.32902494 3
0.20079394 -1.6778042 -0.32909101 2
0.18937624 -1.3355657 -0.33024961 0.60000002
0.34420982 -1.1942879 -0.33309308 0
0.16641712 1.3469362 -0.33879742 0.5
0.17802134 1.7480164 -0.34232342 2
0.18660642 2.1590638 -0.34277618 3
0.39893758 2.7864828 -0.34363341 4
0.19821717 2.8131588 -0.34426552 4
0.14924715 4.031816 -0.34983683 5
0.02455375 6.963953 -0.35889149 6
0.039715331 9.1856022 -0.15209551 7
0.30287126 9.194088 0.16935603 8
0.10548879 9.2084169 0.16933638 8
0.17074363 9.1896067 0.49065253 9
0.17009459 9.1943865 1.0303591 10.666667
0.20326601 9.2033339 0.97736847 10.5
0.037785884 9.190835 1.4654325 12
0.23570217 9.2029686 1.4681518 12
0.20252602 9.209527 1.8010802 13
0.20220998 9.2108717 2.1379397 14
0.20163837 9.2068539 2.4789486 15
0.43155378 -5.9386191 -0.31339225 6
0.65651649 -3.6312013 -0.32365257 5
0.66027904 -2.5934248 -0.32913437 4
0.43551901 -2.0192127 -0.32734534 3
0.59391123 -1.8612752 -0.33023199 2.6666667
0.59669793 -1.4099802 -0.33415374 1.3333334
0.61200517 -1.0725013 -0.33333433 0
0.57695597 1.1169192 -0.3408635 0
0.52500468 1.3774453 -0.34245059 1
0.58084345 1.6609725 -0.34286556 2
0.57214093 2.0982413 -0.34424686 3
0.60403532 2.7769823 -0.34693721 4
0.58480859 4.0165896 -0.3515248 5
0.52963948 7.0289116 -0.36285424 6
0.70144373 9.217474 -0.15244693 7
0.60059369 9.2017326 0.17007369 8
0.60034829 9.204133 0.49285796 9
0.69829303 9.1961136 1.1426606 11
0.56681263 9.2048693 0.92516446 10.333333
0.59986502 9.2131968 1.4729712 12
0.5989213 9.2056723 1.8042762 13
0.59895909 9.2114229 2.1426864 14
0.59891671 9.2165346 2.4868519 15
1.1521325 -15.662809 -0.27814543 7
0.92330235 -15.597221 -0.27677888 7
0.86083031 -5.9373074 -0.31565663 6
1.0492444 -3.5698957 -0.32606319 5
1.0230443 -2.4751241 -0.32936841 4
1.0030788 -1.844329 -0.33341712 3
0.97442383 -1.4109263 -0.33488446 2
0.98503 -0.99246979 -0.33656955 0.75
1.1062766 -0.58309752 -0.33880529 0
1.1381503 0.54418021 -0.34284431 0
1.0000472 1.0161461 -0.34400788 0.75
0.98092711 1.3809589 -0.34464878 1.75
1.0524019 1.9245739 -0.34748262 3
1.0027901 2.6777704 -0.34971631 4
1.0184149 3.951081 -0.35344788 5
1.0387073 7.0205665 -0.36496598 6
1.00152 9.2221823 0.17146491 8
1.0008856 9.2193584 0.49592739 9
1.0002074 9.2185059 0.98544198 10.5
0.99862927 9.2100563 1.4784793 12
0.99891436 9.2155428 1.8135005 13
0.99890411 9.2189455 2.1530228 14
0.99862039 9.2200537 2.4977055 15
1.2962141 -5.9232864 -0.31889498 6
1.4419658 -3.4765363 -0.32991287 5
1.3821155 -2.3325043 -0.33338949 4
1.2689202 -1.7010818 -0.33652285 3
1.3317183 -1.3906839 -0.33687797 2.5
1.4020972 -1.0282942 -0.33986008 2
1.3532878 -0.54436636 -0.33999243 1
1.3482473 -0.20321944 -0.34132466 0.5
1.3549693 0.1896493 -0.34294221 0.5
1.3737135 0.55657494 -0.34561282 1
1.3795257 0.98678184 -0.34550565 1.75
1.4096515 1.4005506 -0.34682751 2.5
1.3836936 1.7084955 -0.34812397 3
1.4747663 2.4701252 -0.35157651 4
1.4560771 3.8675418 -0.35763779 5
1.5564107 7.0065622 -0.36877355 6
1.3703493 9.21698 -0.15311497 7
1.4031138 9.2114019 0.17257921 8
1.4035621 9.217 0.49896753 9
1.4041941 9.2237806 0.9919343 10.5
1.4031628 9.2204618 1.4889399 12
1.4038961 9.2273569 1.8265325 13
1.4037385 9.2293711 2.1681013 14
1.4016883 9.2177153 2.5116739 15
1.7340599 -5.8773704 -0.32212436 6
1.818996 -3.3279169 -0.33209535 5
1.7222307 -2.139133 -0.33763152 4
1.9472051 -1.9482701 -0.3383683 4
1.662526 -1.3428713 -0.33918792 3
1.9063674 -0.99786532 -0.34192136 3
1.6501586 -0.58329785 -0.34197873 2
1.7514117 -0.21758598 -0.34496871 2
1.7583036 0.20135757 -0.34599757 2
1.6733696 0.57458329 -0.34587666 2
1.9045469 1.1132851 -0.34969687 3
1.7251287 1.3760247 -0.34965312 3
1.8211305 2.242135 -0.35311228 4
1.7284729 3.7500255 -0.35730749 5
1.8152521 9.2310629 0.17457627 8
1.8131194 9.2225351 0.50337929 9
1.8136293 9.226964 1.0001997 10.5
1.8146458 9.2340517 1.5027972 12
1.8150285 9.2378054 1.8428315 13
1.8123324 9.2265368 2.184247 14
1.8154466 9.2437849 2.5382531 15
2.3242168 -15.925405 -0.28468126 7
2.1738927 -5.8040547 -0.32562113 6
2.0637603 -3.2077129 -0.33388558 5
2.2933092 -3.0596817 -0.33459845 5
2.154706 -1.7361686 -0.34005919 4
2.35461 -1.511994 -0.34357089 4
2.0939274 -0.57229376 -0.34492794 3
2.1670341 -0.22880571 -0.34583154 3
2.1850376 0.21128057 -0.34830144 3
2.1206253 0.56105793 -0.34834248 3
2.0180709 0.903216 -0.35033944 3
2.2620826 1.8014703 -0.35372499 4
2.0711272 2.0513103 -0.35620832 4
2.2590518 3.4812617 -0.35908452 5
2.0006881 3.6297507 -0.35861835 5
2.0652277 6.9136906 -0.37045935 6
2.0572205 9.2316809 -0.15491895 7
2.1997545 9.2440815 0.17661043 8
2.3752878 -26.940821 0.46508291 8
2.233788 9.2416983 0.50952989 9
2.2318172 9.2358179 1.0109994 10.5
2.3841426 -27.045788 1.4158014 9
2.2349236 9.2503405 1.5201013 12
2.2309384 9.2353373 1.8602107 13
2.3765883 -26.965311 2.3611207 10
2.1252909 9.2349148 2.2015643 14
2.2321 9.2430897 2.5625727 15
2.3833807 -27.047054 3.3265064 11
2.3917363 -27.146547 4.3087573 12
2.6069615 -5.6865444 -0.32845345 6
2.5276985 -2.9128189 -0.33735031 5
2.7556236 -2.7507517 -0.34044087 5
2.4629295 -1.3428447 -0.34435737 4
2.6039081 -1.07517 -0.34593251 4
2.7576132 -0.69807214 -0.34913284 4
2.7874866 0.79133016 -0.35470554 4
2.6800585 1.084743 -0.35401565 4
2.5046525 1.4625387 -0.3549453 4
2.7481003 3.1373866 -0.36093935 5
2.510258 3.3194008 -0.36011654 5
2.5771368 6.8057356 -0.37339944 6
2.765512 9.2357292 -0.15748043 7
2.5893152 9.2467957 0.17872669 8
2.5492589 9.2331076 0.51352698 9
2.5872998 9.2423668 1.0214123 10.5
2.5876782 9.2453651 1.5338607 12
2.5889797 9.2513409 1.8812549 13
2.5880895 9.2493172 2.2319305 14
2.5871029 9.2469788 2.5880923 15
2.4020693 -27.268499 5.3133054 13
3.0361187 -5.539856 -0.33145964 6
2.9656701 -2.5643103 -0.34264854 5
3.1668057 -2.3645039 -0.34524721 5
2.8316267 -0.29679933 -0.34927168 4
2.85654 0.27740878 -0.35180169 4
2.8248115 0.58633918 -0.35326567 4
3.1772194 2.7182791 -0.36199427 5
2.96996 2.9355831 -0.36144558 5
3.0790164 6.6487164 -0.37576714 6
2.9881775 9.2507725 0.18116924 8
2.8971095 -24.75351 0.42881343 8
2.9884961 9.2526064 0.52156192 9
2.8428321 -47.738506 0.82189596 8
2.9852374 9.2435904 0.86234599 10
2.8960147 -24.7477 1.2995417 9
2.9886355 9.2556324 1.3807678 11.5
2.9880641 9.2552729 1.9047878 13
2.8940525 -24.73451 2.1723869 10
2.9849663 9.2465878 2.2581847 14
2.8408139 -47.717045 2.492214 9
2.986053 9.2509804 2.6204023 15
2.893826 -24.736135 3.0514593 11
2.8916383 -24.721075 3.9355416 12
2.8394761 -47.707031 4.168119 10
2.8921192 -24.728798 4.8328247 13
2.8381622 -47.697483 5.8536143 11
2.8370793 -47.691906 7.5535469 12
2.8365655 -47.696014 9.2738457 13
3.5442402 -16.120243 -0.29152408 7
3.4602816 -5.3648233 -0.33470386 6
3.3415749 -2.1406848 -0.34650278 5
3.4935799 -1.900106 -0.347063 5
3.537446 2.237484 -0.36257634 5
3.3714836 2.4884942 -0.36287177 5
3.5692379 6.450335 -0.37793705 6
3.5112803 9.254529 -0.16131435 7
3.3995688 9.2581444 0.18402244 8
3.2555017 -24.745705 0.42956015 8
3.399368 9.2583952 0.52929747 9
3.5254328 -47.696411 0.82214928 8
3.3991697 9.2589025 0.8758992 10
3.2547996 -24.743576 1.3017598 9
3.3595688 9.2547026 1.3391956 11.333333
3.3981855 9.2586946 1.9319956 13
3.2542562 -24.742659 2.1770949 10
3.3962562 9.254364 2.2914755 14
3.5241847 -47.689697 2.4933615 9
3.400378 9.2661495 2.6611297 15
3.251966 -24.728519 3.056077 11
3.2518456 -24.730856 3.9442365 12
3.5243754 -47.70245 4.1718979 10
3.2527461 -24.740974 4.8439445 13
3.523098 -47.695446 5.8591561 11
3.5205443 -47.67128 7.5576944 12
3.520067 -47.675282 9.2788706 13
3.8831167 -5.1681614 -0.33864352 6
3.6565287 -1.6614015 -0.35031456 5
3.7885332 -1.4036108 -0.3522096 5
3.9414678 -0.99449664 -0.3543067 5
3.9192777 1.4237659 -0.36163482 5
3.7602878 1.8452622 -0.36326548 5
3.7429655 9.2599449 0.18651123 8
3.7952104 -24.732624 0.43084645 8
3.7821305 9.2606211 0.53702414 9
3.7845256 9.2673998 0.88917434 10
3.7943113 -24.729765 1.3052438 9
3.7432899 9.262063 1.3589122 11.333333
3.8415835 9.2659111 1.7838335 12.5
3.7919316 -24.716839 2.1817381 10
3.7822249 9.2640772 2.3262603 14
3.78736 9.2775936 2.7019804 15
3.7919443 -24.719704 3.0646255 11
3.7910414 -24.717209 3.9544408 12
3.7891748 -24.707563 4.8525538 13
3.9674165 -24.694429 5.7678189 14
3.9686956 -24.705254 6.6980128 15
4.2796626 -4.9201546 -0.34130803 6
4.0507078 -0.56958389 -0.35600871 5
4.1019263 -0.2791732 -0.35762379 5
4.1299667 0.25316364 -0.35955766 5
4.1193838 0.55117387 -0.36096168 5
4.0479131 0.99361622 -0.36196312 5
4.0485883 6.2184539 -0.38032514 6
4.3073921 9.2855606 -0.16651194 7
4.219439 9.2694893 0.19037709 8
4.3364196 -24.712822 0.43220767 8
4.2197733 9.270874 0.547001 9
4.2199855 9.271842 0.90502179 10
4.3354282 -24.709719 1.3089625 9
4.2242093 9.2817974 1.2665547 11
4.1934023 9.2738123 1.7490342 12.333333
4.335248 -24.711239 2.1891017 10
4.2463269 9.2731934 2.2466748 13.666667
4.2185574 9.2719059 2.7467799 15
4.3359375 -24.717728 3.0753412 11
4.3301802 -24.687563 3.9637687 12
4.3332405 -24.707588 4.8698015 13
4.3306432 -24.695459 5.7820964 14
4.3312788 -24.701767 6.7133436 15
4.6817794 -4.6627636 -0.34551775 6
4.5066776 5.9426079 -0.38223258 6
4.5886955 9.2737684 0.19354345 8
4.7018147 -24.713829 0.43349391 8
4.5909123 9.2789278 0.55609745 9
4.5904765 9.2784119 0.91984814 10
4.7015977 -24.715082 1.3128157 9
4.467422 9.2818012 1.2794313 11
4.5893459 9.277317 1.6548865 12
4.6994958 -24.70645 2.1945529 10
4.5504937 9.2833643 2.1514659 13.333333
4.6068993 9.2867565 2.6665795 14.666667
4.6987414 -24.704903 3.0819423 11
4.6985726 -24.706448 3.9773405 12
4.6960654 -24.695757 4.8803692 13
4.695837 -24.697048 5.7977676 14
4.6962028 -24.701498 6.7310114 15
4.8221145 -16.282526 -0.29942584 7
5.0471683 -4.3541455 -0.34821677 6
4.9353456 5.6208968 -0.38336766 6
5.1462135 9.2863398 -0.17246915 7
4.9753656 9.2902699 0.1972255 8
5.0684433 -24.710983 0.4348124 8
5.0567274 9.2815123 0.56787193 9
5.0555363 9.2797327 0.93911052 10
5.0673189 -24.707769 1.3162882 9
4.9733758 9.2862139 1.3086571 11
5.0594287 9.2878342 1.6911141 12
5.0649409 -24.698463 2.2002039 10
5.0609665 9.2910872 2.0732751 13
5.0634179 9.2961855 2.4614241 14
5.0650134 -24.701101 3.0903449 11
4.9713726 9.2845697 2.8403387 15
5.0630884 -24.694029 3.9867523 12
5.0608425 -24.685425 4.8922982 13
5.0629759 -24.698168 5.8146095 14
5.0621099 -24.696348 6.7488256 15
5.402389 -4.0244431 -0.35155594 6
5.3483562 5.2754502 -0.38507715 6
5.4137459 9.2915974 0.20135839 8
5.4356141 -24.701153 0.43610886 8
5.412756 9.2903738 0.57776189 9
5.413269 9.2915583 0.95572031 10
5.4328084 -24.690571 1.3195271 9
5.4137926 9.292963 1.3361417 11
5.4119239 9.2900581 1.7191888 12
5.430408 -24.681837 2.2055714 10
5.327065 9.298254 2.0999558 13
5.5151377 9.3145542 2.5170848 14
5.4304614 -24.684252 3.0977974 11
5.5063987 9.3002672 2.9148273 15
5.4334493 -24.699995 4.0000186 12
5.4298344 -24.685806 4.9074345 13
5.4289598 -24.684076 5.8291531 14
5.4273181 -24.678905 6.7647643 15
5.9468141 -5.0190277 -0.13419759 7
5.939527 -4.5918341 -0.12920171 7
5.926857 -4.188592 -0.12463673 7
5.8673906 -3.7898922 -0.19935264 6.6666665
5.7190466 4.884213 -0.38561767 6
5.9529901 -5.4001923 0.14199881 8
5.9429836 -5.0160847 0.13764769 8
5.9426789 -4.5946174 0.26473102 8.5
5.9346833 -4.1945114 0.25638497 8.5
5.925673 -3.8474598 0.24947999 8.5
5.7827005 9.3009033 0.20513882 8
5.8033595 -24.685101 0.43739656 8
5.9597273 -5.4066811 0.56492496 9.5
5.9515533 -5.0415554 0.54773241 9.5
5.9411259 -4.593605 0.65975589 10
5.930954 -4.1920509 0.63841259 10
5.9282742 -3.8495855 0.62161988 10
5.7831392 9.3018637 0.5886246 9
5.9575167 -5.443985 0.99336368 11
5.9501119 -5.0227942 0.95882243 11
5.9485154 -4.5436344 1.0107708 11.333333
5.9331937 -4.1941509 1.0249683 11.5
5.9227576 -3.8462429 0.99651134 11.5
5.7823739 9.3011942 0.97344339 10
5.8008595 -24.676538 1.3232311 9
5.9602294 -5.4081097 1.4225255 12.5
5.9535561 -5.0440564 1.3792853 12.5
5.9465489 -4.6324954 1.3778064 12.666667
5.9365201 -4.165081 1.4136566 13
5.9277 -3.84987 1.3781587 13
5.8770962 9.3050461 1.3673406 11
5.9622345 -5.4103451 1.8620661 14
5.9499269 -5.0234981 1.8013995 14
5.9434342 -4.4616818 1.8573222 14.5
5.9405088 -4.2001262 1.819034 14.5
5.9319124 -3.8529472 1.7688521 14.5
5.6876655 9.2982836 1.7429323 12
5.8041344 -24.692503 2.2138765 10
5.9653654 -5.413538 2.1620991 15
5.9536686 -5.0269737 2.0918314 15
5.9475851 -4.6334162 2.024389 15
5.7841702 9.3051348 2.1471891 13
5.7832274 9.3039913 2.5474503 14
5.8011751 -24.682009 3.1077762 11
5.7791519 9.2978354 2.9525599 15
5.8002906 -24.68034 4.0100312 12
5.8003745 -24.682814 4.9230051 13
5.7991714 -24.679842 5.8473258 14
6.1462259 -16.357056 -0.30750754 7
6.2520132 -3.6862671 -0.12412558 7
6.0444417 -3.2793264 -0.35809189 6
6.3430619 -2.8745441 -0.36222973 6
6.3698039 4.0239015 -0.38664743 6
6.0530581 4.4610176 -0.38568863 6
6.0652003 9.3031693 -0.18023795 7
6.2526846 -3.6869881 0.25657424 8.5
6.1614289 9.3038445 0.20907228 8
6.259326 -3.6912274 0.63935149 10
6.0668645 9.3064079 0.59704739 9
6.2477059 -3.6846976 1.0239269 11.5
6.1664548 9.3121281 0.9927541 10
6.2465277 -3.6844225 1.4143897 13
6.1581011 9.299902 1.3858411 11
6.2473731 -3.6852398 1.814311 14.5
6.1603112 9.3034735 1.7843431 12
6.1666975 9.3134375 2.1891012 13
6.1648898 9.3111897 2.5968466 14
6.1645656 9.3110199 3.0117426 15
6.1706409 -24.671127 5.8657594 14
6.1682773 -24.663778 6.8065925 15
6.6738257 -3.6810591 -0.1301624 7
6.590312 -2.4347384 -0.36502153 6
6.6253881 3.5485003 -0.38592705 6
6.6370044 -3.6818531 0.22341734 8.333333
6.5616369 9.3162766 0.2135351 8
6.6990538 -3.6748688 0.58249372 9.666667
6.5604649 9.3148165 0.61237371 9
6.628468 -3.6778519 1.0243613 11.333333
6.4580078 9.3116188 1.0072615 10
6.7010636 -3.6766202 1.3984113 12.666667
6.5598984 9.314785 1.4155596 11
6.6642199 -3.6774216 1.7627908 14
6.5645995 9.32166 1.8232405 12
6.6603141 -3.6755412 2.0442994 15
6.5617719 9.3179455 2.2335351 13
6.5601654 9.3160133 2.649648 14
6.5642715 9.322175 3.0750544 15
7.0155406 -3.6757073 -0.13511054 7
6.8102188 -1.9750724 -0.36798391 6
7.0064383 -1.4980857 -0.37139454 6
7.1513271 -1.0005473 -0.37387967 6
7.187129 2.0405567 -0.38451946 6
7.0434747 2.5577049 -0.38534015 6
6.8623962 3.0646911 -0.38618091 6
7.0873966 9.333703 -0.19010623 7
7.0037513 -3.6697836 0.14150415 8
7.080514 9.3249235 0.21943407 8
7.0194082 -3.6783144 0.55843282 9.5
6.9783812 9.328021 0.62616837 9
7.0007524 -3.6689219 0.97508478 11
6.9718599 9.3194914 1.0345862 10
7.0082431 -3.6731946 1.400879 12.5
7.0873976 9.3347664 1.4562386 11
7.0029144 -3.6707749 1.8312297 14
6.97399 9.3228617 1.8618731 12
7.0077405 -3.6735454 2.1263447 15
6.8774281 9.3337498 2.2721567 13
6.8677201 9.3209 2.6923137 14
6.9708695 9.3197069 3.1389449 15
7.5122957 -16.339489 -0.31580004 7
7.2668219 -3.6754563 -0.13881938 7
7.2637467 -0.49005121 -0.37652472 6
7.3648486 0.45438579 -0.38087827 6
7.3339877 0.9833321 -0.38155878 6
7.2890387 1.5152245 -0.38351595 6
7.3778586 -3.6647141 0.14757948 8
7.4044394 9.3272762 0.22320627 8
7.3768754 -3.6646864 0.58053625 9.5
7.4050999 9.3282175 0.64018822 9
7.3869033 -3.6699343 1.0177367 11
7.4030757 9.3259764 1.0584465 10
7.3347983 -3.6663897 1.4016985 12.333333
7.4121618 9.3375406 1.4812914 11
7.4165969 -3.6633935 1.8143642 13.666667
7.40312 9.3264523 1.9042146 12
7.36516 -3.6602306 2.2104633 15
7.4066386 9.3311262 2.3348181 13
7.4065347 9.3312035 2.7703996 14
7.3057799 9.3421698 3.1985295 15
7.518352 9.3349199 3.2326241 15
7.7772288 -3.6575685 0.15411536 8
7.858398 9.3360405 0.22871719 8
7.7763882 -3.6575463 0.60593063 9.5
7.8532381 9.3302383 0.65551102 9
7.7843513 -3.6616545 1.0615571 11
7.7466469 9.3397207 1.0786002 10
7.7590933 -3.6500595 1.3638145 12
7.8657236 9.3453999 1.5176938 11
7.7816873 -3.661041 1.83503 13.5
7.8596835 9.3384399 1.9518785 12
7.76473 -3.6534767 2.3064203 15
7.7517891 9.3465872 2.379703 13
7.9757662 9.3407183 2.4070647 13
7.8574762 9.3364038 2.8376622 14
7.7444391 9.338212 3.2718716 15
8.2046747 9.3331614 -0.20156242 7
8.2094297 9.3389492 0.66831678 9
8.2202206 9.3513994 1.1066965 10
8.2104053 9.3404512 1.5450884 11
8.2229309 9.3548727 1.9916598 12
8.2189455 9.3505478 2.439692 13
8.212923 9.3439121 2.8927605 14
8.2122746 9.3433847 3.354795 15
8.4548111 9.3442278 0.23615484 8
8.4648304 9.355648 1.1214277 10
8.45368 9.3442879 3.3982599 15
8.9430609 -16.274847 -0.3253229 7
10.42569 -16.123812 -0.33550274 7
11.93449 -15.846297 -0.34566626 7
12.629882 -47.536556 0.84885174 8
12.627595 -47.531609 2.5677092 9
12.624967 -47.525375 4.2923527 10
12.62209 -47.51823 6.0269589 11
12.619648 -47.51276 7.7762146 12
12.610437 -47.481861 9.5393782 13
13.505065 -15.490288 -0.35702604 7
13.361544 -47.540154 0.85255581 8
13.356044 -47.52412 2.5776803 9
13.351957 -47.513115 4.3083782 10
13.347804 -47.501904 6.0488138 11
13.346525 -47.500935 7.8050628 12
13.347141 -47.506748 9.5820999 13
14.092452 -47.52095 0.85606205 8
14.087618 -47.50806 2.5878024 9
14.080452 -47.487328 4.3241935 10
14.08079 -47.491905 6.072907 11
14.077628 -47.484711 7.8350286 12
14.073597 -47.474632 9.6155939 13
15.097719 -15.002217 -0.36859965 7
14.832045 -47.511353 0.85995585 8
14.825353 -47.493233 2.5986173 9
14.827244 -47.502598 4.3447957 10
14.81944 -47.480953 6.0983372 11
14.816095 -47.473602 7.8677149 12
14.811099 -47.461006 9.655118 13
15.569863 -47.476955 0.8636182 8
15.568216 -47.475143 2.6098924 9
15.56698 -47.474602 4.3625078 10
15.570251 -47.487816 6.1275554 11
15.557145 -47.451134 7.9004278 12
15.557062 -47.454189 9.6983824 13
16.330032 -47.490189 0.86837059 8
16.320938 -47.466877 2.6223595 9
16.320862 -47.469795 4.3834319 10
16.312433 -47.448448 6.1523218 11
16.308128 -47.439121 7.9368286 12
16.306608 -47.437916 9.7421141 13
17.078869 -47.453049 2.6351886 9
17.079506 -47.457863 4.4048119 10
17.072779 -47.442276 6.1829319 11
17.507145 -34.11478 0.66611624 8
17.484528 -32.904301 0.6476267 8
17.462688 -31.759279 0.63026744 8
17.435902 -30.664196 0.61374384 8
17.485317 -32.907585 1.9502465 9
17.470058 -31.774397 1.898031 9
17.449785 -30.690243 1.8483146 9
17.514692 -34.131359 2.0073795 9
17.460028 -31.757895 3.1684575 10
17.445705 -30.684723 3.0862958 10
17.503038 -34.110558 3.3511541 10
17.477411 -32.89452 3.2562456 10
17.447689 -30.689871 4.3328881 11
17.514902 -34.135567 4.7078028 11
17.492689 -32.925076 4.5752354 11
17.465624 -31.769798 4.4492908 11
17.4594 -30.712133 5.5937099 12
17.496866 -32.934765 5.9042311 12
17.474798 -31.788225 5.743247 12
17.522038 -34.15139 6.0764341 12
17.483528 -31.805868 7.0528598 13
17.534658 -34.17791 7.4638333 13
17.517754 -32.975914 7.2556615 13
17.487522 -31.814926 8.379487 14
17.460894 -30.718172 8.1559105 14
17.505457 -32.954659 8.6124887 14
17.53713 -34.1847 8.8671312 14
17.472216 -30.739822 9.4727182 15
17.902073 -30.461784 0.61507863 8
17.847433 -47.444687 0.87725186 8
17.906778 -30.471401 1.8507007 9
17.903255 -30.467035 3.0901771 10
17.896276 -30.456804 4.3360219 11
17.892447 -30.451937 5.5927091 12
17.891079 -30.451281 6.8638873 13
17.833637 -47.420052 8.0165148 12
17.896275 -30.461807 8.1553402 14
18.492891 -30.461123 0.62067384 8
18.621563 -47.432766 0.88224709 8
18.491444 -30.460342 1.8662403 9
18.622601 -47.438324 2.6636369 9
18.618864 -47.431736 4.450789 10
18.476122 -30.439991 5.6388359 12
18.615189 -47.425339 6.2483745 11
18.475182 -30.440098 6.9205956 13
18.608982 -47.412506 8.0598192 12
18.467068 -30.430117 9.5369768 15
19.080481 -30.438822 0.62605494 8
19.086847 -30.452173 3.1434774 10
19.079758 -30.442482 4.4106174 11
19.066101 -30.423973 6.9785957 13
19.07041 -30.432508 8.2909622 14
19.073154 -30.438578 9.624547 15
19.405464 -47.424168 0.88755035 8
19.396639 -47.405479 2.6774931 9
19.395412 -47.40535 4.4742904 10
19.390902 -47.397224 6.2809801 11
19.38814 -47.393394 8.1033001 12
19.692474 -30.438789 0.63212961 8
19.683702 -30.426825 1.8986182 9
19.689192 -30.436899 3.1710091 10
19.690187 -30.440031 4.4509811 11
19.681482 -30.428202 5.7393746 12
19.677702 -30.423992 7.04283 13
19.670059 -30.413839 8.362072 14
20.312611 -30.433821 0.63834959 8
20.19318 -47.403435 0.89287788 8
20.298086 -30.413647 1.9160788 9
20.191603 -47.402534 2.6937709 9
20.307655 -30.42956 3.2005489 10
20.187393 -47.395481 4.5005646 10
20.294592 -30.411585 4.4891868 11
20.292013 -30.409327 5.7903566 12
20.18144 -47.384354 6.3173032 11
20.283823 -30.398685 7.1038041 13
20.17618 -47.374882 8.1490746 12
20.284729 -30.40169 8.4380465 14
20.931648 -30.410086 0.64442861 8
20.992743 -47.388977 0.89858121 8
20.933393 -30.41419 1.9351493 9
20.988029 -47.3811 2.709753 9
20.929502 -30.410114 3.2300391 10
20.987556 -47.382805 4.5278277 10
20.924643 -30.404638 4.5322666 11
20.925732 -30.407818 5.8468618 12
20.990061 -47.391254 6.3580308 11
20.917292 -30.397175 7.1730433 13
20.979368 -47.369938 8.1994419 12
20.910278 -30.388626 8.5169821 14
21.801693 -47.373631 0.90453297 8
21.799702 -47.372032 2.7272165 9
21.79586 -47.366421 4.5560231 10
21.792463 -47.361794 6.3956857 11
21.783598 -47.345303 8.2487183 12
22.38862 24.016973 0.61417949 8
22.386389 24.015018 1.7623962 9
22.395864 24.025618 2.9162395 10
22.665857 23.627237 0.61242038 8
22.6238 -47.364323 0.91087335 8
22.678698 23.641014 1.7585684 9
22.619488 -47.357975 2.7451916 9
22.679813 23.642578 2.9088345 10
22.682245 23.645515 4.0666175 11
22.400427 24.030949 4.0773554 11
22.611111 -47.34314 4.584868 10
22.696835 23.661119 5.237546 12
22.414333 24.046305 5.2512555 12
22.605192 -47.333469 6.4353189 11
22.708267 23.673441 6.4222116 13
22.424797 24.05797 6.4387841 13
22.712271 23.67803 7.6218681 14
22.430452 24.064489 7.6421189 14
22.607239 -47.340485 8.3038263 12
22.725508 23.692244 8.8451557 15
22.437405 24.072409 8.8662453 15
22.965866 -6.6405206 -0.40365726 7
22.997669 -8.1020288 0.43867984 8
22.994488 -7.7329526 0.43678626 8
22.9823 -7.3646131 0.43482944 8
22.988386 -7.005537 0.43332246 8
22.978643 -6.6448269 0.4316197 8
22.952909 23.25107 0.61108685 8
23.002127 -8.1042519 1.2916524 9
23.009432 -7.7386174 1.2860456 9
23.005213 -7.3725805 1.2801132 9
22.995459 -7.0083146 1.274189 9
22.980165 -6.6458817 1.2682694 9
22.956392 23.254959 1.7540815 9
23.017611 -8.1103573 2.1491585 10
23.011766 -7.7400475 2.1383963 10
22.990425 -7.3684845 2.1267407 10
22.986094 -7.0060906 2.1171887 10
22.972996 -6.6444287 2.1073468 10
23.014915 -8.1100693 3.0107405 11
23.000872 -7.7370386 2.9944704 11
22.994349 -7.3703809 2.9799387 11
22.993977 -7.0091219 2.9669394 11
22.991844 -6.6504951 2.9544311 11
22.963215 23.26223 2.902153 10
23.024553 -8.11413 3.8816679 12
23.006502 -7.7395873 3.8599284 12
23.011242 -7.3764353 3.8429854 12
23.00391 -7.0127826 3.8249738 12
23.001602 -6.6539412 3.8087292 12
22.962172 23.261539 4.0566707 11
23.027737 -8.1159239 4.7617145 13
23.025124 -7.7465086 4.7381496 13
23.011503 -7.3771734 4.7135205 13
23.006266 -7.0141444 4.6917858 13
23.003695 -6.6551805 4.6717343 13
23.018133 -7.3799596 5.5975728 14
23.004526 -7.0142679 5.5696778 14
23.008993 -6.6573548 5.5475121 14
22.974424 23.274313 5.2241678 12
23.036268 -8.1196136 5.6553907 14
23.01602 -7.7441225 5.6230383 14
23.042219 -8.1224022 6.5635471 15
23.034327 -7.7509599 6.5294499 15
23.016075 -7.3799748 6.4940863 15
23.01252 -7.0173655 6.4644942 15
23.016693 -6.6602335 6.4386349 15
22.978813 23.279129 6.4038091 13
22.989086 23.289909 7.6020842 14
22.995247 23.296534 8.8194208 15
23.324125 -10.542591 -0.43548718 7
23.219238 22.856842 -0.52872473 7
23.299599 -6.377759 0.43620139 8
23.499289 22.479797 0.60815179 8
23.215906 22.853891 0.60927439 8
23.451277 -47.343536 0.917274 8
23.251659 -6.3652673 1.2784109 9
23.488165 22.469456 1.7447541 9
23.228395 22.866503 1.7496387 9
23.309834 -6.3817892 2.1299653 10
23.452192 -47.348042 2.7642269 9
23.292789 -6.3777509 2.9813912 11
23.502441 22.4834 2.887677 10
23.246845 22.884981 2.8962669 10
23.272596 -6.3728557 3.838438 12
23.515818 22.496481 4.0389471 11
23.239429 22.878019 4.0473514 11
23.447065 -47.340347 4.6170607 10
23.259245 -6.3698349 4.704978 13
23.51722 22.498123 5.1989031 12
23.283792 -6.3771915 5.5915341 14
23.249136 22.887899 5.2115726 12
23.526215 22.507025 6.3740697 13
23.250576 22.889652 6.3875499 13
23.439272 -47.327293 6.4798622 11
23.269758 -6.3740048 6.483602 15
23.534599 22.515347 7.5660992 14
23.259438 22.898712 7.5822845 14
23.437635 -47.326691 8.359827 12
23.541143 22.521917 8.7777615 15
23.279238 22.918545 8.8015766 15
23.757956 22.084846 0.60654187 8
23.767899 22.094339 1.7418047 9
23.788261 22.113523 2.8835518 10
23.780317 22.106407 4.0295634 11
23.789345 22.115057 5.1884956 12
23.801142 22.126287 6.3620391 13
23.802258 22.127594 7.5494895 14
23.818609 22.143064 8.7620716 15
24.296915 21.322721 0.60431778 8
24.307192 21.331932 1.7357104 9
24.035635 21.71035 1.738408 9
24.044115 21.718235 2.8765261 10
24.325842 21.34869 4.0166349 11
24.062811 21.735346 4.0242357 11
24.06595 21.738413 5.1803641 12
24.338911 21.360563 6.3395538 13
24.334349 21.356766 7.5210629 14
24.080732 21.752234 7.5382152 14
24.362539 21.381706 8.7332001 15
24.089729 21.760597 8.7462549 15
24.556932 20.9363 -0.52404028 7
24.568394 -6.348217 0.4585132 8
24.570969 20.948427 0.60352707 8
24.56349 -6.3475904 1.3456895 9
24.580063 20.956345 1.7335134 9
24.593048 -6.3558607 2.2389474 10
24.573744 -6.3515239 3.1336412 11
24.583529 20.959469 2.8679278 10
24.564728 -6.3498478 4.0363808 12
24.588772 20.964109 4.0100088 11
24.554117 -6.3477659 4.9482374 13
24.602962 20.976374 5.1643929 12
24.584194 -6.3561993 5.8815684 14
24.611555 20.983864 6.3315973 13
24.562365 -6.3512416 6.8179121 15
24.610296 20.982973 7.5126581 14
24.622276 20.993361 8.7175989 15
24.91819 -9.1798763 -0.45009857 7
25.100172 20.188166 0.60187942 8
24.843147 20.573849 0.60282087 8
25.114273 20.199619 1.7294927 9
25.128061 20.210819 2.8625722 10
24.864077 20.591463 2.8658845 10
25.132572 20.21456 4.0024605 11
24.857288 20.585983 4.0052409 11
25.135262 20.216837 5.1523032 12
24.871237 20.59767 5.1581941 12
25.137178 20.218491 6.3150897 13
24.882967 20.607525 6.324789 13
25.158855 20.236036 7.499939 14
24.888922 20.612751 8.706542 15
25.370382 19.81428 0.60138321 8
25.395866 19.834261 1.7290437 9
25.402317 19.839386 2.861059 10
25.397642 19.835913 5.1472445 12
25.410465 19.846014 6.3116126 13
25.409069 19.845015 7.4889617 14
25.432617 19.863489 8.6939526 15
25.909513 19.067118 -0.52297491 7
25.901466 19.06123 0.60053718 8
25.916191 19.072104 1.7263331 9
25.658871 19.45492 1.7276932 9
25.935635 19.086443 2.8581517 10
25.648825 19.447371 2.8570604 10
25.938562 19.088634 3.9961538 11
25.6819 19.472502 3.9992733 11
25.94116 19.090582 5.1442447 12
25.664915 19.459692 5.1443095 12
25.940374 19.090038 6.3046126 13
25.670565 19.464035 6.3062434 13
25.943583 19.09244 7.482028 14
25.686817 19.476419 7.487752 14
25.969931 19.111858 8.6867037 15
25.69169 19.480179 8.6861687 15
26.182602 18.69644 0.60065055 8
26.195326 18.705536 1.726776 9
26.190063 18.701792 2.8562601 10
26.213598 18.718605 3.9966965 11
26.213385 18.718479 6.3050508 13
26.216627 18.720804 7.4825683 14
26.240034 18.737528 8.6862831 15
26.719984 17.948183 0.60064214 8
26.440258 18.314808 0.60034049 8
26.716328 17.945692 1.7262409 9
26.44849 18.320498 1.7258568 9
26.725498 17.951818 2.8571215 10
26.463064 18.330574 2.8569784 10
26.739944 17.961485 3.9965885 11
26.470968 18.336039 3.9953637 11
26.739874 17.961405 5.1443934 12
26.475687 18.339296 5.1437058 12
26.740185 17.961576 6.3051472 13
26.761482 17.975838 7.4877591 14
26.490019 18.349197 7.4847026 14
26.759588 17.974533 8.6839867 15
26.498146 18.354811 8.6836948 15
26.989252 17.573801 0.60081655 8
26.991877 17.575459 1.7274503 9
26.99181 17.575357 2.8582404 10
27.014248 17.589909 3.9993775 11
27.001419 17.581499 5.1455984 12
27.012997 17.588974 6.3092856 13
27.0252 17.596863 7.4901233 14
27.034262 17.602703 8.6902742 15
27.231428 17.181696 -0.52423054 7
27.514214 16.814381 0.60119003 8
27.247404 17.191612 1.7277076 9
27.25964 17.199255 2.8600667 10
27.276222 17.209637 4.0011067 11
27.534157 16.82617 5.1528239 12
27.273363 17.207752 5.1497755 12
27.548321 16.834717 6.3187585 13
27.286821 17.21616 6.3148489 13
27.28727 17.21636 7.4934955 14
27.30098 17.224928 8.6956587 15
27.895863 -5.9422011 -0.4797582 7
27.786291 16.439161 0.60174561 8
27.782295 16.436678 1.7307054 9
27.794373 16.443703 2.8652241 10
27.80607 16.450502 4.0077128 11
27.821438 16.459343 6.3265095 13
27.820093 16.458422 7.506907 14
27.842598 16.471605 8.7139387 15
28.311665 15.673885 0.60276169 8
28.053253 16.059591 0.60229313 8
28.327242 15.682348 1.7355695 9
28.05957 16.063066 1.7332815 9
28.339626 15.689044 2.8735394 10
28.062788 16.06477 2.8686974 10
28.340731 15.689493 4.0179644 11
28.074581 16.071379 4.0126438 11
28.341347 15.689671 5.1723337 12
28.069469 16.068316 5.1643777 12
28.088083 16.078817 6.3339453 13
28.36207 15.700809 7.5283017 14
28.11919 16.096472 7.5244431 14
28.382532 15.711962 8.7380648 15
28.102846 16.086971 8.7221994 15
28.577188 15.290888 -0.52865177 7
28.602631 15.30432 0.60402066 8
28.602009 15.303806 1.7385929 9
28.606779 15.306178 2.8779032 10
28.618099 15.312053 4.0255818 11
28.618095 15.311871 5.1820846 12
28.630161 15.31814 6.354218 13
28.634821 15.320444 7.5414762 14
28.644516 15.325439 8.750041 15
29.131222 14.530492 0.60570651 8
28.879887 14.924826 1.7420995 9
29.153738 14.541286 2.8894007 10
28.875631 14.922427 2.8829432 10
29.156939 14.542663 4.0406823 11
28.886803 14.927999 4.0326815 11
28.89476 14.93191 5.1927137 12
29.151445 14.539702 5.2006674 12
29.175322 14.551382 6.3796277 13
28.902195 14.935545 6.3662505 13
29.180855 14.553916 7.5719151 14
28.910465 14.93961 7.5567274 14
28.910332 14.939332 8.76476 15
29.225796 -4.0687408 -0.49447295 7
29.406456 14.145907 0.60692447 8
29.415237 14.149896 1.7487723 9
29.429777 14.156653 2.8961387 10
29.423943 14.153609 4.0489497 11
29.444286 14.163153 5.2159553 12
29.446657 14.16405 6.3937135 13
29.451256 14.166018 7.5884194 14
29.462475 14.171162 8.8049746 15
29.951702 13.366838 -0.53613877 7
29.966923 13.37336 0.60984963 8
29.685089 13.760338 0.6083073 8
29.959854 13.369932 1.7571759 9
29.685871 13.760448 1.7527294 9
29.979439 13.378398 2.9108353 10
29.9781 13.377528 4.0703111 11
29.716497 13.774129 4.0614047 11
29.990894 13.382958 5.2422228 12
29.705935 13.768977 5.2265978 12
29.993565 13.383868 6.4260726 13
29.729137 13.779467 6.4112949 13
29.730854 13.779999 7.6085796 14
29.743711 13.785686 8.8288555 15
30.237442 12.978422 0.61125708 8
30.247606 12.982493 1.7627141 9
30.257082 12.986268 2.9191818 10
30.257277 12.986061 4.0822911 11
30.280872 12.995892 5.2595773 12
30.2959 13.001737 7.6541858 14
30.001844 13.38728 7.6278224 14
30.29796 13.002314 8.8786163 15
30.010494 13.390849 8.849947 15
30.407551 -2.0336347 -0.50880009 7
30.797827 12.187437 0.61474454 8
30.522606 12.586652 0.61305368 8
30.529572 12.589216 1.7681963 9
30.532906 12.590283 2.9278343 10
30.572958 12.605857 6.4696364 13
30.568626 12.603421 8.9038401 15
31.086559 11.790012 0.6167978 8
31.094637 11.792733 1.7800782 9
30.80517 12.190018 1.7735962 9
31.091854 11.791335 2.9472802 10
30.814735 12.193477 2.937542 10
31.116671 11.800398 4.1251631 11
30.827299 12.19812 4.1098218 11
31.12949 11.804911 5.3130879 12
30.826775 12.197579 5.2909837 12
31.13732 11.807527 6.5142303 13
30.839333 12.202215 6.4880791 13
31.140316 11.808306 7.7312655 14
30.848524 12.205513 7.7017322 14
31.141642 11.808444 8.9679193 15
30.852573 12.206768 8.9344101 15
31.36245 11.384359 -0.54672921 7
31.376263 11.388294 2.9581883 10
31.38657 11.391674 4.1386018 11
31.40027 11.396279 5.3306074 12
31.41544 11.401414 6.5372834 13
31.415899 11.401205 7.7580433 14
31.432545 11.406864 9.0034037 15
31.959064 10.575695 0.62363428 8
31.658724 10.981401 0.62107682 8
31.964016 10.576942 1.8012711 9
31.667034 10.983909 1.7935168 9
31.960333 10.575328 2.9828644 10
31.970354 10.578248 4.173295 11
31.68984 10.991062 4.1571059 11
31.984234 10.582441 5.3754473 12
31.683342 10.988424 5.3510914 12
31.993681 10.58516 6.5911674 13
31.708942 10.996916 6.564599 13
31.996931 10.585825 7.8227754 14
31.709553 10.996734 7.7905483 14
31.715014 10.998229 9.037941 15
32.062325 1.9906588 -0.53289199 7
32.254395 10.163684 0.62618661 8
32.242001 10.159369 1.8082443 9
32.250942 10.161776 2.9957857 10
32.305882 10.177402 7.8615265 14
32.310169 10.178316 9.1200151 15
32.670547 4.3894773 -0.54498845 7
32.533928 9.7422276 0.62852627 8
32.550518 9.746767 1.8172137 9
32.540806 9.743432 3.009119 10
32.564037 9.7499571 4.211956 11
32.580971 9.7545948 5.4258871 12
32.580441 9.7539949 6.6510787 13
32.586586 9.7553911 7.89468 14
32.598194 9.7584114 9.1605654 15
32.997486 6.8644576 -0.55544716 7
32.830231 9.3216114 -0.56076467 7
32.835346 9.3226223 0.6313833 8
33.153458 8.9018497 1.8352236 9
32.853981 9.3274708 1.8261851 9
33.163887 8.9041862 3.0412285 10
32.85611 9.3276281 3.0252814 10
33.177486 8.9073753 4.2558656 11
32.866409 9.3301058 4.2330117 11
33.177025 8.9067802 5.4797111 12
32.885395 9.3350439 5.4534168 12
33.186462 8.9088402 6.7192206 13
32.88073 9.3332605 6.6840563 13
33.192814 8.9100647 7.9756994 14
32.890125 9.3354664 7.9346504 14
32.894939 9.33636 9.2050638 15
33.456089 8.4722271 0.63772136 8
33.470451 -47.157074 1.0098635 8
33.457863 8.4722013 1.8448268 9
33.463608 -47.149853 3.0307167 9
33.464993 8.4735279 3.0570531 10
33.470062 8.4743299 4.2770376 11
33.475784 -47.169437 5.0611663 10
33.474415 8.474947 5.5078597 12
33.504005 8.4819469 6.7578545 13
33.457855 -47.146626 7.0992889 11
33.455048 -47.145142 9.157074 12
33.520977 8.4852381 9.3076305 15
33.206364 8.9132137 9.2551594 15
33.755478 8.0358562 0.64082402 8
33.759056 8.0362167 1.8545489 9
33.767014 8.0376139 3.0734572 10
33.784988 8.0413933 4.3017607 11
33.791252 8.0423841 5.5401006 12
33.807571 8.0457573 6.7947669 13
33.811275 8.0461235 8.0648375 14
33.825748 8.0490437 9.3588867 15
34.392357 7.15417 0.64804262 8
34.076935 7.598835 0.64444155 8
34.072327 7.5972972 1.8652321 9
34.079449 7.5983729 3.0913088 10
34.109993 7.6030884 8.1088867 14
34.123093 7.6054664 9.4096432 15
34.701374 6.7019172 0.651622 8
