# .PCD v0.7 - Point Cloud Data file format
VERSION 0.7
FIELDS x y z intensity
SIZE 4 4 4 4
TYPE F F F F
COUNT 1 1 1 1
WIDTH 1400
HEIGHT 1
VIEWPOINT 0 0 0 1 0 0 0
POINTS 1400
DATA ascii
-15.438187 3.0254419 0.27524835 8
-15.445876 3.3731158 0.27666205 8
-15.38362 1.9955362 0.81348991 9
-15.404093 2.223151 0.81622493 9
-15.428047 2.5664566 0.820324 9
-15.434124 3.0245848 0.82501209 9
-15.451521 3.3743782 0.82967037 9
-15.403657 1.9981502 1.3595192 10
-15.403884 2.22314 1.3622701 10
-15.416872 2.5646348 1.3680997 10
-15.420222 2.9071224 1.37367 10
-15.444936 3.3729722 1.3840173 10
-15.445508 3.6058347 1.3886042 10
-15.506829 -48.30304 4.4200416 10
-15.509459 -48.309898 6.2108712 11
-14.739939 -48.279324 2.6278391 9
-14.738731 -48.273926 4.3975978 10
-14.739344 -48.27449 6.1785378 11
-14.740133 -48.275616 7.9749165 12
-14.01891 -3.0601919 -0.25128171 7
-14.170661 -2.0445609 -0.25044039 7
-14.285825 -1.025385 -0.25026366 7
-14.340181 3.7617425e-05 -0.25032741 7
-14.368369 1.0314696 -0.25124779 7
-14.29014 2.0624499 -0.25163481 7
-14.161639 3.0928304 -0.25247997 7
-13.803997 -4.0672197 -0.25231618 7
-13.990232 4.124764 -0.25393543 7
-13.77625 5.1603451 -0.2560429 7
-13.982826 -48.262508 2.6157479 9
-13.976683 -48.239723 4.3757958 10
-13.984454 -48.265015 6.151063 11
-13.981141 -48.251984 7.9371276 12
-13.979618 -48.245132 9.7433224 13
-13.522043 -5.0609503 -0.25346416 7
-13.495112 6.1908779 -0.25838315 7
-13.231777 -48.243244 2.6041656 9
-13.230526 -48.237 4.3579173 10
-13.227732 -48.225105 6.1212139 11
-13.22983 -48.231064 7.9017224 12
-13.225697 -48.214272 9.6978579 13
-12.803066 -7.0159688 -0.25695309 7
-13.188671 -6.0441794 -0.2550112 7
-13.144044 7.2115769 -0.26091924 7
-12.874082 30.831942 6.4907246 13
-12.878033 30.842543 7.7123718 14
-12.869001 30.822126 8.9456568 15
-12.732477 8.2244835 -0.26385665 7
-12.479506 -48.194397 2.5916231 9
-12.482285 -48.203327 4.3382926 10
-12.484035 -48.208275 6.0957756 11
-12.480925 -48.194397 7.8656468 12
-12.480616 -48.191341 9.656332 13
-12.36095 -7.9730358 -0.25921649 7
-12.259466 9.2277164 -0.26721177 7
-12.357271 30.828718 5.256392 12
-12.363482 30.845371 6.455287 13
-12.363573 30.846794 7.6680217 14
-12.363653 30.848211 8.9005508 15
-11.863541 -8.9146957 -0.26183975 7
-11.736661 10.230356 -0.27129602 7
-11.741268 -48.176628 0.8487398 8
-11.742851 -48.181171 2.5816188 9
-11.741705 -48.17448 4.3201385 10
-11.743015 -48.177887 6.0700693 11
-11.742298 -48.172939 7.8339248 12
-11.746017 -48.186211 9.6206446 13
-11.327513 -9.8544207 -0.2652342 7
-11.125687 11.198039 -0.27527186 7
-11.011415 -48.168854 0.84575593 8
-10.818634 -2.8537884 1.3724012 11
-10.865082 -2.6176918 1.3709995 11
-10.959269 -2.1878195 1.3712298 11
-11.027657 -1.833984 1.3717915 11
-11.097605 -1.3989562 1.3728433 11
-11.130438 -1.0398871 1.3721521 11
-11.173989 -0.60113877 1.3737952 11
-11.17436 -0.24027978 1.3722715 11
-11.174109 0.20023146 1.3723906 11
-11.161144 0.60060185 1.3727211 11
-11.124805 1.039638 1.372332 11
-11.088678 1.3983305 1.372915 11
-11.015397 1.8327893 1.3718094 11
-10.943234 2.1857207 1.3710629 11
-10.837847 2.6130552 1.3697721 11
-11.008604 -48.154388 2.5714951 9
-11.011041 -48.162926 4.3045459 10
-11.008291 -48.144333 9.5798693 13
-10.698956 -10.744064 -0.26815885 7
-10.468288 12.167838 -0.28017777 7
-10.721417 3.0370097 1.3693045 11
-10.616758 3.3809917 1.3691761 11
-10.464651 3.7932959 1.3679415 11
-10.031871 -11.629779 -0.27191183 7
-10.283574 -48.147129 0.84272808 8
-10.277576 4.2342119 1.3661232 11
-10.109905 4.5958757 1.3649175 11
-10.285391 -48.150963 4.2899094 10
-10.281954 -48.132481 6.024838 11
-10.280303 -48.122349 7.7746997 12
-10.281874 -48.127316 9.5462589 13
-9.7326441 13.10578 -0.28527212 7
-9.8946371 5.0224476 1.363819 11
-9.684701 5.4066925 1.3631935 11
-9.2991905 -12.483503 -0.27584738 7
-9.5593853 -48.118324 0.83977491 8
-9.5403328 5.5988522 1.359491 11
-9.3966808 5.8365765 1.3595643 11
-9.2023773 6.1362829 1.3593014 11
-9.5592709 -48.115177 2.5537987 9
-9.5593939 -48.110626 6.0044007 11
-9.5590887 -48.106476 7.7492781 12
-8.9266129 14.016855 -0.29078484 7
-8.8438873 -48.110031 0.83737534 8
-9.0714655 6.3352089 1.3598042 11
-8.8615437 6.5749664 1.3560431 11
-8.8407316 -48.089989 2.5455272 9
-8.8428526 -48.098713 4.2610326 10
-8.8410559 -48.086052 5.9849768 11
-8.8417091 -48.086723 7.7249727 12
-8.8426905 -48.089161 9.484684 13
-8.4165888 -1.7117265 1.3593061 12
-8.4539986 -1.4060336 1.3567042 12
-8.5105343 -1.0110559 1.3569137 12
-8.5584679 -0.58362621 1.3584305 12
-8.5693598 -0.21502109 1.3576443 12
-8.5702696 0.1843546 1.3579692 12
-8.5565939 0.58366877 1.3587627 12
-8.5054359 1.0109609 1.3571944 12
-8.4435234 1.4053503 1.3565506 12
-8.7178812 6.7640953 1.3559563 11
-8.5115232 7.0044112 1.3546171 11
-8.3961086 -13.135808 -0.27648452 7
-8.0526295 14.902974 -0.29684925 7
-8.128026 -48.075912 0.83471847 8
-8.1809177 -2.5600073 1.3562318 12
-8.2813225 -2.2164097 1.3565142 12
-8.368371 -1.8899775 1.3576791 12
-8.3646507 1.796425 1.355944 12
-8.2633305 2.2138774 1.355989 12
-8.1433392 2.5942869 1.3548858 12
-8.0148439 2.9390824 1.3532711 12
-8.1860867 7.3498397 1.3518589 11
-8.1240158 -48.048992 2.5369925 9
-8.1303759 -48.083553 4.2489986 10
-8.1272745 -48.061989 5.966949 11
-8.1247444 -48.043781 7.6986651 12
-8.1273432 -48.055958 9.4542894 13
-7.9526291 3.1120007 1.3537637 12
-7.8080058 3.4276569 1.3519787 12
-7.6664104 3.7218533 1.3510762 12
-7.9744902 7.5843983 1.3521496 11
-7.7407527 7.7971988 1.3499146 11
-7.4176545 -48.048698 0.83237231 8
-7.5594292 3.941915 1.3516283 12
-7.3816319 4.2278199 1.3487128 12
-7.2402115 4.4634919 1.3484643 12
-7.3859096 8.1099577 1.3475615 11
-7.4178185 -48.046246 2.5310414 9
-7.4168057 -48.036144 4.2350569 10
-7.4184709 -48.043396 5.9509158 11
-7.4186544 -48.041016 7.6804914 12
-7.4156957 -48.018181 9.425086 13
-7.0204639 -12.934752 -0.26115602 7
-7.1046576 15.751549 -0.3033092 7
-6.8098269 -1.283819 1.3460256 13
-6.8676071 -1.0415665 1.3495755 13
-6.9145446 -0.64630044 1.349601 13
-6.9336548 -0.24865577 1.3486183 13
-6.9390712 0.22394563 1.3499404 13
-6.9021678 0.64526445 1.3480761 13
-6.8467183 1.0391287 1.3469156 13
-6.801857 1.3341496 1.3481652 13
-7.1068463 4.6680517 1.3480253 12
-6.9262338 4.9140429 1.3463954 12
-7.0746031 8.3513155 1.3443937 11
-6.8943934 8.5032387 1.3445054 11
-6.7110357 -48.020363 0.83019495 8
-6.4512634 -2.547333 1.3462263 13
-6.5857577 -2.1650922 1.3459599 13
-6.6927366 -1.8171173 1.3467684 13
-6.7851801 -1.4562153 1.3479031 13
-6.752151 1.526798 1.3465394 13
-6.6813002 1.816301 1.347031 13
-6.5744328 2.1648295 1.3467398 13
-6.4251986 2.5419958 1.3444777 13
-6.7828341 5.1114602 1.3463911 12
-6.5423465 5.3872561 1.3436612 12
-6.6413784 8.6894817 1.3432102 11
-6.7115536 -48.020115 2.5244124 9
-6.711627 -48.016666 4.2245078 10
-6.7147322 -48.034946 5.9374318 11
-6.7114563 -48.007397 7.6590548 12
-6.7130613 -48.014835 9.4046926 13
-6.0107045 -48.013336 0.82857203 8
-6.3905344 -2.7102954 1.347062 13
-6.3377857 2.7473669 1.3440533 13
-6.2102413 3.0161679 1.3435181 13
-6.078053 3.282809 1.3441859 13
-6.1708579 5.7890458 1.3412801 12
-6.2183313 8.9743786 1.3406788 11
-6.0097828 -48.001423 2.5187247 9
-6.0084195 -47.985962 4.2138891 10
-6.0098104 -47.992558 5.9210372 11
-6.0096712 -47.986832 7.6413589 12
-6.0098953 -47.983978 9.3809338 13
-5.7901158 -12.765591 -0.2488427 7
-5.6713529 -0.81871718 -0.30039477 6
-5.700326 -0.4094227 -0.29955617 6
-5.7320843 1.4733553e-05 -0.30041301 6
-5.7104816 0.41031364 -0.3000218 6
-5.6656179 0.818546 -0.29995975 6
-5.6421094 1.2336248 -0.30261457 6
-5.6357012 -1.4225391 1.3407795 14
-5.7265539 -1.0160321 1.3420222 14
-5.7820435 -0.60324848 1.3418436 14
-5.8057251 -0.23604605 1.3413988 14
-5.8096819 0.18762766 1.3423991 14
-5.7880893 0.55522531 1.3431733 14
-5.7201986 1.0159249 1.3423368 14
-5.6346636 1.4028289 1.3417792 14
-5.9568152 3.4706538 1.3415693 13
-5.7691784 3.771524 1.3414062 13
-5.8111348 6.1376786 1.3397399 12
-5.302916 -2.2048235 -0.30146456 6
-5.4829545 -1.6159879 -0.29976717 6
-5.5876193 -1.2202435 -0.29987755 6
-5.5220523 1.6301874 -0.30168083 6
-5.4282975 2.0362623 -0.30378005 6
-5.2639246 2.4186969 -0.30355245 6
-5.3097262 -47.975918 0.82660842 8
-5.2455153 -2.4955254 1.3385613 14
-5.382421 -2.1924376 1.3397263 14
-5.5379629 -1.7842163 1.3417299 14
-5.5897131 1.5633457 1.3411193 14
-5.5033088 1.819975 1.3397267 14
-5.369761 2.1624861 1.3381366 14
-5.2503414 2.4585061 1.3399361 14
-5.4255505 4.2145038 1.3369389 13
-5.2361798 4.4423099 1.3359706 13
-5.3282509 6.5450902 1.3373834 12
-5.3109279 -47.981606 2.5135214 9
-5.3103418 -47.97105 4.2055621 10
-5.3109317 -47.97113 5.908505 11
-5.310605 -47.962856 7.6247559 12
-5.3108678 -47.959877 9.3605099 13
-4.8570781 -3.1319449 -0.3033469 6
-5.0583611 -2.7715697 -0.30267847 6
-4.9913154 2.9818673 -0.30490121 6
-5.1620765 -2.6860833 1.34065 14
-4.8320951 -1.2751168 1.3375852 15
-4.8869019 -1.0124302 1.3362881 15
-4.9554458 -0.60703701 1.3374128 15
-4.990531 -0.19701393 1.3382969 15
-4.9837008 0.17879507 1.3368206 15
-4.9497776 0.60681593 1.3372276 15
-4.8751893 1.0114292 1.3353577 15
-4.8284683 1.2393575 1.336892 15
-5.1444259 2.6382167 1.33643 14
-4.942348 2.9848723 1.3349088 14
-5.0397735 4.6637139 1.3360692 13
-4.8352008 4.8776875 1.3360248 13
-5.067874 6.7366385 1.3355613 12
-4.8630648 6.8662987 1.3328803 12
-4.6691747 -12.619179 -0.23892745 7
-4.400177 -3.8251808 -0.30617443 6
-4.6360307 -3.481936 -0.30439946 6
-4.6926479 3.5398965 -0.30811471 6
-4.4463649 3.8851969 -0.30956414 6
-4.4993687 -2.1602232 1.334811 15
-4.6698618 -1.7864077 1.3378289 15
-4.7754354 -1.4822435 1.3380227 15
-4.7711406 1.4090925 1.3344446 15
-4.6256471 1.8249573 1.3343083 15
-4.4553781 2.2055857 1.3341157 15
-4.6430383 3.4338684 1.3350042 14
-4.4543276 3.6724935 1.3342932 14
-4.6084261 5.0682874 1.3326241 13
-4.5896068 7.0365787 1.3307517 12
-4.1332493 -4.1465802 -0.3075231 6
-4.1752915 4.2139921 -0.31107476 6
-4.0574346 -6.5429845 0.66999334 10
-4.2295713 -5.4228549 0.84089756 11
-4.1119032 -4.5596733 0.96875691 12
-4.3272376 -2.4930232 1.3348776 15
-4.3909683 -2.3652289 1.3333062 15
-4.3515849 2.3932428 1.3323652 15
-4.2156529 2.6310468 1.3335162 15
-4.0770831 2.8537862 1.335161 15
-4.2574472 3.8860595 1.3322897 14
-4.0531769 4.0917573 1.3308911 14
-4.1837378 5.4031134 1.3292369 13
-4.1884995 7.2661548 1.3281302 12
-3.6352234 -12.50253 -0.23122481 7
-3.8533187 -4.4612989 -0.30971023 6
-3.8922336 4.5381479 -0.31358886 6
-3.7762063 -7.9329371 0.45695278 9
-3.7922444 -6.5769014 0.66065598 10
-3.8212359 -5.5222197 0.82093465 11
-3.8284929 -4.6615529 0.95175833 12
-3.9201128 3.026551 1.3288881 15
-3.7240484 3.2570193 1.3273141 15
-3.880233 4.2401447 1.3280387 14
-3.650018 4.4478941 1.3291991 14
-3.8004775 5.6684093 1.326986 13
-3.8113406 7.4542933 1.3255506 12
-3.2125006 -5.0152268 -0.31303591 6
-3.5428491 -4.7480378 -0.31130686 6
-3.3065901 -1.3746253 -0.31327575 5
-3.4397974 -1.0141096 -0.31358677 5
-3.5134685 -0.63696933 -0.31249639 5
-3.5527954 -0.2553491 -0.31159109 5
-3.5702722 0.12822765 -0.31278789 5
-3.5156825 0.63825357 -0.31292757 5
-3.4449017 1.0182946 -0.31446126 5
-3.314013 1.3828741 -0.31461337 5
-3.4143 4.9795051 -0.31702513 6
-3.3348515 9.1057587 -0.17058092 7
-3.4841895 9.1067724 0.16888063 8
-3.378608 -7.9582705 0.44961894 9
-3.4281707 -6.6383104 0.65011412 10
-3.2813704 -5.6420016 0.79758799 11
-3.4846237 9.1082525 0.50971013 9
-3.427763 -5.6136322 0.80383801 11
-3.2482078 -4.8390398 0.91908222 12
-3.4147666 -4.7862787 0.92727381 12
-3.4105277 -4.0917878 1.0314827 13
-3.5210013 -3.4318547 1.1309655 14
-3.3385544 9.1155033 0.96176541 10.333333
-3.4827142 3.5186706 1.3279389 15
-3.4883027 4.4766235 1.4149519 14.5
-3.5409129 5.8549066 1.3299919 13
-3.5515192 7.607502 1.3288625 12
-3.3725319 9.1077938 1.536708 12
-3.3732471 9.109993 1.8866979 13
-3.3750668 9.1151247 2.2423544 14
-3.4129028 9.1179905 2.6068923 15
-2.9064558 -13.542755 -0.24599813 7
-2.8591142 -5.2538371 -0.31443143 6
-2.8951547 -2.173357 -0.3164176 5
-3.0953026 -1.8425872 -0.31508243 5
-3.0928168 1.8513757 -0.31587964 5
-2.8875175 2.1830173 -0.31705678 5
-2.8844006 5.3635507 -0.31972584 6
-3.0466845 9.1206856 0.1663405 8
-3.0837555 -7.966506 0.74331719 10
-3.1898417 -5.6691494 0.79488647 11
-3.042773 9.1096087 0.50176412 9
-3.1331038 -6.6384816 0.8971476 11
-3.1680586 -5.6302214 1.0188456 12
-3.1949899 -4.8339148 1.1217186 13
-2.9738533 9.1220751 1.0069127 10.5
-2.9736366 9.1219959 1.5176715 12
-2.9057503 9.1365824 1.8614618 13
-2.9015093 9.1237907 2.2080526 14
-3.0479536 9.1266623 2.576251 15
-2.4921002 -5.4763646 -0.31633654 6
-2.5605588 -2.5662792 -0.31683549 5
-2.7329695 -2.3741181 -0.31640297 5
-2.4333515 -0.91119522 -0.31850833 4
-2.5165393 -0.6452598 -0.31882223 4
-2.5719941 -0.27806473 -0.31769085 4
-2.5852792 0.23315556 -0.31941238 4
-2.5122504 0.64634514 -0.31904253 4
-2.4294834 0.91400611 -0.31914994 4
-2.6525004 2.4976006 -0.31935433 5
-2.5142837 5.6059189 -0.3226797 6
-2.6192176 9.1330614 -0.16744876 7
-2.5855291 9.1385221 0.16403587 8
-2.5853844 9.1382723 0.49586457 9
-2.566186 9.1339388 0.99539226 10.5
-2.5853601 9.1401005 1.5022384 12
-2.5843024 9.1361856 1.843236 13
-2.6196535 9.1366959 2.1919227 14
-2.5810161 9.1255264 2.5384843 15
-2.1106405 -5.6806087 -0.31865433 6
-2.1826112 -2.9201283 -0.31862262 5
-2.3799798 -2.7518997 -0.31797683 5
-2.2175658 -1.3739138 -0.32007182 4
-2.3700855 -1.0862514 -0.31948614 4
-2.0117502 -0.29089749 -0.32162672 3
-2.3599892 1.0878832 -0.31956968 4
-2.2027409 1.3757656 -0.3200185 4
-2.3872681 2.7920525 -0.32181811 5
-2.1837802 2.9614716 -0.32236356 5
-2.1205473 5.8124576 -0.32508078 6
-2.1679859 9.1495247 0.1621691 8
-2.1689639 9.1545706 0.49094221 9
-2.167872 9.1503611 0.98642719 10.5
-2.1666384 9.1461115 1.486101 12
-2.1695075 9.1579351 1.8266252 13
-2.1683042 9.1539507 2.1688893 14
-2.1677017 9.1527233 2.517175 15
-1.712523 -5.8575363 -0.32093051 6
-1.7697623 -3.2431357 -0.32293177 5
-1.9869509 -3.0952942 -0.32147855 5
-1.8528568 -1.8549711 -0.32142541 4
-1.6326489 -1.2243594 -0.32180113 3
-1.7906393 -0.97986948 -0.32271156 3
-1.9705249 -0.50535071 -0.32183957 3
-1.6352898 -0.3577323 -0.32474658 2
-1.8071361 0.32264578 -0.32129672 2.5
-1.9305789 0.61064178 -0.32182604 3
-1.76963 0.97753483 -0.32151547 3
-1.6314605 1.2388647 -0.32527027 3
-1.9054565 1.7991298 -0.32258585 4
-1.7154639 2.0126102 -0.32528582 4
-1.9800289 3.1343846 -0.32481027 5
-1.7552536 3.2793911 -0.32588187 5
-1.70821 5.9842944 -0.32711655 6
-1.9261382 9.1475029 -0.16507788 7
-1.759496 9.1683693 0.16076736 8
-1.7600662 9.1715965 0.48705295 9
-1.7575105 9.1596174 0.97795194 10.5
-1.7590895 9.1687193 1.4756751 12
-1.7586305 9.1674347 1.8112504 13
-1.7927251 9.1668577 2.1531007 14
-1.7575419 9.1624174 2.4961517 15
-1.2990797 -6.002707 -0.32299682 6
-1.4159958 -3.4178534 -0.32360032 5
-1.4315518 -2.2252352 -0.32427257 4
-1.2365822 -1.6488392 -0.32461646 3
-1.4538447 -1.4545975 -0.32463396 3
-1.3708335 -0.95298505 -0.32403493 2
-1.315264 -0.68648726 -0.32614142 1.25
-1.383325 -0.30274642 -0.32613549 1
-1.3806225 0.3036457 -0.32701895 1
-1.3358411 0.6558736 -0.32464379 1.3333334
-1.364831 0.96309865 -0.32676885 2
-1.4351081 1.4613657 -0.32574317 3
-1.2225424 1.6697417 -0.3284227 3
-1.4100131 2.2422817 -0.32628229 4
-1.3962991 3.4611268 -0.32719344 5
-1.2855771 6.1423359 -0.33000106 6
-1.2543232 9.1790485 -0.1639384 7
-1.3541124 9.1725483 0.15942161 8
-1.3551582 9.1806459 0.48369157 9
-1.3539182 9.1732759 0.9718951 10.5
-1.3552892 9.1843224 1.4669985 12
-1.3529475 9.1689959 1.7979008 13
-1.3546066 9.1810541 2.1386139 14
-1.3545473 9.1817255 2.4826338 15
-1.0518563 -3.5742002 -0.32573247 5
-1.0257889 -2.4659967 -0.32698703 4
-1.0309222 -1.8019028 -0.32748246 3
-0.96559268 -1.385094 -0.32675645 2
-1.0277144 -1.0082117 -0.3265498 1
-1.024588 -0.67636907 -0.32734054 0
-1.1899871 -0.26055455 -0.32547152 0
-1.1813284 0.26015416 -0.32489964 0
-1.0563217 0.69161725 -0.32702243 0.25
-0.95295334 0.97671551 -0.32870337 0.75
-0.96389896 1.3722448 -0.32840025 2
-0.99719179 1.8027946 -0.32734632 3
-0.9948951 2.482429 -0.3288911 4
-1.0266503 3.6287405 -0.33038914 5
-0.85144436 6.2864556 -0.33375338 6
-0.95538425 9.1939774 0.15867844 8
-0.95398563 9.1812115 0.48081192 9
-0.95482039 9.1914492 0.96811044 10.5
-0.95370007 9.1834574 1.4585044 12
-0.95435989 9.1906109 1.7919298 13
-0.95423174 9.1905212 2.1287313 14
-0.95419014 9.1918669 2.4713783 15
-0.79811364 -3.6526947 -0.32691506 5
-0.66923237 -2.5934844 -0.32798749 4
-0.45573303 -2.0466006 -0.33030528 3
-0.60686189 -1.8598895 -0.32839686 2.6666667
-0.64282191 -1.4311507 -0.328785 1.5
-0.6873492 -1.0799462 -0.32765472 0.25
-0.61629474 1.0524279 -0.32895666 0
-0.62301528 1.383491 -0.33109146 1.3333334
-0.57449299 1.7389392 -0.33119151 2.3333333
-0.48713967 2.0358653 -0.33158684 3
-0.63409692 2.6220808 -0.33154067 4
-0.63313419 3.7380521 -0.33234426 5
-0.40243897 6.3850961 -0.33675 6
-0.58988643 9.1883383 -0.1632776 7
-0.65619773 9.1921158 0.15799749 8
-0.45841911 9.2038841 0.15785962 8
-0.65614021 9.1932173 0.47983059 9
-0.45828965 9.2038784 0.47959548 9
-0.65602243 9.1933031 0.96531409 10.5
-0.45809534 9.2038889 0.96497029 10.5
-0.55677521 9.1964989 1.4549699 12
-0.45730844 9.1951704 1.7846749 13
-0.65647525 9.2042694 1.7890722 13
-0.55724555 9.209157 2.1249671 14
-0.55643958 9.1981983 2.4637465 15
-0.37598482 -1.6725043 -0.33077425 2
-0.33819801 -1.2742213 -0.33216622 0.33333334
-0.17328906 1.3423769 -0.33324242 0.5714286
-0.12575385 1.70081 -0.33331001 2
-0.19201674 2.103169 -0.33407831 3
-0.1946304 2.7081139 -0.33395043 4
-0.15334046 3.8221688 -0.33439857 5
-0.075753361 6.4055581 -0.33099881 6
-0.076378606 9.1856184 -0.15177833 7
-0.010610679 9.1806803 0.17012691 8
-0.16152789 9.217061 0.15772788 8
-0.011071947 9.1699104 0.49173173 9
-0.16118295 9.2116442 0.47927934 9
-0.044699527 9.1781797 0.97817874 10.5
-0.16102116 9.2135916 0.96469718 10.5
-0.012259644 9.175168 1.4684056 12
-0.19386651 9.2112789 1.4545417 12
-0.012592454 9.1747437 1.8000072 13
-0.16067596 9.2049351 1.7843763 13
-0.012989113 9.1719685 2.1355889 14
-0.19365853 9.2143745 2.1222327 14
-0.10323319 9.1839581 2.4678235 15
-0.19360563 9.2153654 2.4638956 15
0.3652043 -6.3008132 -0.3318755 6
0.23643683 -3.7940371 -0.33257702 5
0.20947385 -2.7098079 -0.33324707 4
0.20067714 -2.0981321 -0.33291888 3
0.18901272 -1.7071863 -0.33295149 2
0.19527622 -1.3164294 -0.3342323 0.40000001
0.23921056 1.1769619 -0.33315471 0
0.19760866 1.3151991 -0.33298188 0.66666669
0.23636718 1.6706594 -0.33459434 2
0.2047119 2.0674322 -0.33405662 3
0.12269887 2.7076998 -0.33435202 4
0.20202009 3.8156576 -0.333359 5
0.3914341 6.4613361 -0.33426246 6
0.28731373 9.184309 0.17060658 8
0.28704128 9.1857252 0.49323499 9
0.23995972 9.1799726 1.011602 10.6
0.28600287 9.1910467 1.4723419 12
0.28543487 9.1826258 1.8032054 13
0.28514203 9.1850481 2.1405377 14
0.28448087 9.178134 2.481034 15
0.4556177 -6.3026133 -0.33227015 6
0.53612965 -3.7904654 -0.33497593 5
0.6609326 -2.654192 -0.3357169 4
0.50289577 -2.0499206 -0.33380055 3
0.58867466 -1.7610092 -0.3352989 2.3333333
0.60007566 -1.417007 -0.33519503 1.3333334
0.5523569 -1.116588 -0.33573198 0
0.5155564 1.0787323 -0.33578739 0
0.61139846 1.4663616 -0.33587044 1.6666666
0.54728031 1.7917371 -0.33345634 2.5
0.53126907 2.0096958 -0.33436209 3
0.56413895 2.6464028 -0.33519495 4
0.61792749 3.7792614 -0.33453104 5
0.58700389 9.1958494 -0.15170832 7
0.68643892 9.1920767 0.1715472 8
0.68757355 9.2099981 0.49616584 9
0.78612888 9.1987829 0.98517495 10.5
0.58630741 9.203783 0.98384529 10.5
0.58548057 9.199893 1.4765134 12
0.78624845 9.2057066 1.4802446 12
0.68531442 9.2011223 1.8118411 13
0.58452243 9.1969357 2.1471858 14
0.78544861 9.2058239 2.1532488 14
0.68503881 9.206336 2.4954042 15
1.1393723 -18.747051 -0.33302957 7
0.91068667 -6.3016553 -0.33474448 6
0.94115126 -3.7268691 -0.33664513 5
1.0375626 -2.5514915 -0.33841455 4
0.96860343 -1.9000949 -0.33859831 3
0.96123117 -1.4299934 -0.33698592 2
0.96433437 -1.0048326 -0.33712161 0.75
1.0567918 -0.63396382 -0.33827096 0
1.186253 -0.32474858 -0.33916777 0
1.1798449 0.28416696 -0.33936232 0
1.0376306 0.59232002 -0.33718264 0
0.93768984 0.96567279 -0.33639947 0.75
1.0163549 1.3372356 -0.33809286 2
0.92534691 1.8583965 -0.33562091 3
0.99332231 2.5231538 -0.33618802 4
1.035401 3.721982 -0.33745146 5
0.86050683 6.4415321 -0.33541197 6
1.0915409 9.2209129 0.17317924 8
1.0899558 9.2105007 0.49873161 9
1.0904872 9.2192059 0.99112564 10.5
1.0895691 9.2151918 1.4872789 12
1.0890372 9.2145309 1.8228723 13
1.0880995 9.2097216 2.1620624 14
1.0884963 9.2154961 2.5093186 15
1.4141827 -18.817492 -0.33454165 7
1.3685311 -6.2699008 -0.33732393 6
1.3435446 -3.6334865 -0.33915079 5
1.3070513 -2.4330435 -0.3394095 4
1.4745407 -2.3300791 -0.33906752 4
1.321152 -1.6768441 -0.3394784 3
1.350549 -1.3859178 -0.33964914 2.5
1.3777941 -1.0377562 -0.3396531 2
1.3902925 -0.58659828 -0.34011802 1.25
1.345726 -0.21259166 -0.33965558 0.66666669
1.3488013 0.22584945 -0.33979002 0.75
1.3814059 0.60076404 -0.33950359 1.3333334
1.360046 1.0022086 -0.33947304 2
1.4697183 1.4947366 -0.33971804 3
1.2350003 1.6987636 -0.33943149 3
1.4520878 2.3222001 -0.33984607 4
1.2731414 2.4141691 -0.33848223 4
1.5707517 3.5449567 -0.3389326 5
1.305644 3.6423759 -0.33810616 5
1.3364283 6.4218297 -0.33838907 6
1.2602823 9.2176094 -0.15268454 7
1.3978785 9.2311478 0.17438354 8
1.4006523 9.2507229 0.50338507 9
1.3975397 9.2342663 0.99734515 10.5
1.3947928 9.2201385 1.4949943 12
1.3976234 9.2401495 1.8363707 13
1.3925703 9.2104549 2.1721854 14
1.3932722 9.2171087 2.5212679 15
1.8270011 -6.2060962 -0.33996424 6
1.7320704 -3.4857693 -0.34106934 5
1.7278345 -2.1745749 -0.3420637 4
1.9555911 -1.9822611 -0.34305313 4
1.6536307 -1.3615408 -0.34176326 3
1.8849941 -1.0077871 -0.34251443 3
1.6483485 -0.50282121 -0.34098116 2
1.6955764 -0.22541296 -0.34023196 2
1.6991575 0.18833284 -0.34149367 2
1.8193362 0.59790349 -0.34243053 2.5
1.8749789 0.97649622 -0.34258938 3
1.6788692 1.2659055 -0.34026638 3
1.7036576 2.1540687 -0.34123635 4
1.8397261 3.4483764 -0.34173849 5
1.8081737 6.346714 -0.34032506 6
1.9502438 9.2373829 -0.15451451 7
1.7886111 9.2386293 0.17608958 8
1.7070316 9.2360411 0.50568044 9
1.7069738 9.2379169 1.0037947 10.5
1.7078609 9.2443991 1.5077024 12
1.7063814 9.2394953 1.8469527 13
1.7878667 9.2438164 2.1964536 14
1.7062471 9.2421055 2.5427456 15
2.2810915 -6.1023903 -0.34224027 6
2.1092377 -3.3035386 -0.3433077 5
2.3378608 -3.1422975 -0.34310883 5
2.1513121 -1.7565262 -0.34273201 4
2.3309641 -1.5174044 -0.3433553 4
2.0343027 -0.65292776 -0.34333366 3
2.1264222 -0.236146 -0.34440738 3
2.1208596 0.1997506 -0.34380308 3
2.0591614 0.50484669 -0.34269002 3
2.3273776 1.4957743 -0.34383526 4
2.105804 1.7719891 -0.34262159 4
2.3323247 3.1590524 -0.34355158 5
2.0907309 3.3124459 -0.34260315 5
2.2751887 6.2343078 -0.34215564 6
2.2714262 9.258749 0.17872211 8
2.2113354 9.2537193 0.512694 9
2.2122171 9.259901 1.0178118 10.5
2.2110386 9.2565613 1.5270627 12
2.2106357 9.2564135 1.8715613 13
2.2354038 9.263464 2.2237048 14
2.2092655 9.2533817 2.5749388 15
2.7379837 -5.9829121 -0.3455207 6
2.6794405 -2.8932552 -0.34575075 5
2.4399855 -1.3492184 -0.34442228 4
2.5841978 -1.0832386 -0.34668216 4
2.7296674 -0.59953666 -0.34669077 4
2.7936187 -0.19956051 -0.34720761 4
2.7781999 0.2676037 -0.34661135 4
2.7069292 0.66751361 -0.34647548 4
2.5730748 1.051147 -0.34558553 4
2.4381022 1.325271 -0.34486142 4
2.6762056 2.8994036 -0.34557092 5
2.7339602 6.0841708 -0.34383509 6
2.667063 9.2644882 -0.15741022 7
2.5949357 9.2655945 0.18058036 8
2.5974853 9.2754412 0.51928896 9
2.5934248 9.2630873 1.0287182 10.5
2.594578 9.2684898 1.5446541 12
2.5949187 9.2706995 1.8935552 13
2.5916648 9.2604122 2.2443933 14
2.593092 9.2664537 2.6047781 15
2.8226924 -19.120522 -0.34226939 7
3.1785743 -5.8092427 -0.34759647 6
2.9917026 -2.6048393 -0.34764487 5
3.1755478 -2.3875473 -0.34822524 5
3.1830676 2.3856061 -0.34834623 5
2.9843125 2.5966673 -0.34636474 5
3.1961768 5.9243546 -0.34695664 6
2.9912024 9.2845182 0.18329459 8
2.9363697 -24.711927 0.42741653 8
2.9686348 9.2927971 0.52618867 9
2.9392171 -47.691147 0.81982827 8
2.9903934 9.2836266 0.87025112 10
2.936729 -24.718342 1.2972245 9
2.988991 9.2807455 1.3907386 11.5
2.9891272 9.2823544 1.9186836 13
2.9382496 -24.734449 2.1715057 10
2.9906764 9.2880411 2.2780457 14
2.9393697 -47.70533 2.4902518 9
2.9893212 9.2848577 2.6411819 15
2.9361098 -24.720058 3.0484974 11
2.9361067 -24.723516 3.9348469 12
2.9379919 -47.694942 4.1656089 10
2.9341216 -24.710487 4.8280544 13
2.9377811 -47.703403 5.8527818 11
2.93627 -47.691032 7.5517411 12
2.9345169 -47.674904 9.2679567 13
3.3580599 -2.1660717 -0.35027561 5
3.5067019 -1.9204972 -0.35049051 5
3.5035555 1.9027174 -0.34928158 5
3.3469796 2.1468332 -0.34829769 5
3.4205341 9.2966013 -0.16142263 7
3.4990096 9.3020039 0.18696904 8
3.2952785 -24.709213 0.42825785 8
3.5001543 9.30546 0.53651541 9
3.4989784 9.3031549 0.8870768 10
3.2961667 -24.718931 1.2997271 9
3.4721806 9.3008432 1.3566921 11.333333
3.5007551 9.3100166 1.95722 13
3.2951663 -24.714613 2.1738224 10
3.5003488 9.3097181 2.3222694 14
3.5000589 9.3098269 2.6933689 15
3.2952003 -24.718006 3.0539019 11
3.2938514 -24.711145 3.9401433 12
3.2924092 -24.703623 4.8356047 13
3.6084421 -5.602932 -0.34965459 6
3.6423099 -1.6666183 -0.35115626 5
3.7640758 -1.4044973 -0.35222673 5
3.8983517 -0.99110562 -0.35288817 5
3.9769313 -0.56351507 -0.35216886 5
3.9770296 0.53718859 -0.35180128 5
3.8928657 0.96546018 -0.35177097 5
3.7604272 1.3814003 -0.35106707 5
3.6499941 1.6508586 -0.35099503 5
3.6410351 5.7162638 -0.34931538 6
3.8173008 9.3210449 0.1896129 8
3.6525934 -24.687059 0.428857 8
3.8176994 9.3226099 0.54377717 9
3.6241136 -47.676769 0.82057244 8
3.8166008 9.3205299 0.89903271 10
3.6543372 -24.701611 1.3015665 9
3.8140421 9.3151455 1.2558841 11
3.8420451 9.319253 1.7401597 12.333333
3.6526425 -24.693119 2.1764531 10
3.814357 9.3176918 2.3510222 14
3.6221721 -47.661121 2.4905903 9
3.8116851 9.3119898 2.7250061 15
3.6526372 -24.695974 3.0574841 11
3.6513293 -24.690119 3.944891 12
3.622741 -47.678314 4.1684656 10
3.6532183 -24.705738 4.8459439 13
3.6215594 -47.672691 5.8549919 11
3.6207535 -47.672054 7.5563993 12
3.6210616 -47.686096 9.2795019 13
4.2849498 -19.331209 -0.35017112 7
4.0274234 -5.3675814 -0.35189074 6
4.0258961 -0.27601829 -0.3537837 5
4.0193863 0.24873729 -0.35303506 5
4.0708094 5.4725785 -0.3515698 6
4.2233272 9.3356457 -0.16671345 7
4.2239714 9.3359537 0.19304039 8
4.1938453 -24.673344 0.4302862 8
4.2208767 9.3297558 0.55291373 9
4.3099179 -47.660393 0.82146049 8
4.2198243 9.3279457 0.91408271 10
4.1953859 -24.685472 1.3054065 9
4.2214427 9.3320818 1.2781595 11
4.298336 9.3237972 1.6488981 12
4.1959629 -24.691263 2.1840153 10
4.1872272 9.329772 2.1625896 13.4
4.3084402 -47.652496 2.4933107 9
4.2599239 9.3291912 2.6816258 14.75
4.1936498 -24.679945 3.066273 11
4.1926589 -24.676893 3.9566262 12
4.3074584 -47.650082 4.1711769 10
4.1936445 -24.685415 4.8589211 13
4.3070827 -47.654362 5.859941 11
4.3709054 -24.662703 5.7739482 14
4.1928535 -24.686024 6.7003498 15
4.3064284 -47.655674 7.5630412 12
4.3053274 -47.652161 9.2841949 13
4.4334321 -5.1031232 -0.35427865 6
4.4798679 5.1915097 -0.35351402 6
4.5562215 9.3431177 0.19590273 8
4.7393379 -24.666237 0.43202588 8
4.6424308 9.3475637 0.56362897 9
4.5557303 9.3431044 0.92809677 10
4.7383456 -24.663452 1.3095058 9
4.5554776 9.3430891 1.2971463 11
4.5548639 9.3423443 1.6692683 12
4.7341542 -24.644125 2.1885133 10
4.6445198 9.353837 2.0555646 13
4.6426511 9.3503647 2.4380817 14
4.7389174 -24.671131 3.0772896 11
4.6396275 9.3450069 2.8259811 15
4.7368889 -24.663025 3.9699719 12
4.7366266 -24.664089 4.8737931 13
4.7347317 -24.656733 5.7880459 14
4.7355323 -24.663366 6.7204189 15
4.8166227 -4.8021646 -0.35623297 6
5.1822753 -4.474556 -0.35835955 6
4.8687482 4.8791862 -0.35543922 6
5.0759268 9.355732 -0.17298286 7
4.9494815 9.3618546 0.19967042 8
5.1019626 -24.644663 0.43302235 8
4.9939704 9.3655252 0.57324857 9
4.9931264 9.3642311 0.9476369 10
5.1032948 -24.65328 1.3128636 9
4.9453135 9.3553162 1.3207136 11
4.9463029 9.357687 1.7001342 12
5.0985484 -24.632721 2.1939247 10
4.9878325 9.3559713 2.0869401 13
4.9908619 9.3621502 2.4778094 14
5.102993 -24.656315 3.0844183 11
4.9937129 9.3677292 2.8753874 15
5.0993605 -24.641127 3.9779847 12
5.1002407 -24.647648 4.8846827 13
5.1001382 -24.649473 5.8031125 14
5.1001949 -24.652107 6.7367978 15
5.5217829 -4.1159635 -0.36021215 6
5.5822062 4.1714845 -0.35960546 6
5.2542338 4.5537186 -0.3586438 6
5.3517718 9.3731432 0.20356694 8
5.4715905 -24.647524 0.43454903 8
5.3540559 9.3774176 0.58325791 9
5.3524413 9.3750677 0.96403158 10
5.4679008 -24.633118 1.3159816 9
5.3517056 9.3741808 1.3471853 11
5.3471837 9.3667355 1.7323847 12
5.4684229 -24.637579 2.2012775 10
5.3541188 9.3792238 2.1257915 13
5.3528647 9.3772812 2.5217631 14
5.4674158 -24.635204 3.091439 11
5.3481359 9.3695488 2.9222283 15
5.4685678 -24.642525 3.9906425 12
5.4663391 -24.636929 5.8182182 14
5.7962995 -19.444506 -0.35826609 7
5.8193121 -5.3924637 -0.13745615 7
5.8044834 -5.0434818 -0.1330494 7
5.7838831 -4.6065435 -0.12770061 7
5.767848 -4.108695 -0.1220073 7
5.7580252 -3.7801659 -0.19843787 6.6666665
5.8865619 3.7684631 -0.36085311 6
5.8136725 -5.3876486 0.13993801 8
5.8026099 -4.9820299 0.22378369 8.333333
5.7883101 -4.5937934 0.26034376 8.5
5.7725201 -4.206913 0.25216776 8.5
5.7780175 -3.8013411 0.22045505 8.3999996
5.7254415 9.3866138 0.20740867 8
5.8360686 -24.618488 0.43561456 8
5.8120942 -5.3865681 0.55680394 9.5
5.8095541 -5.0603971 0.58667433 9.666667
5.79634 -4.6501913 0.65353686 10
5.7791586 -4.2120171 0.62950683 10
5.7871642 -3.7800221 0.60913926 10
5.7254486 9.3870249 0.59393167 9
5.8158851 -5.3904939 0.97694558 11
5.8051357 -5.0449872 0.94802701 11
5.7920623 -4.6140394 1.045588 11.5
5.7765579 -4.2259831 1.0114169 11.5
5.7642875 -3.7932897 1.0001866 11.6
5.6233797 9.3725061 0.97605395 10
5.8384018 -24.630306 1.3203248 9
5.821312 -5.3958597 1.4042363 12.5
5.8041043 -5.0084057 1.3564961 12.5
5.7961025 -4.6176519 1.446101 13
5.7748866 -4.1782737 1.3918157 13
5.7591548 -3.8020499 1.432139 13.333333
5.6270642 9.3789539 1.3650351 11
5.8295274 -5.403893 1.8402129 14
5.8099995 -4.9776587 1.7720859 14
5.7943163 -4.6049085 1.8060893 14.333333
5.7800279 -4.2137995 1.7914269 14.5
5.7691107 -3.8681891 1.7830814 14.666667
5.8176665 9.3867369 1.7737273 12
5.8360333 -24.622398 2.2073376 10
5.8257589 -5.4007435 2.1342645 15
5.8188891 -5.0936875 2.0783448 15
5.7955642 -4.7188783 2.0093656 15
5.7206893 9.3806524 2.1627026 13
5.6249847 9.3766108 2.5536609 14
5.8356252 -24.622734 3.1002324 11
5.7198334 9.380002 2.9757969 15
5.8361063 -24.62681 4.0014253 12
5.8365879 -24.63092 4.9129205 13
5.8331828 -24.618736 5.8332849 14
5.8357491 -24.631662 6.77461 15
6.121747 -3.6096456 -0.12195507 7
6.1215549 -3.3208797 -0.36369377 6
6.3779879 -2.8884995 -0.36534157 6
6.1837678 3.3553197 -0.36341152 6
6.0104208 9.3902493 -0.18105622 7
6.1197858 -3.6088421 0.25155053 8.5
6.1103406 9.3957729 0.2114504 8
6.0270367 -3.614151 0.61957097 10
6.19909 -3.596554 0.63195354 10
6.0164847 9.4002848 0.60286081 9
6.0824761 -3.6073475 0.95759255 11.333333
6.1101999 9.3961859 1.0008975 10
6.1213474 -3.6107278 1.3891605 13
6.1138525 9.4020023 1.3996696 11
6.1126099 -3.6060238 1.779211 14.5
6.1147132 9.4036608 1.8015939 12
6.1133246 9.4017191 2.2073269 13
6.1093669 9.3960457 2.6174221 14
6.1088943 9.3957319 3.0354583 15
6.2019596 -24.598309 4.9238496 13
6.2045741 -24.610649 5.8520637 14
6.2049761 -24.6143 6.7938356 15
6.5110278 -3.5895197 -0.12740815 7
6.5864892 -2.4297812 -0.36601779 6
6.7729797 -1.9588231 -0.36727613 6
6.7988658 1.9582677 -0.36619255 6
6.6268549 2.438858 -0.36521664 6
6.408514 2.8994534 -0.3635608 6
6.5117812 -3.5902066 0.26366255 8.5
6.4124527 9.4083824 0.21480933 8
6.517828 -3.5938897 0.65645862 10
6.515408 9.4120722 0.61833 9
6.41853 -3.6010807 1.1727757 12
6.517035 -3.5936694 0.92005819 11
6.5187345 9.4171219 1.0227358 10
6.5497785 -3.5916188 1.3694968 12.666667
6.5185003 9.417078 1.4293096 11
6.4723883 -3.5903633 1.8091587 14.333333
6.5155663 9.4130611 1.8386421 12
6.6352158 -3.5981038 2.0330284 15
6.6173511 9.4151859 2.2649028 13
6.5148921 9.4127941 2.6733017 14
6.5136056 9.4110947 3.0998297 15
6.9588413 -3.5777032 -0.13389385 7
6.8996716 -1.4678745 -0.36714739 6
7.0172839 -0.97209501 -0.3683967 6
7.0682611 -0.46478596 -0.36804247 6
7.0781651 0.45382032 -0.36795852 6
7.024415 0.96217644 -0.36751941 6
6.9490132 1.4685739 -0.36787122 6
7.0479932 9.4346266 -0.19117831 7
6.9549074 -3.5758088 0.14019911 8
6.9347086 9.4237709 0.22073942 8
6.9536352 -3.5756056 0.55215377 9.5
6.9437613 9.4360113 0.63278419 9
6.9555545 -3.5769777 0.96713495 11
6.9409127 9.4324951 1.0456889 10
6.9552417 -3.5771117 1.3877565 12.5
6.9381113 9.4289608 1.4608469 11
6.9494681 -3.574563 1.8142315 14
7.0497589 9.4381514 1.8917928 12
6.9540834 -3.577177 2.106564 15
6.9396315 9.4315519 2.3044815 13
6.9358988 9.4267378 2.7328854 14
7.0433855 9.4304018 3.1874928 15
7.3521557 -19.456345 -0.3665916 7
7.3160276 -3.5634689 -0.13909501 7
7.4383125 -3.5559819 0.14800669 8
7.3832326 9.4485312 0.22619729 8
7.4459763 -3.5600255 0.58292669 9.5
7.2712803 9.4462814 0.64380658 9
7.4485111 -3.561615 1.0210828 11
7.3768811 9.4410782 1.0697312 10
7.4041648 -3.5628493 1.4079424 12.333333
7.3815436 9.447156 1.4959594 11
7.4861526 -3.5583313 1.8224027 13.666667
7.3819137 9.4476442 1.9253091 12
7.4478655 -3.5624046 2.2241182 15
7.3800521 9.4456701 2.3588688 13
7.2675591 9.4425926 2.7821612 14
7.489296 9.44522 2.8143928 14
7.386167 9.453908 3.2487509 15
7.7282395 9.4613209 0.23041108 8
7.8411551 9.458601 0.66345584 9
7.8461118 9.4647532 1.0975161 10
7.8425159 9.4606094 1.5331681 11
7.8410506 9.4590044 1.9727566 12
7.7149658 9.4461164 2.3998449 13
7.9574604 9.4607496 2.4323633 13
7.8395395 9.4578629 2.8680315 14
7.8430486 9.4620867 3.3277261 15
8.2082777 9.4766483 -0.20353603 7
8.2160349 9.4857264 0.23662616 8
8.2118578 9.4810925 0.67722297 9
8.9470463 -19.360794 -0.37514973 7
10.562408 -19.129551 -0.38349083 7
12.220839 -18.81212 -0.39271328 7
12.710052 -47.397488 0.84538138 8
12.702111 -47.371555 2.5589352 9
12.700326 -47.368538 4.2789183 10
12.699997 -47.370956 6.0098677 11
12.699043 -47.371071 7.7554774 12
12.695247 -47.360653 9.5183477 13
13.427969 -47.353676 0.84825093 8
13.430722 -47.366848 2.5691307 9
13.425838 -47.353161 4.2947969 10
13.427374 -47.362076 6.0328755 11
13.422364 -47.348 7.7827458 12
13.423924 -47.357075 9.5556774 13
13.870309 -18.331415 -0.40133351 7
14.151133 -47.311996 0.85136443 8
14.157027 -47.335026 2.5784698 9
14.154262 -47.329189 4.3109145 10
14.158369 -47.346302 6.0564384 11
14.149622 -47.320545 7.8111238 12
14.150789 -47.327919 9.5901041 13
14.888139 -47.298218 0.8551926 8
14.884492 -47.289921 2.5877023 9
14.8858 -47.297359 4.3273487 10
14.888698 -47.309849 6.078805 11
14.885162 -47.301983 7.8428383 12
15.510178 -17.706491 -0.40977156 7
15.633783 -47.291519 0.85936886 8
15.626284 -47.272064 2.5990582 9
15.629753 -47.28574 4.3466907 10
15.622976 -47.268494 6.1020021 11
15.623865 -47.274426 7.874969 12
16.376286 -47.255852 0.86324072 8
16.375961 -47.258018 2.6112759 9
16.374151 -47.255928 4.3654389 10
16.374657 -47.260521 6.1310163 11
16.368607 -47.246254 7.9089327 12
17.136368 -16.944801 -0.41823339 7
17.129238 -47.231335 0.86754179 8
17.12957 -47.235271 2.6236794 9
17.122704 -47.219414 4.3846612 10
17.128847 -47.239395 6.1598773 11
17.123297 -47.227222 7.9464111 12
17.783735 -33.272274 0.65454006 8
17.745159 -32.088554 0.63651472 8
17.708172 -30.968325 0.6195845 8
17.84866 -30.203352 0.60965586 8
17.794594 -33.29438 1.9745271 9
17.753271 -32.104946 1.9191965 9
17.713583 -30.979445 1.8672127 9
17.849554 -30.206488 1.8361758 9
17.88166 -47.189499 2.6354756 9
17.73127 -31.011988 3.1224294 10
17.852396 -30.212912 3.0677402 10
17.798929 -33.304314 3.2998595 10
17.758995 -32.117031 3.2074201 10
17.722155 -30.997784 4.3813138 11
17.853609 -30.216602 4.3069453 11
17.88928 -47.21254 4.4077649 10
17.797153 -33.302856 4.6324754 11
17.750475 -32.103428 4.5008621 11
17.856745 -30.223558 5.5576797 12
17.805456 -33.320221 5.9797869 12
17.764292 -32.13015 5.811604 12
17.726475 -31.00703 5.6541266 12
17.887249 -47.210194 6.1892614 11
17.779669 -32.159702 7.139658 13
17.73312 -31.020357 6.9427156 13
17.809774 -33.330185 7.3417926 13
17.883018 -47.202068 7.9848948 12
17.746321 -31.045149 8.2530003 14
17.853113 -30.220791 8.1013651 14
17.822798 -33.356422 8.7274256 14
17.789341 -32.178993 8.485486 14
18.203657 18.153856 -0.41698053 7
18.430862 -30.192455 0.61503488 8
18.657717 -47.183868 0.87687445 8
18.423756 -30.182451 1.8509212 9
18.650309 -47.168076 2.6493196 9
18.426374 -30.188351 3.0921059 10
18.430943 -30.197447 4.3417983 11
18.652966 -47.1777 4.4294114 10
18.42972 -30.197092 5.6012039 12
18.653519 -47.18203 6.2203875 11
18.431355 -30.201426 6.8756123 13
18.652922 -47.183491 8.0265732 12
18.43605 -30.210785 8.1691084 14
18.433954 -30.209074 9.4808826 15
19.022713 -30.181025 0.62063044 8
19.0163 -30.172474 1.8671857 9
19.01807 -30.176889 3.1189013 10
19.019676 -30.182684 5.6489205 12
19.012972 -30.173717 6.9310522 13
19.016296 -30.182354 9.5575132 15
19.429592 -47.149799 0.88170969 8
19.82616 17.117155 -0.42524648 7
19.618811 -30.160032 0.62626302 8
19.609253 -30.146967 1.8831683 9
19.612354 -30.153326 3.1455736 10
19.619402 -30.165745 4.4170909 11
19.620035 -30.168339 5.6986957 12
19.616713 -30.164886 6.9933219 13
19.612497 -30.160078 8.3049316 14
20.219889 -30.13064 0.63195986 8
20.217766 -47.134571 0.88714671 8
20.219818 -30.132126 1.9005196 9
20.216999 -47.135593 2.679754 9
20.221779 -30.136625 3.1741281 10
20.210899 -47.12421 4.4777799 10
20.219933 -30.135483 4.4550414 11
20.222109 -30.140337 5.7479868 12
20.208427 -47.121288 6.2870326 11
20.217314 -30.134834 7.0532494 13
20.210167 -47.128193 8.1132803 12
20.218576 -30.138372 8.3783522 14
20.839531 -30.112381 0.63813907 8
21.008596 -47.104439 0.89256018 8
20.843168 -30.119204 1.9187297 9
21.003916 -47.096714 2.6947975 9
20.840014 -30.116238 3.2035084 10
20.999962 -47.090626 4.5031538 10
20.836344 -30.112539 4.4957514 11
20.83658 -30.114485 5.7998471 12
21.006598 -47.108269 6.3252568 11
20.84436 -30.127333 7.1211419 13
21.004375 -47.106117 8.1609221 12
20.841053 -30.12421 8.4570599 14
21.391401 15.939584 -0.43368977 7
21.454929 -30.07152 0.644095 8
21.460579 -30.08099 1.9360793 9
21.471975 -30.098505 3.2344322 10
21.470285 -30.097736 4.5394425 11
21.473684 -30.104088 5.8569622 12
21.467291 -30.096766 7.1863675 13
21.465908 -30.096472 8.5352535 14
21.748819 24.325558 0.61258107 8
21.81094 -47.079006 0.89832479 8
21.750208 24.327494 1.7556014 9
21.811914 -47.083824 2.7120962 9
21.757738 24.336288 2.903898 10
21.751665 24.329897 4.0576167 11
21.803675 -47.068787 4.5309229 10
21.757475 24.336777 5.2236037 12
21.796736 -47.05658 6.3600612 11
21.764992 24.345564 6.4037995 13
21.765949 24.347038 7.5987687 14
21.810524 -47.089073 8.2117481 12
21.776981 24.359762 8.8174639 15
22.318295 23.564806 0.60921705 8
22.028368 23.937714 0.61067176 8
22.317509 23.564283 1.7459812 9
22.031338 23.94128 1.7503425 9
22.324747 23.572227 2.8879869 10
22.043432 23.954752 2.895813 10
22.321119 23.568714 4.0358868 11
22.034573 23.945488 4.0458393 11
22.320236 23.568102 5.1940613 12
22.041788 23.953674 5.2087641 12
22.327335 23.575899 6.3674188 13
22.04233 23.954611 6.3835683 13
22.334509 23.583784 7.5576911 14
22.059433 23.97353 7.5802903 14
22.340422 23.590347 8.767683 15
22.062727 23.977472 8.7928905 15
22.598301 23.18466 0.60765165 8
22.619423 -47.045544 0.90420556 8
22.5933 23.179806 1.7412945 9
22.620268 -47.049984 2.7289791 9
22.609268 23.19644 2.8813729 10
22.604086 23.191406 4.0263977 11
22.61496 -47.041645 4.5594926 10
22.615126 23.202993 5.1845908 12
22.61582 23.203985 6.3539987 13
22.621286 -47.057499 6.4038115 11
22.611469 23.199818 7.5379071 14
22.613241 -47.043522 8.2599525 12
22.613947 23.202641 8.7433796 15
22.854509 -6.5279169 -0.4022114 7
22.847111 14.598484 -0.44153386 7
22.904316 -7.8050966 0.43542632 8
22.893248 -7.2554388 0.43264914 8
22.872307 -6.8896956 0.43068328 8
22.859556 -6.5299973 0.42897484 8
22.839085 -6.1714997 0.42722312 8
23.157856 22.432814 0.6049751 8
22.870785 22.800114 0.60604495 8
22.910063 -7.8076925 1.2828296 9
22.882669 -7.252768 1.2727896 9
22.885487 -6.8943038 1.2676888 9
22.868029 -6.5330515 1.2617742 9
22.866205 -6.1794271 1.2570221 9
23.147654 22.423149 1.7335403 9
22.876848 22.806387 1.7376716 9
22.908121 -7.8076601 2.1330941 10
22.905016 -7.2604847 2.1183181 10
22.882391 -6.8940334 2.107275 10
22.864248 -6.5326276 2.0971668 10
22.849024 -6.1754484 2.0878336 10
22.910843 -7.8093214 2.9890821 11
22.8967 -7.2585344 2.9667511 11
22.895012 -6.8984804 2.9538498 11
22.868259 -6.53442 2.938448 11
22.853203 -6.177218 2.9252648 11
23.162075 22.437309 2.868402 10
22.876753 22.806534 2.8733881 10
22.933823 -8.001193 3.865267 12
22.904648 -7.6246629 3.8420184 12
22.908913 -7.2630663 3.8253458 12
22.882063 -6.895267 3.8044422 12
22.877556 -6.5377226 3.7881858 12
22.853024 -6.1778193 3.7695384 12
23.164734 22.44009 4.0097051 11
22.88447 22.814459 4.0175362 11
22.944347 -8.0055552 4.743228 13
22.922878 -7.6313992 4.7162085 13
22.88987 -7.2577448 4.6880488 13
22.89764 -6.9006143 4.6693993 13
22.882967 -6.539928 4.6473136 13
22.873837 -6.1840715 4.6274743 13
23.169641 22.445049 5.1617098 12
22.887186 22.817408 5.1712914 12
22.902531 -7.6253624 5.5943418 14
22.900883 -7.2619157 5.5684819 14
22.898542 -6.9015708 5.5438247 14
22.887671 -6.5419426 5.5184593 14
22.877464 -6.1857147 5.4945836 14
22.932043 -8.0019989 5.628428 14
22.881124 -6.187377 6.3761086 15
23.178627 22.453947 6.3282332 13
22.890148 22.820601 6.3383336 13
22.937441 -8.0046005 6.5321822 15
22.936636 -7.6373825 6.5006924 15
22.922188 -7.2693443 6.4669862 15
22.894053 -6.9009218 6.4310684 15
22.883116 -6.5413351 6.4015727 15
23.170856 22.446646 7.5062861 14
22.88694 22.817654 7.5197206 14
23.180347 22.456047 8.7093182 15
22.897629 22.828547 8.7253981 15
23.542374 -5.9997439 0.43903172 8
23.427607 22.051159 0.60360128 8
23.438778 -47.013294 0.91038609 8
23.534031 -5.9982772 1.2891644 9
23.432615 22.056046 1.7309047 9
23.519941 -5.9953566 2.1413355 10
23.441378 -47.021152 2.7469604 9
23.537615 -6.0004916 3.0017991 11
23.439461 22.062656 2.8631549 10
23.558994 -6.0065732 3.8716078 12
23.436859 -47.014759 4.5894341 10
23.547264 -6.0042672 4.7460279 13
23.449381 22.072338 5.1528292 12
23.557272 -6.0074825 5.6367888 14
23.442148 22.065716 6.3129768 13
23.434078 -47.01186 6.4431195 11
23.533785 -6.0022144 6.5335274 15
23.43383 -47.014069 8.3133841 12
23.985754 21.311647 0.60175866 8
23.708191 21.681942 0.60264987 8
23.706568 21.680603 1.7278785 9
23.991234 21.316854 3.9897964 11
23.718143 21.691463 3.9958568 11
23.99991 21.324787 6.2954631 13
23.726757 21.699625 6.3049827 13
23.731674 21.704269 7.4827781 14
23.744041 21.715719 8.6830235 15
24.354094 -10.917468 -0.45507458 7
24.157763 13.096735 -0.44842875 7
24.253845 20.934635 0.60076725 8
24.277929 -46.998299 0.91718781 8
24.254803 20.935551 1.7230881 9
24.27137 -46.988235 2.7655358 9
24.265446 20.944813 2.8508506 10
24.000475 21.324942 2.8555031 10
24.268724 20.947727 3.9854062 11
24.269154 -46.986576 4.620635 10
24.269987 20.948906 5.1297169 12
24.002218 21.326719 5.1374154 12
24.27256 20.95121 6.2873192 13
24.271429 -46.993622 6.4881153 11
24.274622 20.953077 7.4609351 14
24.000916 21.325798 7.4702625 14
24.26844 -46.990509 8.3703642 12
24.278738 20.95672 8.6546659 15
24.017044 21.340237 8.669816 15
24.528797 20.564999 0.60007751 8
24.529001 20.565231 1.7212924 9
24.537344 20.572277 2.8476801 10
24.547701 20.581009 3.9821608 11
24.545017 20.578823 5.1247478 12
24.545208 20.579039 6.2806358 13
24.561235 20.592525 7.4572453 14
24.553553 20.586155 8.6462383 15
25.072821 19.823767 0.59893495 8
25.069571 19.821203 1.7182956 9
24.816353 20.206638 1.7207863 9
25.080627 19.829948 2.8431869 10
24.820436 20.209991 2.8464308 10
24.818373 20.208344 3.9784601 11
25.092218 19.839121 5.1176324 12
24.827799 20.216045 5.1225185 12
25.10158 19.846518 6.2742577 13
25.111338 19.854233 7.447751 14
24.835543 20.222406 7.4514608 14
25.10619 19.850174 8.6361914 15
24.824902 20.213785 8.6385498 15
25.476954 -9.2920227 -0.46063089 7
25.318224 11.458599 -0.45458439 7
25.345118 19.454384 0.59855461 8
25.347439 19.456144 1.7178655 9
25.361803 19.467142 2.8429279 10
25.353632 19.460857 3.9727285 11
25.378138 19.479631 5.1182089 12
25.362356 19.467506 6.2687669 13
25.376345 19.478199 8.6318464 15
25.888435 18.71541 0.59811711 8
25.611456 19.080881 0.59815383 8
25.896133 18.720905 1.7175709 9
25.89328 18.718777 2.8407328 10
25.920231 18.73818 3.9751854 11
25.637541 19.100176 3.9736624 11
25.908648 18.729748 5.1142488 12
25.641569 19.103127 5.1153259 12
25.912766 18.732653 6.2688642 13
25.64817 19.107998 6.2707677 13
25.909679 18.730352 7.4376564 14
25.638863 19.101027 7.4380784 14
25.655922 19.113678 8.6325026 15
26.35198 9.7156811 -0.46064398 7
26.157394 18.34396 0.59800881 8
26.168598 18.351725 1.71781 9
26.178221 18.358377 2.8425956 10
26.181704 18.360729 3.974261 11
26.182199 18.360895 6.2694201 13
26.194605 18.369499 7.4427457 14
26.197454 18.371399 8.6331701 15
26.720039 17.616421 0.59867811 8
26.585238 17.802359 1.719342 9
26.591894 17.80674 2.84498 10
26.444834 17.984499 3.9743989 11
26.5972 17.810055 5.1202326 12
26.586784 17.802895 6.2728395 13
26.605145 17.815033 7.4484577 14
26.738064 17.627346 8.6404181 15
26.473206 18.003319 8.6377211 15
27.177774 7.8581219 -0.46536684 7
26.995022 17.246954 0.59902751 8
27.009809 17.256243 1.7220138 9
26.986917 17.241474 2.8464699 10
26.996412 17.247383 3.9807677 11
27.001225 17.250298 5.1248293 12
27.007963 17.254438 6.282557 13
27.02376 17.264366 7.4592609 14
27.022852 17.263624 8.6511774 15
27.229628 -5.6992354 -0.46889529 7
27.537411 16.499987 0.59987229 8
27.257113 16.86841 0.59919834 8
27.53974 16.501188 1.7244331 9
27.268415 16.875231 1.7226623 9
27.266647 16.873962 2.8499 10
27.542873 16.502674 3.9893305 11
27.263819 16.872034 3.983834 11
27.556385 16.510565 5.1375694 12
27.271786 16.876789 5.1294179 12
27.280464 16.881973 6.2886562 13
27.558666 16.511528 7.4723768 14
27.289957 16.887665 7.4647741 14
27.565025 16.515131 8.6687317 15
27.289474 16.88718 8.6577349 15
27.828144 -3.7687833 -0.47149625 7
27.790625 5.9148293 -0.46885246 7
27.808363 16.124466 0.6004439 8
27.818787 16.130295 1.7269908 9
27.826885 16.134773 2.8583589 10
27.810453 16.125031 3.9938884 11
27.832344 16.137501 5.1450214 12
27.821352 16.130909 6.3033924 13
27.837666 16.140137 7.4841194 14
28.238485 -1.7783172 -0.47325066 7
28.214451 3.9173315 -0.47161892 7
28.367817 15.378235 0.60226202 8
28.372883 15.380727 1.7327551 9
28.376104 15.382218 2.8676944 10
28.088703 15.752234 2.8614771 10
28.099821 15.758231 4.0022707 11
28.368137 15.37739 5.1597333 12
28.093056 15.7542 5.1506004 12
28.390909 15.389468 6.329073 13
28.100538 15.758154 6.3144403 13
28.112911 15.764844 7.4961834 14
28.398998 15.393319 8.7132912 15
28.125608 15.771715 8.6983309 15
28.414703 1.8843794 -0.47314924 7
28.642944 14.999521 0.60321885 8
28.657181 15.006701 1.7365175 9
28.661924 15.008911 2.8742294 10
28.651487 15.003174 4.0172496 11
28.659697 15.007195 5.1727314 12
28.654039 15.003956 6.3387418 13
28.674929 15.014606 7.5272837 14
28.682381 15.01822 8.7328186 15
28.91823 14.618712 0.604276 8
28.937988 14.628408 1.7403572 9
28.922798 14.62044 2.8787649 10
28.936768 14.62721 4.0270886 11
28.939392 14.62824 5.1844578 12
28.95895 14.637825 6.3587027 13
28.945528 14.630739 7.5420537 14
28.951035 14.633214 8.7493811 15
29.483812 13.856949 0.60698706 8
29.204212 14.24077 0.60565078 8
29.490635 13.859828 1.748367 9
29.216759 14.246581 1.7443627 9
29.486813 13.857705 2.8934982 10
29.216671 14.24623 2.8870625 10
29.494696 13.86108 4.0470357 11
29.206654 14.241036 4.0354719 11
29.491541 13.859265 5.2092571 12
29.236343 14.254878 6.373673 13
29.500982 13.863029 7.5791759 14
29.23246 14.252664 7.5623512 14
29.515413 13.869462 8.795146 15
29.235846 14.253986 8.7723141 15
29.78437 13.479793 0.60884476 8
29.777351 13.476272 1.7534169 9
29.775377 13.475035 2.9022183 10
29.791441 13.481959 4.0604429 11
