# .PCD v0.7 - Point Cloud Data file format
VERSION 0.7
FIELDS x y z intensity
SIZE 4 4 4 4
TYPE F F F F
COUNT 1 1 1 1
WIDTH 1335
HEIGHT 1
VIEWPOINT 0 0 0 1 0 0 0
POINTS 1335
DATA ascii
-2.0466752 -2.5133147 -0.31680623 0
-1.9732332 -2.5699906 -0.3160027 0
-1.8339591 -2.5743051 -0.31816673 0
-1.7653022 -2.5157969 -0.31901237 0
-1.6483334 -2.5505064 -0.31839988 0
-1.4946079 -2.5745449 -0.31902355 0
-0.83470845 -2.5116737 -0.325048 0
-0.73754424 -2.5394595 -0.32471254 0
-0.64165252 -2.5459497 -0.32712317 0
-0.55480421 -2.5526502 -0.32624221 0
-0.45056698 -2.5433049 -0.32489336 0
-0.35984525 -2.5625992 -0.3270303 0
-0.24966902 -2.5763175 -0.32847515 0
-0.13704173 -2.5559399 -0.32891184 0
-0.056223929 -2.5401075 -0.32880434 0
0.038182788 -2.5469742 -0.32990235 0
0.15525049 -2.5485775 -0.32990253 0
0.26479378 -2.5451045 -0.33045149 0
0.35119206 -2.5682061 -0.33207187 0
0.4441649 -2.5490494 -0.33303422 0
0.55000603 -2.5665112 -0.3335644 0
0.64232945 -2.5482476 -0.33376011 0
0.757164 -2.5387969 -0.33440033 0
0.85933512 -2.5817287 -0.33495051 0
0.94835013 -2.5642111 -0.33648467 0
1.0384728 -2.5262434 -0.33607879 0
1.1189029 -2.5147047 -0.33795124 0
-2.610538 -2.4040878 -0.31048629 0
-2.5702391 -2.435873 -0.31297883 0
-2.4329121 -2.4416428 -0.3133263 0
-2.3536587 -2.4658513 -0.31343311 0
-2.2424383 -2.4525824 -0.31420925 0
-2.1303637 -2.4328685 -0.31538409 0
-2.0485134 -2.443305 -0.31542778 0
-1.953624 -2.470422 -0.31689602 0
-1.8626797 -2.4260027 -0.3170948 0
-1.7514229 -2.4458311 -0.31888774 0
-1.6444587 -2.4923668 -0.32000422 0
-1.5731492 -2.4217196 -0.31957778 0
-1.4261711 -2.4566588 -0.31972319 0
-1.0332429 -2.4146504 -0.32249266 0
-0.94533509 -2.448005 -0.32223186 0
-0.85001945 -2.4402626 -0.32414401 0
-0.740637 -2.4512062 -0.32524148 0
-0.65896267 -2.4412606 -0.32618767 0
-0.55916435 -2.4383709 -0.3269541 0
-0.45304465 -2.4550312 -0.32574651 0
-0.33677834 -2.4606626 -0.3276425 0
-0.24810201 -2.4702575 -0.32848775 0
-0.1650459 -2.4246361 -0.32960066 0
-0.060671389 -2.4209034 -0.32897624 0
0.0435009 -2.4279301 -0.33017695 0
0.14798303 -2.4292707 -0.33038586 0
0.2448512 -2.4372885 -0.33016074 0
0.35129446 -2.4387345 -0.33232173 0
0.46725965 -2.4342799 -0.33349621 0
0.54920316 -2.4762943 -0.33343324 0
0.65713769 -2.458436 -0.33448169 0
0.76162237 -2.4264529 -0.33480752 0
0.85277975 -2.467345 -0.33522639 0
0.95310104 -2.4680128 -0.33620542 0
1.0389887 -2.4279993 -0.33669415 0
1.1495715 -2.4714305 -0.33774328 0
1.255448 -2.4358261 -0.33823061 0
1.331239 -2.4108729 -0.33930382 0
-2.6731651 -2.3577795 -0.31185198 0
-2.5618229 -2.336643 -0.31171772 0
-2.4799912 -2.3503435 -0.3138161 0
-2.3200192 -2.3619137 -0.31371754 0
-2.2283661 -2.3345907 -0.3145141 0
-2.1481032 -2.3494043 -0.31447369 0
-2.0705686 -2.3645816 -0.31590813 0
-1.9621887 -2.3404052 -0.31682166 0
-1.8409631 -2.3279605 -0.31787917 0
-1.6758265 -2.3523397 -0.31967109 0
-1.5236721 -2.345552 -0.32009569 0
-1.3577342 -2.3387725 -0.3204228 0
-1.2351223 -2.3145089 -0.32212663 0
-1.1506301 -2.3552916 -0.32187986 0
-1.0672395 -2.3531976 -0.32296777 0
-0.94936609 -2.3574653 -0.3223671 0
-0.86431366 -2.3368869 -0.32310176 0
-0.75984836 -2.3616989 -0.32472295 0
-0.64125508 -2.3316736 -0.32712933 0
-0.54008794 -2.3551843 -0.32729515 0
-0.43758145 -2.3712444 -0.32618779 0
-0.343052 -2.3597941 -0.3272678 0
-0.25178337 -2.3376632 -0.32822359 0
-0.15923665 -2.3393543 -0.32989573 0
-0.058526352 -2.3352585 -0.32905704 0
0.041965995 -2.342175 -0.33020577 0
0.14278297 -2.3438466 -0.33060801 0
0.24288964 -2.3316307 -0.33044717 0
0.34488091 -2.3334782 -0.33265185 0
0.44938433 -2.3411629 -0.33341962 0
0.54685926 -2.3466802 -0.33375198 0
0.63496917 -2.3755109 -0.33460417 0
0.73587179 -2.3444178 -0.33479223 0
0.84594899 -2.3385019 -0.3360725 0
0.93829632 -2.3789518 -0.33629796 0
1.0402787 -2.3378685 -0.3368994 0
1.1408813 -2.3493254 -0.33835974 0
1.2464675 -2.3356473 -0.33864918 0
1.372914 -2.3779066 -0.338635 0
1.4435728 -2.3528895 -0.34066719 0
1.5205883 -2.3166037 -0.34139666 0
-2.7486336 -2.2548087 -0.31105682 0
-2.6660821 -2.2515926 -0.31180382 0
-2.5457036 -2.2452884 -0.31263849 0
-2.4396954 -2.2469232 -0.31340718 0
-2.3483431 -2.2255776 -0.31503749 0
-2.240576 -2.2486165 -0.31457096 0
-2.1657197 -2.2689605 -0.3150546 0
-2.0588543 -2.2517939 -0.31599781 0
-1.9349122 -2.2418339 -0.31691468 0
-1.8171393 -2.2314446 -0.31855452 0
-1.7521262 -2.2820151 -0.31818694 0
-1.6476935 -2.2555747 -0.3196927 0
-1.5565838 -2.2183447 -0.32107395 0
-1.474195 -2.2693839 -0.32061356 0
-1.3329185 -2.2404442 -0.320117 0
-1.2596011 -2.2431602 -0.32172561 0
-1.1538656 -2.2786434 -0.32221839 0
-1.0551087 -2.2406805 -0.32287309 0
-0.97029668 -2.2528739 -0.32351384 0
-0.86136299 -2.2302065 -0.32322729 0
-0.74881238 -2.2717209 -0.32446277 0
-0.64960921 -2.2368419 -0.32680976 0
-0.55285746 -2.2616951 -0.32751527 0
-0.44922963 -2.2530973 -0.32761422 0
-0.35486791 -2.2449765 -0.32685515 0
-0.24889056 -2.233654 -0.32857212 0
-0.15342744 -2.2540722 -0.33019078 0
-0.056381315 -2.2496133 -0.32913783 0
0.040431093 -2.2564199 -0.33023462 0
0.13758293 -2.2584226 -0.33083019 0
0.25022793 -2.245852 -0.33072928 0
0.36539337 -2.2494574 -0.33347991 0
0.46140185 -2.2305973 -0.33357748 0
0.55485135 -2.2357843 -0.33405042 0
0.64509058 -2.2819939 -0.33453488 0
0.74313909 -2.2541397 -0.33508274 0
0.84279156 -2.229522 -0.3365221 0
0.92999887 -2.2623878 -0.33620286 0
1.0525396 -2.2352719 -0.33733314 0
1.160869 -2.2523606 -0.33778837 0
1.2565405 -2.2376881 -0.3385756 0
1.3392056 -2.2692568 -0.33950537 0
1.4518188 -2.2349417 -0.34087124 0
1.5654449 -2.2653213 -0.341021 0
1.640123 -2.2338259 -0.34065667 0
-2.8233492 -2.1517653 -0.31057864 0
-2.7381968 -2.1495743 -0.31091124 0
-2.6431823 -2.1367757 -0.3117725 0
-2.5625837 -2.1641984 -0.31281853 0
-2.461565 -2.1399865 -0.31316406 0
-2.3610315 -2.1534984 -0.31375325 0
-2.2496068 -2.1320028 -0.31595349 0
-2.1291485 -2.1675975 -0.31507367 0
-2.0404272 -2.1376998 -0.31613559 0
-1.945541 -2.1481647 -0.31672689 0
-1.8449916 -2.1586196 -0.31759712 0
-1.7729741 -2.1457033 -0.31847313 0
-1.6415727 -2.1380272 -0.31927904 0
-1.5310001 -2.1423762 -0.32099515 0
-1.4293997 -2.1666782 -0.32077813 0
-1.3429788 -2.1678252 -0.31997928 0
-1.2371298 -2.1310132 -0.32126823 0
-1.1403892 -2.1593647 -0.32301146 0
-1.0468984 -2.1432049 -0.32265708 0
-0.94809067 -2.1517715 -0.32405445 0
-0.86161119 -2.1396253 -0.32362649 0
-0.74331522 -2.1606514 -0.32409164 0
-0.65429419 -2.1385324 -0.32641956 0
-0.55182993 -2.1561241 -0.32824299 0
-0.45299885 -2.1506114 -0.3274678 0
-0.34569129 -2.1282654 -0.32766187 0
-0.23942168 -2.1486077 -0.32872656 0
-0.14761822 -2.1687906 -0.33048582 0
-0.054236282 -2.1639681 -0.3292186 0
0.038896184 -2.1706645 -0.33026344 0
0.14764456 -2.1688883 -0.33062968 0
0.25649858 -2.1619356 -0.33121622 0
0.35164818 -2.1648247 -0.33364537 0
0.44399989 -2.1464539 -0.33357635 0
0.55244005 -2.127388 -0.33447349 0
0.64925838 -2.1549289 -0.3347005 0
0.74720287 -2.1618659 -0.3351737 0
0.8437624 -2.1392953 -0.33675095 0
0.93633687 -2.145555 -0.33682901 0
1.0470195 -2.1433105 -0.3373962 0
1.1596572 -2.1365886 -0.33804664 0
1.2462342 -2.1467235 -0.33909938 0
1.3429896 -2.1566813 -0.34005514 0
1.4332556 -2.1389964 -0.34068874 0
1.5439421 -2.1669157 -0.34068075 0
1.6509374 -2.1502438 -0.34029245 0
1.7426491 -2.1587257 -0.34267396 0
1.8309832 -2.1212506 -0.34407252 0
-2.9351339 -2.0128927 -0.31137499 0
-2.8605907 -2.0534627 -0.31111401 0
-2.7562029 -2.049294 -0.31168336 0
-2.6402879 -2.0422821 -0.31155521 0
-2.5537181 -2.0545824 -0.31249496 0
-2.4736264 -2.0589211 -0.31339359 0
-2.357373 -2.0493503 -0.31396973 0
-2.2510788 -2.043602 -0.31468225 0
-2.1651125 -2.022716 -0.31641793 0
-2.0482399 -2.0555902 -0.31581566 0
-1.9537821 -2.0565102 -0.31712118 0
-1.8600129 -2.0638123 -0.31767374 0
-1.7433642 -2.049427 -0.31875038 0
-1.6352135 -2.0277188 -0.31984979 0
-1.5621361 -2.0446911 -0.31964192 0
-1.4564763 -2.044383 -0.32157755 0
-1.3616384 -2.0638487 -0.32142371 0
-1.2636673 -2.0398254 -0.32072875 0
-1.1551194 -2.0563076 -0.32277164 0
-1.0382663 -2.050355 -0.32285914 0
-0.95024139 -2.0427892 -0.32427183 0
-0.84566218 -2.0572038 -0.324426 0
-0.73730725 -2.0532644 -0.32304052 0
-0.64273995 -2.0484488 -0.32628995 0
-0.55253601 -2.023617 -0.32879847 0
-0.45242706 -2.0317373 -0.32819039 0
-0.34653118 -2.0407984 -0.32787931 0
-0.25982511 -2.0641444 -0.32953015 0
-0.14766708 -2.060858 -0.33008036 0
-0.051578861 -2.05864 -0.32939634 0
0.051739123 -2.0640066 -0.33043739 0
0.15504648 -2.0602255 -0.33087009 0
0.24903771 -2.0499279 -0.33146334 0
0.34717676 -2.0697706 -0.333556 0
0.45211527 -2.0584688 -0.33384681 0
0.54252142 -2.0442851 -0.33521381 0
0.6501413 -2.0203035 -0.33492997 0
0.75144631 -2.0771854 -0.33619407 0
0.84022784 -2.0440185 -0.33638215 0
0.94849265 -2.0514119 -0.33756292 0
1.0509099 -2.0390155 -0.33660984 0
1.1403891 -2.0651214 -0.33776867 0
1.2485166 -2.0481296 -0.33956134 0
1.3508682 -2.0473981 -0.34091955 0
1.4558626 -2.043335 -0.34020951 0
1.559391 -2.0614498 -0.34066638 0
1.6396666 -2.0431871 -0.34156698 0
1.7436656 -2.0496936 -0.34315932 0
1.8638614 -2.0561631 -0.34368819 0
1.9328912 -2.024956 -0.34371984 0
-2.9471006 -1.9393743 -0.31051156 0
-2.8401544 -1.9477565 -0.31204295 0
-2.7734447 -1.9609541 -0.31146556 0
-2.6752739 -1.9496244 -0.31246313 0
-2.5559454 -1.9478619 -0.31267446 0
-2.4414105 -1.945032 -0.3132492 0
-2.3342125 -1.9428793 -0.31448805 0
-2.2543082 -1.9411836 -0.31481794 0
-2.1506832 -1.9520299 -0.31570005 0
-2.0521345 -1.944854 -0.31778556 0
-1.938278 -1.9732814 -0.31642979 0
-1.8388761 -1.9543473 -0.31780383 0
-1.7385864 -1.9290824 -0.31887051 0
-1.6652168 -1.9575297 -0.31925368 0
-1.5419273 -1.9214518 -0.3206026 0
-1.4595519 -1.9387618 -0.31990963 0
-1.3550373 -1.9608746 -0.32199189 0
-1.2395558 -1.9383086 -0.32241926 0
-1.1419683 -1.9670889 -0.32222813 0
-1.0578674 -1.9487901 -0.32355788 0
-0.95370442 -1.9517037 -0.32343689 0
-0.85516286 -1.9594501 -0.32478675 0
-0.74889171 -1.938942 -0.32460907 0
-0.63912123 -1.9389544 -0.3248387 0
-0.55173719 -1.9408219 -0.32859778 0
-0.44780079 -1.9527537 -0.32843855 0
-0.3461515 -1.9540004 -0.32828084 0
-0.25305596 -1.9469112 -0.32904455 0
-0.15482336 -1.942445 -0.32917005 0
-0.048574496 -1.9403734 -0.33001423 0
0.048661821 -1.9430649 -0.33086395 0
0.14567314 -1.9355769 -0.33091739 0
0.2430816 -1.9309077 -0.3318395 0
0.35369083 -1.9430237 -0.33307889 0
0.44920698 -1.9587383 -0.33396861 0
0.55523163 -1.963822 -0.3347837 0
0.65901983 -1.9423687 -0.33492285 0
0.75189805 -1.9795573 -0.33698151 0
0.85121691 -1.946933 -0.33699846 0
0.94370472 -1.9491084 -0.33634067 0
1.0571527 -1.9472337 -0.33750561 0
1.1638799 -1.9721798 -0.33905432 0
1.2637873 -1.945466 -0.34037372 0
1.3744676 -1.9587153 -0.33919248 0
1.4436232 -1.9370162 -0.34126478 0
1.5474724 -1.956833 -0.34119052 0
1.6585876 -1.978267 -0.34236449 0
1.7439226 -1.953423 -0.34403399 0
1.8464708 -1.9343925 -0.34262714 0
1.9603142 -1.9672593 -0.34352526 0
2.0349636 -1.9284854 -0.34424621 0
-3.0352101 -1.8652313 -0.31168813 0
-2.9587069 -1.8474802 -0.3115519 0
-2.84306 -1.86131 -0.31135374 0
-2.7418609 -1.8516314 -0.31252384 0
-2.6266472 -1.8571717 -0.31315246 0
-2.5288024 -1.8428863 -0.31371307 0
-2.4344833 -1.8280061 -0.31460765 0
-2.3553734 -1.8579646 -0.31385848 0
-2.2433181 -1.840212 -0.31525299 0
-2.1518624 -1.870685 -0.31532586 0
-2.0614493 -1.8447241 -0.31628752 0
-1.9665697 -1.8372278 -0.31860244 0
-1.8480817 -1.8415669 -0.31745619 0
-1.7719541 -1.8563811 -0.31835511 0
-1.630195 -1.8350081 -0.31952238 0
-1.5528569 -1.8521249 -0.3201071 0
-1.4614742 -1.8480616 -0.32111576 0
-1.3556701 -1.8465476 -0.3214539 0
-1.2564634 -1.8463548 -0.32240805 0
-1.1612049 -1.8598824 -0.3227641 0
-1.0554621 -1.8486423 -0.32332194 0
-0.95698673 -1.8325799 -0.32404575 0
-0.85211623 -1.8531269 -0.32557306 0
-0.76310223 -1.8635406 -0.32440352 0
-0.65165305 -1.8420447 -0.32417339 0
-0.54991251 -1.843801 -0.327618 0
-0.43750149 -1.8584608 -0.32814443 0
-0.35448408 -1.8325126 -0.32856339 0
-0.2440808 -1.8329078 -0.32872316 0
-0.1526655 -1.852478 -0.3300325 0
-0.059714712 -1.8571541 -0.33011138 0
0.046676625 -1.8639653 -0.33114702 0
0.15312159 -1.8564432 -0.33107597 0
0.25937611 -1.8469808 -0.33196747 0
0.35314575 -1.8400989 -0.33341798 0
0.45177597 -1.8365743 -0.33407131 0
0.53933346 -1.8569468 -0.33472481 0
0.654163 -1.8495634 -0.33539838 0
0.75208694 -1.8448175 -0.33578843 0
0.84613162 -1.8654845 -0.33676657 0
0.96331054 -1.8690296 -0.33623314 0
1.0593851 -1.8552537 -0.33887374 0
1.1430168 -1.827575 -0.33882347 0
1.2535609 -1.842189 -0.339531 0
1.3401152 -1.8669972 -0.34036914 0
1.4398453 -1.8478111 -0.34041214 0
1.5477545 -1.8459373 -0.34174186 0
1.6596531 -1.868109 -0.34240922 0
1.7579325 -1.8595281 -0.34244499 0
1.8452538 -1.8254805 -0.34323969 0
1.9344673 -1.859817 -0.34393772 0
2.0549991 -1.8654242 -0.34434238 0
2.1387603 -1.8325701 -0.34584442 0
-3.1101756 -1.7028929 -0.31022102 0
-3.0477293 -1.7547798 -0.31067574 0
-2.9229438 -1.7390925 -0.31182814 0
-2.838701 -1.753953 -0.31291378 0
-2.7358665 -1.7450352 -0.31256768 0
-2.642612 -1.7572097 -0.3131775 0
-2.5409107 -1.7425373 -0.31414735 0
-2.4661078 -1.7702727 -0.31420326 0
-2.3535845 -1.7671579 -0.31461418 0
-2.2557695 -1.7447981 -0.31503633 0
-2.1371806 -1.7531532 -0.31602433 0
-2.029582 -1.7390853 -0.31653443 0
-1.9294361 -1.7464556 -0.31724983 0
-1.8641649 -1.7667339 -0.31934017 0
-1.7365098 -1.7426354 -0.31884357 0
-1.652146 -1.7393532 -0.31968081 0
-1.560469 -1.7565243 -0.32015678 0
-1.4690112 -1.7521824 -0.32064563 0
-1.354701 -1.7384238 -0.32140118 0
-1.2553186 -1.752924 -0.32300085 0
-1.1371473 -1.7465665 -0.32414636 0
-1.0483751 -1.74792 -0.32284287 0
-0.96310109 -1.7567474 -0.32347101 0
-0.85221285 -1.7444983 -0.32500407 0
-0.75567734 -1.7659558 -0.32607603 0
-0.65779585 -1.7401184 -0.32512853 0
-0.55303854 -1.7616315 -0.32749206 0
-0.45390549 -1.7480537 -0.3281357 0
-0.35824722 -1.7323458 -0.3284362 0
-0.25915283 -1.7536757 -0.3290599 0
-0.14450122 -1.7496608 -0.33095157 0
-0.043853059 -1.7426156 -0.33109307 0
0.043367963 -1.7321326 -0.33161879 0
0.13123889 -1.7395875 -0.33137429 0
0.24827933 -1.768024 -0.33177599 0
0.35080072 -1.7596567 -0.333413 0
0.45210457 -1.7411594 -0.33427861 0
0.55339599 -1.7450777 -0.33436018 0
0.65235567 -1.7637197 -0.33520505 0
0.76134884 -1.7376106 -0.3355599 0
0.84580827 -1.7630935 -0.33706513 0
0.95152426 -1.7466568 -0.33742803 0
1.0548216 -1.7584066 -0.33799708 0
1.1738083 -1.7622932 -0.34057805 0
1.2619066 -1.7340063 -0.34016642 0
1.3736449 -1.7628783 -0.34040889 0
1.4536636 -1.7592244 -0.34158629 0
1.5446448 -1.7386467 -0.3416889 0
1.654947 -1.7587912 -0.34221613 0
1.7547274 -1.7527857 -0.34321716 0
1.8462601 -1.741231 -0.34377995 0
1.9489841 -1.7524575 -0.34358084 0
2.051765 -1.7580926 -0.34521684 0
2.1623969 -1.7481308 -0.34541845 0
2.2266273 -1.7222906 -0.34564531 0
-3.1424913 -1.6338556 -0.30987963 0
-3.0693767 -1.6521095 -0.31019622 0
-2.962286 -1.6495516 -0.31148612 0
-2.862879 -1.6484046 -0.31201029 0
-2.7671885 -1.6464195 -0.31308404 0
-2.6510067 -1.6553459 -0.31371418 0
-2.5506654 -1.643943 -0.31408021 0
-2.4287078 -1.6655693 -0.31473494 0
-2.3304999 -1.647782 -0.3153922 0
-2.2260714 -1.6467671 -0.31647134 0
-2.1400871 -1.639196 -0.31548992 0
-2.0494375 -1.6449022 -0.31680757 0
-1.9618344 -1.6568055 -0.31724459 0
-1.8460996 -1.6519644 -0.31793094 0
-1.7398508 -1.6489278 -0.32035646 0
-1.6467928 -1.637165 -0.32032594 0
-1.5513006 -1.6486638 -0.3203153 0
-1.4497218 -1.6556125 -0.32084221 0
-1.3400632 -1.6456612 -0.322229 0
-1.2479825 -1.6315424 -0.32191214 0
-1.1630988 -1.6574893 -0.32336718 0
-1.0441551 -1.6589919 -0.32387707 0
-0.94608104 -1.6570053 -0.3241401 0
-0.85979992 -1.6394583 -0.32547644 0
-0.7386958 -1.6602293 -0.32694143 0
-0.64491194 -1.6348788 -0.3259393 0
-0.54216093 -1.6446748 -0.32863849 0
-0.46181065 -1.6285332 -0.32744238 0
-0.35162768 -1.6411101 -0.3282809 0
-0.24959172 -1.6579654 -0.32934901 0
-0.15678288 -1.6669807 -0.32924014 0
-0.065998219 -1.6740417 -0.32986274 0
0.041354425 -1.6497707 -0.33139369 0
0.15542093 -1.6717525 -0.33138844 0
0.24283011 -1.6721653 -0.33178449 0
0.34779641 -1.6647434 -0.33366373 0
0.44892147 -1.6444856 -0.3340666 0
0.55301493 -1.633369 -0.33357221 0
0.63669533 -1.6602315 -0.33553645 0
0.7470929 -1.6471074 -0.33624151 0
0.85156417 -1.6521448 -0.33749971 0
0.94842273 -1.6337017 -0.33699757 0
1.0363176 -1.6554565 -0.33890629 0
1.1525548 -1.6573778 -0.33877546 0
1.2550545 -1.6346202 -0.34020674 0
1.3519113 -1.66675 -0.34012124 0
1.4387029 -1.6314893 -0.34138656 0
1.536417 -1.6328201 -0.34170368 0
1.6479018 -1.6536953 -0.34273434 0
1.7682947 -1.6520758 -0.34294224 0
1.8644166 -1.6444299 -0.3436743 0
1.9481063 -1.6455517 -0.34454685 0
2.0360036 -1.6459546 -0.3446759 0
2.1213822 -1.6408806 -0.34497827 0
2.2483068 -1.653142 -0.34584057 0
2.3151362 -1.6121742 -0.34639475 0
-3.1484706 -1.5518949 -0.30986017 0
-3.0236022 -1.5446895 -0.31089351 0
-2.9309959 -1.5239534 -0.31154871 0
-2.8527191 -1.5444428 -0.31206083 0
-2.7335682 -1.5651098 -0.3129659 0
-2.6231771 -1.53543 -0.31401679 0
-2.5608778 -1.5485935 -0.31493029 0
-2.4625499 -1.5542459 -0.31482387 0
-2.3598831 -1.5528637 -0.31549272 0
-2.2462556 -1.5564442 -0.31606665 0
-2.1715083 -1.5587978 -0.31651068 0
-2.0514438 -1.5459758 -0.31689352 0
-1.9351784 -1.5566567 -0.31800625 0
-1.8390609 -1.5383126 -0.31871679 0
-1.7527499 -1.5532373 -0.31873086 0
-1.6728401 -1.5627921 -0.32091159 0
-1.567518 -1.5507419 -0.32110989 0
-1.4505938 -1.5416104 -0.32135215 0
-1.3348103 -1.5465477 -0.32161802 0
-1.2610313 -1.5485611 -0.32229367 0
-1.1393368 -1.5471828 -0.32310051 0
-1.0414393 -1.5399008 -0.32420534 0
-0.95168102 -1.5611362 -0.3242071 0
-0.84805119 -1.5358999 -0.32542729 0
-0.75193477 -1.5392022 -0.32764095 0
-0.64744884 -1.5434096 -0.32740206 0
-0.55220234 -1.5540388 -0.32705593 0
-0.44297594 -1.5493015 -0.32794014 0
-0.3572332 -1.5405327 -0.32836029 0
-0.25255489 -1.5544683 -0.3297182 0
-0.15975472 -1.5513729 -0.33061823 0
-0.049895436 -1.5499244 -0.33197153 0
0.049607776 -1.5392026 -0.33078051 0
0.14988741 -1.547238 -0.33288562 0
0.23873882 -1.5533814 -0.33239383 0
0.3442896 -1.5520931 -0.33330125 0
0.45831883 -1.5366734 -0.3341572 0
0.54487163 -1.5500665 -0.33458486 0
0.65956575 -1.5723777 -0.33466998 0
0.75152135 -1.5491955 -0.33676252 0
0.84879202 -1.5455314 -0.33771312 0
0.9569329 -1.5444994 -0.33796561 0
1.0504215 -1.5434937 -0.33937544 0
1.149156 -1.5555775 -0.3397463 0
1.253854 -1.5395945 -0.33977169 0
1.3532298 -1.5678461 -0.34077451 0
1.4667658 -1.5586768 -0.34132853 0
1.5334311 -1.5224047 -0.34264126 0
1.6317947 -1.5465951 -0.34265497 0
1.7373956 -1.5546635 -0.3426812 0
1.8601297 -1.5481987 -0.34357563 0
1.9728934 -1.5487167 -0.34401616 0
2.0786843 -1.5608121 -0.34504905 0
2.1516075 -1.56028 -0.34523058 0
2.2405643 -1.5446038 -0.34666097 0
2.3478825 -1.5466939 -0.3478308 0
-3.2344751 -1.4530399 -0.31023043 0
-3.1660383 -1.4495291 -0.31013682 0
-3.0699558 -1.4322455 -0.31041574 0
-2.9695015 -1.4375995 -0.31094208 0
-2.8725286 -1.4416678 -0.31235707 0
-2.7598054 -1.4601245 -0.31289199 0
-2.6574879 -1.4549803 -0.31347704 0
-2.5590665 -1.4491758 -0.31427601 0
-2.4615271 -1.4408904 -0.31515658 0
-2.3433068 -1.4632114 -0.31587648 0
-2.2458663 -1.4475027 -0.31638506 0
-2.1264679 -1.4520245 -0.3171702 0
-2.0579927 -1.4551319 -0.31762666 0
-1.9610515 -1.472445 -0.31790206 0
-1.8708163 -1.4471062 -0.31840131 0
-1.7456906 -1.4488763 -0.31983554 0
-1.6501095 -1.4555026 -0.32037035 0
-1.5504137 -1.4485016 -0.32200181 0
-1.4379002 -1.442948 -0.32266179 0
-1.3679463 -1.4632244 -0.32191288 0
-1.2553378 -1.4335723 -0.32274315 0
-1.1580398 -1.4430871 -0.32331887 0
-1.0528477 -1.4554209 -0.32539693 0
-0.95249045 -1.4665251 -0.32441971 0
-0.85479003 -1.4349085 -0.32515791 0
-0.76089883 -1.4674443 -0.32644561 0
-0.65298098 -1.4397697 -0.32812336 0
-0.5513916 -1.4525245 -0.32753009 0
-0.46344522 -1.4402347 -0.32938221 0
-0.35571495 -1.4552548 -0.32885891 0
-0.25105926 -1.434878 -0.33036065 0
-0.15306067 -1.4394978 -0.33107999 0
-0.05477469 -1.4374791 -0.33239719 0
0.046068531 -1.4291635 -0.33018684 0
0.14846854 -1.440964 -0.33330786 0
0.2537497 -1.4322758 -0.33332458 0
0.35181773 -1.4512621 -0.33459812 0
0.45524758 -1.45034 -0.33413061 0
0.5657832 -1.4344435 -0.33585656 0
0.65059453 -1.4620123 -0.33557165 0
0.75029546 -1.4556156 -0.33712968 0
0.85781741 -1.4642781 -0.33584082 0
0.94609034 -1.4528677 -0.33902228 0
1.0459926 -1.4367341 -0.3389447 0
1.1560323 -1.4491822 -0.33897462 0
1.2486486 -1.4466791 -0.3405852 0
1.3444824 -1.4495322 -0.34090075 0
1.4520364 -1.4531704 -0.34187189 0
1.5725114 -1.4570262 -0.34182954 0
1.6536853 -1.4500169 -0.34336585 0
1.7413479 -1.4284754 -0.34338355 0
1.8276778 -1.4560438 -0.34349918 0
1.9385709 -1.4555776 -0.34400931 0
2.0542228 -1.4523983 -0.34528351 0
2.1612964 -1.4595221 -0.34660828 0
2.2744348 -1.4430342 -0.34633479 0
2.3678007 -1.4550629 -0.3470799 0
2.4329503 -1.4475549 -0.34762844 0
-3.2450397 -1.3386059 -0.30897173 0
-3.1396847 -1.3478369 -0.31036159 0
-3.0158765 -1.3548268 -0.31190342 0
-2.9211698 -1.3375082 -0.31232515 0
-2.8344243 -1.3637053 -0.31179929 0
-2.7232449 -1.3424587 -0.3136808 0
-2.6397409 -1.3485855 -0.31403366 0
-2.5111275 -1.3516243 -0.3148194 0
-2.4209552 -1.3255289 -0.31543681 0
-2.3522263 -1.3543957 -0.31572649 0
-2.2354751 -1.3345124 -0.31734389 0
-2.1655183 -1.3646803 -0.31697363 0
-2.0501392 -1.3421367 -0.31793457 0
-1.9438934 -1.3537742 -0.31885573 0
-1.8367075 -1.3586068 -0.31945711 0
-1.7368447 -1.3434819 -0.31968948 0
-1.635991 -1.3420027 -0.32105026 0
-1.5400757 -1.3389293 -0.32123518 0
-1.4660714 -1.3696957 -0.32248244 0
-1.3422425 -1.3470732 -0.32286054 0
-1.2413495 -1.3383114 -0.32320976 0
-1.154543 -1.337723 -0.32362777 0
-1.0489085 -1.3460619 -0.32395494 0
-0.95598257 -1.3566545 -0.32502013 0
-0.85071772 -1.3512584 -0.32565179 0
-0.7378853 -1.3527333 -0.32673392 0
-0.64278644 -1.3293597 -0.32890701 0
-0.54725617 -1.3347958 -0.32903656 0
-0.45170221 -1.3470459 -0.32935128 0
-0.35534674 -1.3631073 -0.3291356 0
-0.2682929 -1.3666825 -0.33017844 0
-0.14709796 -1.3417649 -0.33189511 0
-0.048702929 -1.3420107 -0.33224142 0
0.052462161 -1.3361063 -0.331276 0
0.13806117 -1.3521529 -0.33352846 0
0.24912691 -1.3496886 -0.33257413 0
0.35418159 -1.3701602 -0.33233246 0
0.45315474 -1.3558927 -0.33478743 0
0.54855818 -1.3483635 -0.33638611 0
0.63269895 -1.3436092 -0.33645487 0
0.75636739 -1.3470201 -0.33575773 0
0.8481881 -1.3473587 -0.33719873 0
0.95813954 -1.3528696 -0.33918101 0
1.0589135 -1.3588963 -0.33825013 0
1.1489544 -1.3334084 -0.34042749 0
1.243892 -1.3410947 -0.34030524 0
1.3468024 -1.3516054 -0.34070659 0
1.4543329 -1.3430002 -0.34194162 0
1.55694 -1.3497083 -0.34180403 0
1.6663413 -1.3602875 -0.34221819 0
1.7495053 -1.3434541 -0.34272301 0
1.8418974 -1.3491679 -0.3438141 0
1.9411469 -1.3517282 -0.34464633 0
2.0375764 -1.3339101 -0.3457396 0
2.1280432 -1.3501619 -0.34564638 0
2.2320166 -1.3496451 -0.34626248 0
2.3406768 -1.3476397 -0.34758317 0
2.4475331 -1.362933 -0.34805489 0
2.5182471 -1.3322692 -0.3498154 0
-3.3087747 -1.237184 -0.30905396 0
-3.2639294 -1.2561244 -0.30971131 0
-3.1392188 -1.2512268 -0.31006032 0
-3.0369725 -1.2611544 -0.31039256 0
-2.9506128 -1.2502278 -0.31154054 0
-2.8543375 -1.2578827 -0.31266996 0
-2.7541883 -1.2609564 -0.31323478 0
-2.6594296 -1.2407138 -0.3134262 0
-2.5534399 -1.2588068 -0.31434846 0
-2.4590445 -1.2562685 -0.31551334 0
-2.3594074 -1.2482896 -0.3160179 0
-2.2545249 -1.2343506 -0.31646633 0
-2.1560245 -1.2413974 -0.31716967 0
-2.0379603 -1.2456118 -0.31815791 0
-1.9477643 -1.24235 -0.3189995 0
-1.8427458 -1.2558939 -0.31960914 0
-1.7430412 -1.2576947 -0.32147342 0
-1.6333386 -1.2448235 -0.32058647 0
-1.5607506 -1.2617512 -0.32200119 0
-1.4426371 -1.2541456 -0.32220212 0
-1.3302999 -1.242936 -0.32300645 0
-1.2465992 -1.2510552 -0.3238273 0
-1.1376863 -1.2401946 -0.32451195 0
-1.0591049 -1.2632774 -0.3241235 0
-0.94817013 -1.2506323 -0.32569262 0
-0.84146112 -1.2556034 -0.32592738 0
-0.73162103 -1.2349321 -0.32777464 0
-0.64405423 -1.2496544 -0.32710081 0
-0.56336617 -1.2577851 -0.32861507 0
-0.45107898 -1.247048 -0.32881147 0
-0.36000448 -1.2557791 -0.32836354 0
-0.24176812 -1.2548569 -0.33063263 0
-0.14809057 -1.2482889 -0.33254099 0
-0.05538192 -1.2480279 -0.33172616 0
0.042548358 -1.2458165 -0.33159456 0
0.16066356 -1.2519053 -0.33230415 0
0.24887243 -1.2490749 -0.33250466 0
0.34201103 -1.2517735 -0.33435991 0
0.4482832 -1.2391249 -0.33532125 0
0.54289961 -1.2519227 -0.33595574 0
0.66568649 -1.2631675 -0.33529505 0
0.7560069 -1.2434756 -0.33634683 0
0.83991319 -1.2341101 -0.33816621 0
0.95382255 -1.2503494 -0.33867577 0
1.0500184 -1.2524234 -0.33897102 0
1.1608502 -1.2514712 -0.3400642 0
1.2438482 -1.2304406 -0.34015933 0
1.3396833 -1.2515119 -0.34117571 0
1.4537894 -1.2457085 -0.34149545 0
1.5617229 -1.2440518 -0.3421253 0
1.6646779 -1.2498908 -0.34271437 0
1.7705411 -1.2501059 -0.34358868 0
1.8735366 -1.2651954 -0.34479132 0
1.9641446 -1.2461594 -0.34496799 0
2.0590267 -1.2385292 -0.34547591 0
2.1600142 -1.2575394 -0.3465918 0
2.2472928 -1.2514228 -0.34726566 0
2.3446486 -1.240509 -0.34818608 0
2.4455891 -1.2496469 -0.34875631 0
2.5424492 -1.2396352 -0.34949845 0
-3.3294108 -1.1640265 -0.30858248 0
-3.2868829 -1.1491749 -0.30895576 0
-3.1575062 -1.1465634 -0.30980608 0
-3.054105 -1.1587175 -0.31109953 0
-2.98036 -1.1632715 -0.31148234 0
-2.8865886 -1.1505338 -0.31162941 0
-2.7603958 -1.1387439 -0.31215608 0
-2.6541557 -1.1470629 -0.31401569 0
-2.543874 -1.1502459 -0.31538859 0
-2.4540238 -1.1452394 -0.31493565 0
-2.3445694 -1.1350724 -0.31592342 0
-2.2673512 -1.158356 -0.31677046 0
-2.161011 -1.1433182 -0.31746474 0
-2.0615475 -1.1480446 -0.31800583 0
-1.9619375 -1.1483656 -0.31842169 0
-1.8691816 -1.1486995 -0.31958288 0
-1.7666661 -1.1565442 -0.3204377 0
-1.657444 -1.1542861 -0.32168701 0
-1.5437584 -1.1521515 -0.32178524 0
-1.4404886 -1.1475434 -0.32267612 0
-1.3527029 -1.1492059 -0.32294098 0
-1.2401129 -1.1420922 -0.32258692 0
-1.1655034 -1.1696094 -0.32433209 0
-1.0417039 -1.1392554 -0.32537308 0
-0.94854116 -1.1590343 -0.32585552 0
-0.85074854 -1.143966 -0.32695413 0
-0.76389033 -1.1607934 -0.32697663 0
-0.6502825 -1.1468573 -0.3263872 0
-0.5458138 -1.1444621 -0.32795188 0
-0.45962507 -1.1528118 -0.32825905 0
-0.34976259 -1.1728814 -0.32804671 0
-0.26275769 -1.1978143 -0.3286368 0
0.36019808 -1.1915873 -0.33362725 0
0.4510659 -1.1678296 -0.33554864 0
0.55690521 -1.1470931 -0.33579984 0
0.6468069 -1.1517402 -0.33593109 0
0.74028844 -1.1517601 -0.33673322 0
0.85856795 -1.1639336 -0.3384217 0
0.93854767 -1.1336349 -0.33792397 0
1.0527136 -1.1405101 -0.33906555 0
1.150293 -1.1519213 -0.34000036 0
1.2657406 -1.1489934 -0.3405816 0
1.3473183 -1.1398309 -0.3413201 0
1.4361367 -1.1439945 -0.34159926 0
1.5459601 -1.1434969 -0.34285885 0
1.636471 -1.157043 -0.34326035 0
1.7340943 -1.1531446 -0.34395134 0
1.8403239 -1.150838 -0.3444376 0
1.9528639 -1.1429324 -0.34509534 0
2.0582018 -1.146145 -0.34632418 0
2.158262 -1.1417918 -0.34686333 0
2.2533965 -1.1511085 -0.34773839 0
2.3616841 -1.1433281 -0.34871855 0
2.4526315 -1.1443135 -0.34922197 0
2.5579271 -1.1491268 -0.34919074 0
2.6093559 -1.1276165 -0.34902433 0
-3.3403649 -1.0616679 -0.30885479 0
-3.2255223 -1.0506252 -0.30990458 0
-3.1340375 -1.0456638 -0.31105489 0
-3.0306838 -1.0596004 -0.31120691 0
-2.9373677 -1.0506251 -0.3120302 0
-2.8327782 -1.0591577 -0.31254494 0
-2.7394137 -1.046658 -0.31323993 0
-2.6339581 -1.0498408 -0.31319845 0
-2.5347714 -1.0526071 -0.3136614 0
-2.4500134 -1.0381345 -0.315029 0
-2.3507111 -1.0359421 -0.31644446 0
-2.2606795 -1.0483066 -0.31640816 0
-2.1437454 -1.0490615 -0.3170937 0
-2.0225449 -1.0332971 -0.31822887 0
-1.9394258 -1.0618904 -0.31877202 0
-1.8336838 -1.0383738 -0.31978595 0
-1.7325578 -1.0627819 -0.32043868 0
-1.6568619 -1.0479149 -0.32127041 0
-1.5504562 -1.0471184 -0.32187888 0
-1.4449681 -1.0468162 -0.32223445 0
-1.3390611 -1.0443928 -0.32336783 0
-1.2575341 -1.062022 -0.32353672 0
-1.1576885 -1.053317 -0.32458189 0
-1.0570605 -1.0607005 -0.32565737 0
-0.946374 -1.0500286 -0.325403 0
-0.85835266 -1.0541564 -0.32670751 0
-0.76010633 -1.0510287 -0.32725489 0
-0.65668261 -1.0487516 -0.32593402 0
-0.57566303 -1.0788698 -0.32770169 0
0.64544886 -1.075886 -0.33628085 0
0.74390531 -1.0443131 -0.33702594 0
0.84721822 -1.0456053 -0.33736235 0
0.95576495 -1.0527661 -0.33855727 0
1.042248 -1.040899 -0.33952633 0
1.1526302 -1.0463265 -0.33999571 0
1.255294 -1.0447875 -0.3407557 0
1.354004 -1.0526108 -0.34108877 0
1.432775 -1.0441393 -0.34312522 0
1.5342818 -1.0489368 -0.34287435 0
1.6456432 -1.0507624 -0.34321469 0
1.7496198 -1.0479236 -0.34381002 0
1.8682407 -1.0639219 -0.34576932 0
1.9374619 -1.0477456 -0.34531873 0
2.0588472 -1.052052 -0.34645304 0
2.1220794 -1.0461284 -0.34781381 0
2.2360501 -1.0432564 -0.34781155 0
2.3383796 -1.0372533 -0.34757659 0
2.4356308 -1.0389057 -0.34849453 0
2.558826 -1.048185 -0.3496497 0
2.6410196 -1.0418643 -0.3501572 0
-3.4121823 -0.92522395 -0.30931458 0
-3.3623486 -0.97235137 -0.3097814 0
-3.2592726 -0.93403387 -0.3105222 0
-3.1583591 -0.95422202 -0.31052303 0
-3.0663278 -0.95044166 -0.31146243 0
-2.9735551 -0.94506586 -0.31200695 0
-2.8764532 -0.95972192 -0.31319529 0
-2.7820795 -0.95038676 -0.3136352 0
-2.6817687 -0.95920134 -0.31421462 0
-2.5783255 -0.96401149 -0.31447813 0
-2.4612324 -0.9338029 -0.31542102 0
-2.3624794 -0.96108669 -0.31490582 0
-2.2416263 -0.9687252 -0.31692418 0
-2.155113 -0.9496606 -0.31743738 0
-2.0621026 -0.94411975 -0.31772849 0
-1.9653052 -0.9514764 -0.31817177 0
-1.8435888 -0.9418658 -0.31960449 0
-1.7542999 -0.96697855 -0.32008687 0
-1.6460961 -0.94767386 -0.32125953 0
-1.5477067 -0.95105225 -0.32178003 0
-1.4562562 -0.95338356 -0.32267472 0
-1.3491193 -0.95380843 -0.32291427 0
-1.2451531 -0.9589659 -0.32377008 0
-1.1380126 -0.94718838 -0.32477102 0
-1.0438691 -0.95472056 -0.32658342 0
-0.95418429 -0.95514756 -0.32641298 0
-0.8508423 -0.94585407 -0.32572055 0
-0.75783914 -0.95846611 -0.32753378 0
-0.69896251 -0.99611712 -0.32606161 0
0.7840333 -0.97702104 -0.33568454 0
0.85828775 -0.93676335 -0.33808976 0
0.94711518 -0.95735431 -0.3386226 0
1.0498779 -0.95310771 -0.33906084 0
1.1380756 -0.94552177 -0.34023976 0
1.2589461 -0.95374501 -0.34136152 0
1.3527529 -0.9478631 -0.34215933 0
1.4550333 -0.95258403 -0.34169248 0
1.5367304 -0.93587911 -0.34316969 0
1.6470648 -0.94218177 -0.34435949 0
1.7608185 -0.93473279 -0.34468648 0
1.8588716 -0.94970608 -0.34510761 0
1.9556167 -0.9592855 -0.3461003 0
2.0647757 -0.94543016 -0.34646475 0
2.1578074 -0.95083976 -0.34698698 0
2.257056 -0.93728715 -0.34730589 0
2.3548546 -0.93856812 -0.34837857 0
2.4492624 -0.93577319 -0.34876132 0
2.5304172 -0.96678156 -0.34921408 0
2.6568117 -0.95031023 -0.34969658 0
2.710017 -0.90418315 -0.35077971 0
-3.4366941 -0.82703501 -0.30926293 0
-3.3734825 -0.8630718 -0.30960715 0
-3.285768 -0.84063053 -0.31028557 0
-3.1571648 -0.84813517 -0.31118181 0
-3.0471926 -0.84970254 -0.31202972 0
-2.9381497 -0.84974676 -0.31286192 0
-2.8383172 -0.86507577 -0.31298077 0
-2.7205219 -0.84325832 -0.31428307 0
-2.6233118 -0.85447437 -0.3150816 0
-2.5251923 -0.86263043 -0.31582692 0
-2.4328866 -0.85059309 -0.3164596 0
-2.3842592 -0.83360529 -0.31672978 0
-2.29774 -0.82186085 -0.31691572 0
-2.0359213 -0.8739205 -0.31817052 0
-1.922222 -0.84702569 -0.31882104 0
-1.8294384 -0.86152792 -0.31856576 0
-1.7548878 -0.84658396 -0.31923711 0
-1.647993 -0.85666561 -0.32131323 0
-1.5378249 -0.8593111 -0.32312092 0
-1.4404402 -0.84325069 -0.3238543 0
-1.3643427 -0.8552348 -0.32266036 0
-1.2565525 -0.85776705 -0.32429886 0
-1.1475443 -0.83265197 -0.32511783 0
-1.062633 -0.85799676 -0.32532367 0
-0.94795746 -0.84001762 -0.32733798 0
-0.8547098 -0.86997312 -0.32688323 0
0.89762098 -0.88803571 -0.33833039 0
0.95474738 -0.85440493 -0.3388927 0
1.0468074 -0.8498615 -0.33877268 0
1.1589774 -0.8593995 -0.33975217 0
1.2406589 -0.8419041 -0.34134749 0
1.3602115 -0.84935015 -0.3421239 0
1.4568008 -0.85000706 -0.3430427 0
1.5464511 -0.84518123 -0.34392631 0
1.6433381 -0.83961523 -0.34358096 0
1.7231323 -0.84953499 -0.34349176 0
1.8309222 -0.85417455 -0.34436414 0
1.9614357 -0.86216742 -0.34560913 0
2.015404 -0.83273607 -0.34581849 0
2.13082 -0.84927821 -0.34674364 0
2.2419589 -0.84455079 -0.34828624 0
2.3444865 -0.83860201 -0.34787607 0
2.4593108 -0.83369654 -0.34910259 0
2.5734088 -0.85853106 -0.34962079 0
2.6756346 -0.85030323 -0.35105357 0
2.7346888 -0.84756249 -0.35154313 0
-3.4373972 -0.73229831 -0.30922663 0
-3.3478012 -0.75543654 -0.31000376 0
-3.2329209 -0.75357968 -0.31076097 0
-3.1183567 -0.75046575 -0.3115471 0
-3.0253165 -0.75101441 -0.31219223 0
-2.9349105 -0.75086534 -0.31299934 0
-2.8411493 -0.74857455 -0.31365371 0
-2.7472272 -0.74491048 -0.31421238 0
-2.6548512 -0.74030441 -0.3149108 0
-2.5570486 -0.7526316 -0.31550488 0
-2.4427309 -0.75716561 -0.31645778 0
-2.3178685 -0.75500679 -0.31712583 0
-2.2289119 -0.761446 -0.31764081 0
-2.1485779 -0.73400307 -0.31805453 0
-2.0638351 -0.72157651 -0.31851584 0
-1.9782996 -0.70760268 -0.31885377 0
-1.8577859 -0.78710699 -0.31956366 0
-1.7139212 -0.78474861 -0.31929591 0
-1.6297067 -0.77455783 -0.31950304 0
-1.5563142 -0.7534585 -0.32049143 0
-1.4639713 -0.7434656 -0.32212362 0
-1.3538405 -0.74126059 -0.32339233 0
-1.2516389 -0.74766481 -0.32406035 0
-1.1659123 -0.74343723 -0.3240622 0
-1.0523599 -0.75548065 -0.32510707 0
-0.95865804 -0.75263125 -0.32667395 0
0.98867667 -0.78756273 -0.33870023 0
1.0489974 -0.75291681 -0.33929685 0
1.149809 -0.7461707 -0.34179518 0
1.2599579 -0.75112307 -0.34174666 0
1.3453419 -0.7421481 -0.34281844 0
1.4476002 -0.75265604 -0.34297752 0
1.5595219 -0.76045406 -0.34174612 0
1.6394421 -0.73200268 -0.34400353 0
1.755674 -0.7438572 -0.34503862 0
1.8628564 -0.75806302 -0.34528527 0
1.9507309 -0.74532622 -0.34568021 0
2.0486462 -0.74939507 -0.34661198 0
2.1484683 -0.75113219 -0.34719145 0
2.2438619 -0.74857712 -0.34797987 0
2.3445177 -0.74507147 -0.34952986 0
2.4394886 -0.73701638 -0.35031268 0
2.5226972 -0.76215458 -0.35074589 0
2.6166689 -0.74991387 -0.35103974 0
2.7369151 -0.75048894 -0.35105008 0
-3.4461844 -0.64854586 -0.30915588 0
-3.3274293 -0.65108323 -0.309955 0
-3.2386024 -0.63370371 -0.31065911 0
-3.1422718 -0.66163385 -0.3115108 0
-3.0537059 -0.64298451 -0.3122234 0
-2.9575732 -0.64484239 -0.31279111 0
-2.861789 -0.64547884 -0.31330681 0
-2.771045 -0.64592618 -0.31411508 0
-2.6780539 -0.64450914 -0.31471169 0
-2.5525925 -0.63365716 -0.31588742 0
-2.46735 -0.66101992 -0.31633368 0
-2.3503218 -0.65533453 -0.31692246 0
-2.2571738 -0.66427183 -0.31724706 0
-2.1757538 -0.64030451 -0.31766313 0
-2.0810015 -0.64506739 -0.31763074 0
-1.961704 -0.64505452 -0.31880823 0
-1.8984395 -0.67903817 -0.31933829 0
-1.5003386 -0.68695605 -0.32075202 0
-1.4472851 -0.67114115 -0.32167891 0
-1.3484079 -0.65273678 -0.32264671 0
-1.2458973 -0.65272492 -0.32365489 0
-1.154718 -0.64658856 -0.32420039 0
-1.0468494 -0.66049087 -0.32578212 0
-0.9836148 -0.69546127 -0.32278258 0
1.0818577 -0.6754967 -0.34179258 0
1.1533796 -0.63501716 -0.3410311 0
1.2553495 -0.65663826 -0.34192601 0
1.3338 -0.64729851 -0.34189191 0
1.4487662 -0.65057176 -0.34190759 0
1.5611259 -0.64406538 -0.34317186 0
1.6455534 -0.64686328 -0.34380153 0
1.7407951 -0.65387219 -0.34353906 0
1.8445339 -0.65100396 -0.34429851 0
1.9471924 -0.64363581 -0.34556499 0
2.0759993 -0.65627646 -0.34809911 0
2.1458642 -0.63891917 -0.34891915 0
2.2825222 -0.65415221 -0.34939048 0
2.3731611 -0.64348608 -0.34932217 0
2.4608245 -0.64837176 -0.34925258 0
2.55037 -0.65246958 -0.34985113 0
2.6402497 -0.65538031 -0.35045385 0
2.7515831 -0.65374279 -0.35077274 0
-3.5042572 -0.50500864 -0.30974957 0
-3.44713 -0.56406689 -0.3090682 0
-3.3389473 -0.55464756 -0.309879 0
-3.2496023 -0.53980786 -0.31050497 0
-3.1567993 -0.54762584 -0.31119594 0
-3.067682 -0.55474567 -0.31209773 0
-2.9785805 -0.53863215 -0.31276047 0
-2.8875687 -0.54357845 -0.31353256 0
-2.7500548 -0.53811598 -0.3145318 0
-2.6380558 -0.56218576 -0.31546745 0
-2.5152526 -0.54838991 -0.31611031 0
-2.4678574 -0.53810364 -0.31640187 0
-2.3582058 -0.54098761 -0.31699988 0
-2.2526107 -0.55247992 -0.3173663 0
-2.1356041 -0.56275201 -0.31846189 0
-2.0265155 -0.5494706 -0.31872213 0
-1.9319286 -0.53874403 -0.31968668 0
-1.8263199 -0.50926507 -0.32181174 0
-1.2336421 -0.58599323 -0.3246296 0
-1.1423839 -0.57333779 -0.32444853 0
-1.0757996 -0.55933607 -0.32499003 0
1.146582 -0.54495662 -0.34026265 0
1.2524827 -0.55165488 -0.34022814 0
1.3680147 -0.54384911 -0.34151965 0
1.4539182 -0.55538505 -0.34252852 0
1.5368137 -0.54969215 -0.34271526 0
1.6455778 -0.5542115 -0.34188831 0
1.7416707 -0.5340299 -0.3456603 0
1.8579434 -0.5467118 -0.34631783 0
1.9458023 -0.55762267 -0.34765419 0
2.0265815 -0.5495612 -0.34751832 0
2.1219594 -0.54290897 -0.34813815 0
2.2348847 -0.55823243 -0.34874511 0
2.3528535 -0.53947043 -0.34911594 0
2.4613512 -0.55523318 -0.34958255 0
2.5674572 -0.54071182 -0.34998885 0
2.6527202 -0.55866098 -0.35066923 0
2.7362199 -0.55573356 -0.35185993 0
2.8188572 -0.55151105 -0.35269794 0
-3.502305 -0.42822272 -0.30870131 0
-3.4467673 -0.47155461 -0.3097429 0
-3.3570163 -0.4592748 -0.31036186 0
-3.2672653 -0.44699499 -0.31098083 0
-3.1775141 -0.43471518 -0.31159979 0
-3.0809524 -0.4439404 -0.31190214 0
-2.9577043 -0.44077611 -0.31268999 0
-2.8361018 -0.45027456 -0.31355315 0
-2.7419651 -0.44862127 -0.31381449 0
-2.621392 -0.4547545 -0.31494907 0
-2.5321572 -0.43927598 -0.31557462 0
-2.4644501 -0.43970847 -0.31678164 0
-2.3488495 -0.44923481 -0.31745452 0
-2.2261999 -0.45216879 -0.3180221 0
-2.139255 -0.45045656 -0.31839734 0
-2.0537088 -0.44780493 -0.31899405 0
-1.9537834 -0.44461653 -0.31941316 0
-1.8410534 -0.44306201 -0.32039475 0
-1.7599306 -0.45026779 -0.32138717 0
-1.6396414 -0.42499658 -0.32246777 0
-1.5816934 -0.42903292 -0.32278657 0
1.1831541 -0.45202866 -0.33944371 0
1.2531542 -0.44399008 -0.34129602 0
1.3441986 -0.4521991 -0.34221044 0
1.4289198 -0.44752401 -0.3421194 0
1.554453 -0.44161001 -0.34308031 0
1.640914 -0.45759252 -0.34459895 0
1.7312493 -0.4571771 -0.34467414 0
1.8608838 -0.44092187 -0.34569713 0
1.9580805 -0.45636776 -0.34598261 0
2.042769 -0.44541186 -0.3461985 0
2.1366987 -0.45001519 -0.34656072 0
2.2288227 -0.43605006 -0.34675905 0
2.334842 -0.45680404 -0.34776989 0
2.4575644 -0.44463879 -0.3498928 0
2.553555 -0.44318938 -0.35118651 0
2.6655867 -0.44272089 -0.35198495 0
2.7706196 -0.46015933 -0.35249496 0
2.8401804 -0.45090842 -0.35310632 0
-3.527853 -0.3291803 -0.30999535 0
-3.4506907 -0.37182772 -0.30970243 0
-3.3605475 -0.36211443 -0.31021512 0
-3.2704048 -0.35240108 -0.31072783 0
-3.1802619 -0.34268776 -0.31124055 0
-3.0471275 -0.33926478 -0.31229398 0
-2.9380457 -0.35200062 -0.31248772 0
-2.8195825 -0.3447791 -0.31352443 0
-2.7275696 -0.35334817 -0.31426826 0
-2.6377351 -0.34171137 -0.31487319 0
-2.5360806 -0.34694889 -0.31605196 0
-2.4393954 -0.36063424 -0.31619194 0
-2.3373785 -0.3367871 -0.31739411 0
-2.2478244 -0.35688552 -0.31810626 0
-2.1643269 -0.34363005 -0.3188476 0
-2.076653 -0.34491974 -0.31936756 0
-1.9695294 -0.34738207 -0.3200891 0
-1.8629042 -0.35065305 -0.32095718 0
-1.7566708 -0.34368896 -0.3215991 0
-1.637562 -0.34990531 -0.32236913 0
-1.5533859 -0.34380662 -0.32327244 0
-1.4497511 -0.35567722 -0.32414097 0
-1.3539023 -0.33353019 -0.32549539 0
-1.259235 -0.32547024 -0.32459629 0
-1.1728045 -0.30901355 -0.32497665 0
1.2462393 -0.35464808 -0.34059778 0
1.3467089 -0.34453693 -0.34211302 0
1.4424394 -0.34700659 -0.34327891 0
1.5334749 -0.3597239 -0.34322649 0
1.6484387 -0.347161 -0.34435287 0
1.7406 -0.34915823 -0.34528765 0
1.844708 -0.35656115 -0.34487689 0
1.9565036 -0.3481482 -0.34660399 0
2.0680237 -0.34360906 -0.34732834 0
2.1620877 -0.35912928 -0.34820271 0
2.2602096 -0.34233424 -0.34892988 0
2.3463733 -0.35537982 -0.34957418 0
2.4305272 -0.35028675 -0.3496809 0
2.5204217 -0.34482375 -0.35022005 0
2.6274111 -0.35946253 -0.35115048 0
2.7620962 -0.3376925 -0.35170597 0
2.8502772 -0.34851131 -0.35260007 0
-3.527292 -0.22753197 -0.3092469 0
-3.4718201 -0.2738989 -0.31006595 0
-3.3815148 -0.26677543 -0.31069863 0
-3.2617695 -0.26501283 -0.31161019 0
-3.1400383 -0.2400441 -0.3123177 0
-3.020293 -0.2382815 -0.31322926 0
-2.9248152 -0.25176597 -0.31367308 0
-2.8345168 -0.24399166 -0.31424436 0
-2.7428303 -0.25586346 -0.31486455 0
-2.6525753 -0.24744171 -0.31542569 0
-2.5566094 -0.25691691 -0.3155143 0
-2.2657609 -0.2934891 -0.31919146 0
-2.1819739 -0.28263602 -0.32003251 0
-2.0562937 -0.26635635 -0.32129413 0
-1.9999094 -0.28821275 -0.32002643 0
-1.8519133 -0.29399836 -0.3192212 0
-1.7454411 -0.28972363 -0.32096589 0
-1.6481144 -0.2737045 -0.32098469 0
-1.5505959 -0.27648142 -0.32380614 0
-1.4521946 -0.27334335 -0.32410929 0
-1.3622036 -0.26886895 -0.32483533 0
-1.2435538 -0.24490011 -0.32670328 0
-1.1875715 -0.26785505 -0.3262437 0
1.2519788 -0.25408742 -0.34240782 0
1.3443094 -0.25634408 -0.343133 0
1.4595466 -0.24381542 -0.34396029 0
1.5418937 -0.25600868 -0.344037 0
1.6497668 -0.25300238 -0.34407955 0
1.7471423 -0.25037622 -0.34446689 0
1.8498054 -0.25996032 -0.34453022 0
1.9512532 -0.25009164 -0.34622484 0
2.0553584 -0.2512697 -0.34701008 0
2.1775119 -0.25036445 -0.34793639 0
2.2729471 -0.24488802 -0.34887192 0
2.3594916 -0.25421295 -0.34942433 0
2.4460363 -0.26353785 -0.34997675 0
2.535089 -0.25478423 -0.35087043 0
2.6410553 -0.25616202 -0.35143521 0
2.7404149 -0.22923017 -0.35254955 0
2.8476009 -0.25188819 -0.35351491 0
-3.5269179 -0.12626094 -0.30877042 0
-3.4780114 -0.17437576 -0.30921757 0
-3.3876309 -0.16984414 -0.30994356 0
-3.2520604 -0.16304669 -0.31103253 0
-3.1164899 -0.15624925 -0.31212154 0
-3.0261092 -0.15171762 -0.31284755 0
-2.9357288 -0.14718598 -0.31357354 0
-2.8453484 -0.14265436 -0.31429952 0
-2.75231 -0.15772355 -0.31492296 0
-2.6619284 -0.15254264 -0.31560418 0
-2.5715466 -0.14736174 -0.31628534 0
1.2663175 -0.14565396 -0.34164789 0
1.3485854 -0.15388553 -0.34178996 0
1.463146 -0.14846554 -0.34361202 0
1.555995 -0.14516373 -0.34424108 0
1.641695 -0.15315966 -0.34478796 0
1.7563821 -0.15010275 -0.34618032 0
1.8548999 -0.15970276 -0.34662008 0
1.9354 -0.15266132 -0.34694353 0
2.0552313 -0.14736736 -0.3474099 0
2.1869252 -0.14105162 -0.34787235 0
2.2788794 -0.14696363 -0.34859249 0
2.3658807 -0.15257534 -0.34928122 0
2.4528821 -0.15818708 -0.34996995 0
2.5398834 -0.16379881 -0.35065868 0
2.6296763 -0.15072951 -0.35139203 0
2.7166772 -0.15571564 -0.35203421 0
2.8420689 -0.14244847 -0.35333058 0
-3.5362985 -0.050626054 -0.30941728 0
-3.4847374 -0.074834585 -0.30947673 0
-3.3490319 -0.07192076 -0.31058556 0
-3.213326 -0.069006942 -0.31169438 0
-3.1228557 -0.06706439 -0.3124336 0
-3.0323853 -0.065121844 -0.31317282 0
-2.9419146 -0.063179299 -0.31391203 0
-2.8514442 -0.061236747 -0.31465125 0
-2.7609739 -0.059294198 -0.31539044 0
-2.6705034 -0.057351649 -0.31612965 0
-2.5800328 -0.055409104 -0.31686887 0
1.2732252 -0.045611057 -0.34146538 0
1.3392893 -0.047968391 -0.34427512 0
1.4626179 -0.04987986 -0.3434805 0
1.5458474 -0.055128958 -0.3461372 0
1.639511 -0.047016922 -0.34563947 0
1.7652166 -0.046806265 -0.34720033 0
1.8657023 -0.053267948 -0.34739277 0
1.9461251 -0.055577524 -0.34757715 0
2.031399 -0.043558583 -0.34823132 0
2.1659503 -0.039477907 -0.34811193 0
2.2549253 -0.061101545 -0.34944576 0
2.3732555 -0.051009018 -0.34982058 0
2.4604769 -0.052880824 -0.35055014 0
2.5476983 -0.054752629 -0.35127974 0
2.6349199 -0.056624431 -0.3520093 0
2.7221413 -0.058496237 -0.35273886 0
2.8438048 -0.040669646 -0.35360089 0
-3.5403481 0.025295967 -0.30975568 0
-3.4843798 0.049877804 -0.30951956 0
-3.359251 0.048087761 -0.31057504 0
-3.2335882 0.046291579 -0.31146494 0
-3.122422 0.044701111 -0.31242153 0
-3.0319321 0.043406934 -0.31314704 0
-2.9414425 0.042112757 -0.31387255 0
-2.8509529 0.040818587 -0.31459805 0
-2.7604635 0.03952441 -0.31532356 0
-2.6699741 0.038230237 -0.31604904 0
-2.5794842 0.036936063 -0.31677452 0
1.2777339 0.045691095 -0.34265628 0
1.3447708 0.048101835 -0.34254274 0
1.4625471 0.053491611 -0.34251472 0
1.5576026 0.044677481 -0.34346104 0
1.6324301 0.04682057 -0.34441218 0
1.7595228 0.050457258 -0.34603599 0
1.8612247 0.053375065 -0.34666702 0
1.9418293 0.055678874 -0.3470304 0
2.0400667 0.036330514 -0.3471356 0
2.1685596 0.049911931 -0.34765786 0
2.2459245 0.048207343 -0.34932977 0
2.3547575 0.050542548 -0.35002914 0
2.4598944 0.052791547 -0.35036209 0
2.5470715 0.054661181 -0.35105279 0
2.634248 0.056530822 -0.35174346 0
2.7214248 0.058400463 -0.35243416 0
2.8599629 0.036788948 -0.35467511 0
-3.5310178 0.12650537 -0.30912969 0
-3.4777038 0.17438459 -0.31070864 0
-3.3871551 0.16984481 -0.31126106 0
-3.2513316 0.16303515 -0.31208971 0
-3.1155086 0.15622547 -0.31291831 0
-3.0249596 0.1516857 -0.31347072 0
-2.9344106 0.14714593 -0.31402314 0
-2.8438618 0.14260614 -0.31457555 0
-2.7537282 0.15786673 -0.31522098 0
-2.6632707 0.15268302 -0.3158313 0
-2.5728133 0.14749929 -0.31644163 0
1.2709314 0.14611642 -0.34289026 0
1.3479315 0.15192758 -0.34307489 0
1.4647077 0.15036656 -0.34460291 0
1.5583847 0.14547992 -0.34463814 0
1.6321819 0.15235856 -0.34497198 0
1.7495842 0.15061867 -0.34541872 0
1.8514661 0.15934861 -0.34619248 0
1.9336561 0.15248728 -0.34700581 0
2.0426829 0.15641652 -0.34800109 0
2.1703556 0.1366213 -0.34841439 0
2.2503371 0.14514796 -0.34923795 0
2.3704619 0.15290326 -0.34979844 0
2.4573534 0.15850738 -0.3503646 0
2.5452433 0.14589894 -0.35080478 0
2.6321454 0.15087891 -0.35134321 0
2.7450655 0.13728137 -0.3516849 0
2.8424928 0.15059468 -0.35245091 0
-3.5331039 0.22783342 -0.30975604 0
-3.4734602 0.27399194 -0.30981255 0
-3.3831992 0.26687151 -0.31049615 0
-3.2639368 0.24977583 -0.31137872 0
-3.1414175 0.25548539 -0.31234813 0
-3.022155 0.2383897 -0.31323069 0
-2.9328973 0.25252482 -0.314273 0
-2.8426809 0.24475782 -0.31495366 0
-2.7514172 0.25675246 -0.31574786 0
-2.6612306 0.24833775 -0.31640574 0
-2.5709183 0.25849572 -0.31728187 0
-2.2590303 0.29261726 -0.31879896 0
-2.1749725 0.28172904 -0.31936926 0
-2.0356863 0.27345255 -0.32065877 0
-1.8425499 0.29251185 -0.32169849 0
-1.7256677 0.28663039 -0.3236832 0
-1.6384782 0.27814066 -0.32505077 0
-1.5475367 0.28373682 -0.32325733 0
-1.4532896 0.27350795 -0.32449427 0
-1.3604594 0.26374212 -0.32448965 0
-1.2533154 0.25460917 -0.32498932 0
-1.1872076 0.25005308 -0.32518741 0
1.2622764 0.2469736 -0.34470928 0
1.3502331 0.2576336 -0.34406444 0
1.4617002 0.24418865 -0.34465742 0
1.5475636 0.24572513 -0.34494472 0
1.6449817 0.25290379 -0.34524095 0
1.74914 0.25207239 -0.34587798 0
1.8435994 0.25221017 -0.34648839 0
1.9246215 0.24929634 -0.34682566 0
2.0472991 0.25031865 -0.34755588 0
2.1768544 0.25983971 -0.34845331 0
2.2497032 0.22968514 -0.35027117 0
2.3676326 0.25513327 -0.35078502 0
2.453537 0.24658719 -0.35083097 0
2.5408621 0.23704332 -0.35131133 0
2.6275735 0.24513377 -0.35188165 0
2.7142849 0.25322425 -0.35245195 0
2.8371401 0.2442562 -0.3533237 0
-3.5287833 0.32928333 -0.31007722 0
-3.4723964 0.37418294 -0.31024408 0
-3.38241 0.36448646 -0.31099004 0
-3.263377 0.34393212 -0.31214619 0
-3.1414974 0.34625494 -0.31281769 0
-3.0177517 0.34702551 -0.3140496 0
-2.924206 0.35749701 -0.31458175 0
-2.8342996 0.34650379 -0.31524703 0
-2.7387755 0.35469833 -0.31563351 0
-2.6489103 0.34305659 -0.31624496 0
-2.5391817 0.34739152 -0.31654128 0
-2.440423 0.36081058 -0.31821519 0
-2.3379958 0.33690473 -0.31845871 0
-2.2468088 0.35662851 -0.31876913 0
-2.1629276 0.34330955 -0.31917277 0
-2.0762916 0.34481549 -0.3195641 0
-1.9710548 0.34766248 -0.31987399 0
-1.8672298 0.35150778 -0.32158795 0
-1.7581745 0.34396255 -0.32182047 0
-1.629351 0.35737255 -0.32164019 0
-1.5454934 0.3486228 -0.32279179 0
-1.4455148 0.36266556 -0.32386404 0
-1.3549745 0.33870971 -0.32560492 0
-1.2596654 0.32558027 -0.32505703 0
-1.171591 0.30869386 -0.32464042 0
1.252604 0.35044208 -0.34264791 0
1.3525982 0.34600386 -0.34345183 0
1.4439691 0.34745184 -0.34335595 0
1.5444345 0.34494612 -0.34406394 0
1.6523556 0.34360394 -0.34536472 0
1.7446785 0.35432106 -0.3461259 0
1.8292282 0.34437576 -0.34679458 0
1.9577312 0.34568843 -0.3475984 0
2.0722766 0.34419847 -0.348176 0
2.1668468 0.35995305 -0.34902537 0
2.2569983 0.34180513 -0.34864447 0
2.3434424 0.35489365 -0.34956375 0
2.4396198 0.33371535 -0.35116324 0
