# .PCD v0.7 - Point Cloud Data file format
VERSION 0.7
FIELDS x y z intensity
SIZE 4 4 4 4
TYPE F F F F
COUNT 1 1 1 1
WIDTH 1398
HEIGHT 1
VIEWPOINT 0 0 0 1 0 0 0
POINTS 1398
DATA ascii
-19.415936 -48.293407 6.3826218 11
-19.413845 -48.287304 8.2342997 12
-18.608843 -48.272209 4.5182376 10
-18.603609 -48.257668 6.3421154 11
-17.817453 -48.267956 2.688823 9
-17.812023 -48.252239 4.492106 10
-17.812593 -48.252796 6.3073859 11
-17.805649 -48.232952 8.1348915 12
-17.030396 -48.251049 2.6740899 9
-17.022694 -48.228146 4.4667888 10
-17.019697 -48.218594 6.2705002 11
-17.019596 -48.217255 8.0904026 12
-17.015965 -48.205887 9.9283772 13
-16.424269 2.2491884 0.28976595 8
-16.426311 2.61011 0.29077837 8
-16.442692 2.9765294 0.29220149 8
-16.443163 3.3428614 0.29346949 8
-16.424116 2.3690474 0.87015754 9
-16.425701 2.6100218 0.87218177 9
-16.434435 2.9750202 0.87593436 9
-16.449986 3.3442614 0.88043714 9
-16.4121 2.2475548 1.4498613 10
-16.428268 2.6104386 1.4559567 10
-16.437269 2.9755099 1.462208 10
-16.435953 3.3414202 1.468183 10
-16.251728 -48.235233 0.88122851 8
-16.394825 2.125525 0.86685401 9
-16.246532 -48.218689 2.6592031 9
-16.243158 -48.207558 4.4429646 10
-16.239126 -48.193329 8.0466452 12
-16.234676 -48.178974 9.8740511 13
-15.62739 -25.245411 3.6402309 11
-15.620134 -25.233149 5.7625566 13
-15.609522 -25.215714 6.8403378 14
-15.298641 2.2067022 -0.26949164 7
-15.369446 3.3546069 -0.27412578 7
-15.390482 4.5348601 -0.27945259 7
-15.327673 5.7379541 -0.28494003 7
-15.206201 6.9714637 -0.29113889 7
-15.482833 -48.224049 0.87695247 8
-15.476639 -48.20356 2.6459527 9
-15.471904 -48.186432 6.2063236 11
-15.468866 -48.175762 8.0060139 12
-15.465515 -48.164108 9.8247261 13
-14.953532 3.9272614e-05 -0.26103428 7
-15.150623 1.0869898 -0.26498652 7
-15.015332 8.2329636 -0.29796025 7
-15.117629 -25.221249 3.6051857 11
-15.117679 -25.221054 4.6516671 12
-15.112483 -25.212097 5.7077832 13
-14.402276 -2.0767584 -0.25435528 7
-14.709382 -1.0551692 -0.25760356 7
-14.730018 9.5084658 -0.30501324 7
-14.714532 -48.190701 0.87249833 8
-14.712438 -48.182587 2.6330492 9
-14.542749 -28.746084 2.813127 10
-14.643763 -25.242882 3.5779636 11
-14.538924 -28.738119 3.9488356 11
-14.560783 -27.785757 3.8462021 11
-14.585837 -26.889416 3.7506285 11
-14.61556 -26.046877 3.6619031 11
-14.710663 -48.175503 4.3995476 10
-14.605926 -26.029375 4.7217088 12
-14.626668 -25.213087 4.6111298 12
-14.5286 -28.717287 5.0914125 12
-14.565409 -27.794233 4.9641938 12
-14.582614 -26.883131 4.8382335 12
-14.577752 -26.873816 5.9367609 13
-14.604733 -26.026934 5.7952437 13
-14.630626 -25.219627 5.6615214 13
-14.709064 -48.16901 6.1764197 11
-14.526106 -28.711956 6.248425 13
-14.56106 -27.785551 6.0915275 13
-14.704214 -48.151829 7.9663415 12
-14.704579 -48.151745 9.7783718 13
-14.052611 -3.065733 -0.25159222 7
-14.364388 10.804652 -0.312684 7
-13.671187 -4.0256763 -0.24946482 7
-13.90915 12.115352 -0.32090038 7
-13.957972 -48.171555 0.86852181 8
-13.952206 -48.148945 4.3785238 10
-13.949049 -48.1367 6.1461411 11
-13.947085 -48.128563 7.9287524 12
-13.943758 -48.115688 9.7296324 13
-13.240145 -4.9524293 -0.24761268 7
-13.350114 13.426856 -0.32945016 7
-13.205934 -48.144108 0.86461109 8
-13.204541 -48.137592 2.6090283 9
-13.201578 -48.125355 4.3588414 10
-13.20021 -48.118916 6.1192203 11
-13.198143 -48.109928 7.8938613 12
-13.19732 -48.105453 9.6884871 13
-12.763786 -5.8458352 -0.24607302 7
-12.718756 14.771982 -0.33926311 7
-12.464258 -48.129448 2.5987427 9
-12.46096 -48.115162 4.3414178 10
-12.459367 -48.107456 6.0945659 11
-12.453876 -48.084671 7.859776 12
-12.22105 -6.6927671 -0.24438491 7
-11.665272 -7.5193868 -0.24356604 7
-11.951212 16.079742 -0.3488242 7
-11.726956 -48.111786 0.85782373 8
-11.725738 -48.105129 2.5881994 9
-11.723188 -48.093006 4.3239393 10
-11.723567 -48.092907 6.0709534 11
-11.717247 -48.06358 9.6087952 13
-11.059273 -8.3047085 -0.2428461 7
-11.09042 17.398815 -0.35941792 7
-10.994708 -48.089874 0.85463423 8
-10.881961 -2.6198032 1.3733926 11
-10.961892 -2.1866305 1.3717637 11
-11.030551 -1.8330048 1.3723154 11
-11.065445 -1.3939228 1.3689834 11
-11.100018 -1.0363077 1.3684847 11
-11.099401 -0.59676254 1.3646692 11
-11.117207 -0.23886034 1.3652693 11
-11.085037 0.19843103 1.3614388 11
-11.05319 0.59421885 1.3594091 11
-11.015219 1.0286106 1.3587613 11
-10.953466 1.3802456 1.3561114 11
-10.876862 1.8083816 1.3544854 11
-10.99297 -48.08049 2.5782456 9
-10.99039 -48.067406 4.3071632 10
-10.988041 -48.055332 6.045855 11
-10.988425 -48.05521 7.8005815 12
-10.985192 -48.039219 9.5716476 13
-10.41929 -9.0579128 -0.24253781 7
-10.773122 2.1903226 1.3506613 11
-10.654583 2.6072407 1.3477795 11
-10.541007 3.0243831 1.3475221 11
-10.454809 3.2445023 1.3451451 11
-10.103753 18.68066 -0.37018615 7
-10.267266 -48.065208 0.85159594 8
-10.365276 3.4628322 1.3430003 11
-10.223222 3.8276298 1.3416704 11
-10.066971 4.1864648 1.3400518 11
-10.266277 -48.058651 2.5690389 9
-10.259613 -48.021572 7.7706208 12
-10.259219 -48.017765 9.5372791 13
-9.7514524 -9.7853489 -0.24278793 7
-9.9527588 4.3923664 1.337139 11
-9.8453512 4.6004486 1.3357838 11
-9.6984844 4.8754578 1.3343542 11
-9.5481348 -48.056553 0.84903795 8
-9.5684166 5.0707927 1.3311754 11
-9.3927975 5.3727112 1.3303289 11
-9.2565269 5.6078725 1.330512 11
-9.5432081 -48.027519 4.277586 10
-9.5415936 -48.017269 6.0044861 11
-9.5409031 -48.011662 7.7462649 12
-9.5385923 -47.997864 9.5053816 13
-9.0400419 -10.471828 -0.24321029 7
-8.828681 -48.022591 0.84622693 8
-9.0642719 5.8532009 1.3266094 11
-8.877821 6.1007681 1.32436 11
-8.8294125 -48.024296 2.55287 9
-8.8263187 -48.005131 4.264029 10
-8.8250504 -47.995914 5.9855423 11
-8.8244648 -47.990395 7.7218084 12
-8.8220539 -47.974911 9.4750147 13
-8.4451275 -1.4034847 1.3554152 12
-8.497057 -1.008589 1.3548509 12
-8.5192299 -0.58044314 1.352247 12
-8.5254459 -0.21368092 1.350702 12
-8.5118332 0.18304226 1.3486991 12
-8.4824066 0.57805061 1.3469514 12
-8.4280224 1.0007205 1.3447952 12
-8.4002752 1.211761 1.3447964 12
-8.7383575 6.2858992 1.3234867 11
-8.5423317 6.5249014 1.3216565 11
-8.2870207 -11.115541 -0.24380808 7
-8.1164322 -48.003231 0.8438651 8
-8.1973143 -2.5411508 1.3581663 12
-8.2949848 -2.2178421 1.3589829 12
-8.38484 -1.797495 1.3574319 12
-8.3560238 1.42006 1.3431814 12
-8.2744312 1.7752399 1.3412639 12
-8.1632738 2.1743143 1.3391476 12
-8.0341702 2.5567877 1.3365424 12
-8.3835144 6.6941271 1.3190604 11
-8.1817274 6.9265785 1.3181583 11
-8.113904 -47.985729 2.544508 9
-8.1149044 -47.989147 4.2519875 10
-8.1133661 -47.977478 5.9682908 11
-8.1112614 -47.962437 7.6979918 12
-8.1090059 -47.946487 9.4456711 13
-7.9591861 2.7228565 1.3335441 12
-7.8375936 3.0420337 1.3330635 12
-7.6567831 3.4123156 1.3292564 12
-7.9672122 7.1474719 1.3160433 11
-7.7419314 7.356926 1.3132602 11
-7.4960775 -11.717474 -0.24464236 7
-7.4093742 -47.991718 0.84182936 8
-7.4856768 3.7637413 1.3287998 12
-7.2545538 4.1506147 1.3255798 12
-7.5255785 7.574254 1.3128351 11
-7.3396654 7.7122316 1.3090928 11
-7.4070129 -47.973583 2.5381079 9
-7.4054909 -47.960892 4.2397947 10
-7.403532 -47.945354 5.9506478 11
-7.4058337 -47.95747 7.6795516 12
-7.4050732 -47.949669 9.4246206 13
-6.8133163 -1.282837 1.3468336 13
-6.8484797 -1.0374392 1.3459088 13
-6.8944693 -0.64367318 1.3457341 13
-6.9039869 -0.24731989 1.3428652 13
-6.8993721 0.22241637 1.3422047 13
-6.8589253 0.64042878 1.3395993 13
-6.8247614 0.93463224 1.3395844 13
-7.1517658 4.3338275 1.3262354 12
-6.9704728 4.5736094 1.3224431 12
-7.1042366 7.9074831 1.307055 11
-6.8646684 8.0967731 1.3052019 11
-6.6705775 -12.280042 -0.24579261 7
-6.7040558 -47.967968 0.83976549 8
-6.4603338 -2.5745544 1.3504138 13
-6.597755 -2.2011852 1.3507818 13
-6.7049136 -1.818179 1.3494112 13
-6.7794061 -1.4531502 1.3468956 13
-6.7823372 1.1277152 1.3371732 13
-6.7218051 1.4169983 1.3363336 13
-6.6001496 1.8258084 1.3323768 13
-6.4879899 2.1680024 1.3311439 13
-6.6187925 5.0196619 1.317886 12
-6.4073977 5.2704449 1.3160037 12
-6.588068 8.2994175 1.3029222 11
-6.7047105 -47.969551 2.5326896 9
-6.7005262 -47.936378 4.228857 10
-6.7014608 -47.939941 5.9376154 11
-6.7012353 -47.935154 7.6599965 12
-6.6983981 -47.911579 9.397501 13
-6.0036983 -47.956039 0.83809286 8
-6.3734779 -2.8076859 1.3520725 13
-6.3871651 2.3921208 1.3271669 13
-6.3066826 2.6235611 1.3294371 13
-6.1410046 2.9603996 1.3270893 13
-6.2497935 5.4490647 1.3153509 12
-6.0389099 5.6592264 1.3128569 12
-6.1466498 8.5971527 1.2994288 11
-6.0015883 -47.935596 2.5262396 9
-6.0023108 -47.937851 4.2211232 10
-6.0004997 -47.916176 7.6426263 12
-6.000422 -47.911942 9.3799458 13
-5.82019 -12.822652 -0.24765775 7
-5.7178121 -0.82418406 -0.30278683 6
-5.7769704 -0.41430473 -0.3035537 6
-5.8194089 1.5018053e-05 -0.30498964 6
-5.8402157 0.41900578 -0.30685943 6
-5.8459282 0.84332168 -0.30953926 6
-5.7908216 1.2642343 -0.31062841 6
-5.7287865 1.6886322 -0.31300393 6
-5.6292162 2.1083877 -0.31503651 6
-5.6537766 -1.3604552 1.3416069 14
-5.7241068 -1.0141718 1.3415451 14
-5.767169 -0.60085547 1.338441 14
-5.7839384 -0.20729484 1.3361769 14
-5.7764368 0.18624359 1.3347068 14
-5.7420912 0.59845531 1.3335993 14
-5.6773853 1.0068828 1.3322595 14
-5.6326079 1.2297435 1.3319976 14
-5.8795667 3.3928919 1.3215685 13
-5.7109771 3.6608846 1.3206844 13
-5.8219495 5.8622746 1.3106804 12
-5.6511769 6.0270538 1.3105888 12
-5.9254274 8.7440329 1.2985783 11
-5.7266426 8.8554707 1.296506 11
-5.9992685 -47.909908 5.922811 11
-5.415029 -1.8056053 -0.29941991 6
-5.5906186 -1.2190456 -0.2999239 6
-5.5186763 2.5317702 -0.31822419 6
-5.362402 2.9426515 -0.32060149 6
-5.3045015 -47.928871 0.83633679 8
-5.2661386 -3.1816959 1.1939678 13
-5.3834672 -3.096998 1.2053317 13
-5.2666478 -2.5016632 1.3442745 14
-5.4007635 -2.2190816 1.3465652 14
-5.5421529 -1.7828245 1.3429401 14
-5.598619 -1.5609485 1.3405871 14
-5.5736723 1.4280244 1.329646 14
-5.4573207 1.8020853 1.328519 14
-5.2919989 2.2017744 1.3253654 14
-5.5465803 3.9023647 1.320418 13
-5.325985 4.1521134 1.3149974 13
-5.4145546 6.2069998 1.3067412 12
-5.3957329 9.0393581 1.2942579 11
-5.3039622 -47.919933 2.5212963 9
-5.3044591 -47.920391 4.2126203 10
-5.3019972 -47.893982 5.9110188 11
-5.3042893 -47.91066 7.6290312 12
-5.3015113 -47.881302 9.3583231 13
-4.9703531 -2.7190087 -0.29705161 6
-5.1642203 -2.3630335 -0.29774544 6
-5.1862063 3.3511505 -0.32366014 6
-4.9623914 3.7371764 -0.3256548 6
-4.9609308 -3.3623636 1.1630453 13
-5.1807399 -2.6916454 1.3458623 14
-4.8316741 -1.2727084 1.3375967 15
-4.8934946 -1.0119914 1.3381873 15
-4.9478989 -0.60508871 1.3354278 15
-4.9750147 -0.19600122 1.3341491 15
-4.9712124 0.17794286 1.3334597 15
-4.9264808 0.60276073 1.3309046 15
-4.8438911 1.0211878 1.3278846 15
-5.1024799 2.5895219 1.3232334 14
-4.8705344 2.9769452 1.3202918 14
-5.1538749 4.3665466 1.3152244 13
-4.952549 4.5766187 1.3132387 13
-5.1802878 6.3875437 1.3045489 12
-4.9114566 6.5867763 1.3034284 12
-4.992568 9.1664085 1.2831348 11
-4.7964802 -12.954524 -0.24290009 7
-4.5332112 -3.3990772 -0.29713792 6
-4.7524042 -3.0594633 -0.29637536 6
-4.7255015 4.1220708 -0.32875133 6
-4.4633517 4.4967847 -0.3322002 6
-4.5665278 9.0719671 0.17765188 8
-4.6152716 -6.5144815 0.69674808 10
-4.5715241 9.0820236 0.53355771 9
-4.4505401 -4.4584742 0.99566025 12
-4.4931045 -3.626472 1.1201648 13
-4.6938567 -3.5193152 1.138271 13
-4.4065585 9.0769014 0.88373429 10
-4.4888935 -2.8890355 1.2302655 14
-4.5122051 -2.1822405 1.3413104 15
-4.6547985 -1.8282057 1.3386046 15
-4.7800236 -1.4810116 1.3394679 15
-4.7295675 1.4311419 1.3258715 15
-4.5769067 1.8279424 1.3227754 15
-4.4417572 2.1159961 1.3204665 15
-4.7395134 3.1605103 1.3174301 14
-4.5256481 3.3579724 1.3721447 14.333333
-4.740829 4.7759333 1.31032 13
-4.5828919 4.925499 1.3101063 13
-4.6474562 6.7582006 1.3009835 12
-4.6127243 9.163908 1.2610343 11
-4.417078 9.0988398 1.6035737 12
-4.4219656 9.1092291 2.340014 14
-4.2689247 -3.7047527 -0.29644901 6
-4.1652284 4.8476396 -0.33515128 6
-4.0944114 9.0891771 -0.17404272 7
-4.1799622 9.1034126 0.17514443 8
-4.2816286 -6.5769238 0.68486333 10
-4.1772485 9.0976849 0.52526069 9
-4.1751976 -6.5144906 0.94805241 11
-4.2806582 -4.5075908 1.0935519 12.5
-4.3365808 -3.7093921 1.1070325 13
-4.1743679 9.0918589 0.87620407 10
-4.2267213 -4.6133294 1.2137777 13
-4.2528877 -3.7446437 1.3056809 14
-4.2607851 -3.5920968 1.2840815 14
-4.2895002 -2.9826472 1.300162 14.5
-4.2950287 -2.6150005 1.3450457 15
-4.381043 -2.3959959 1.3357083 15
-4.1775522 9.0988617 1.4090399 11.5
-4.1782012 9.1004953 1.9484088 13
-4.1821833 9.1093321 2.3163681 14
-4.1767759 9.0978794 2.6849992 15
-3.9816082 -13.689426 -0.25061658 7
-3.7020202 -4.2783241 -0.29678711 6
-3.986532 -3.9923396 -0.29593104 6
-3.6114278 0.12962286 -0.3164005 5
-3.8396821 5.1788883 -0.33812028 6
-3.7535832 9.1069098 0.17214182 8
-3.7552643 9.1108446 0.5169785 9
-3.753165 9.1056633 0.86251575 10
-3.7558851 9.112751 1.3869523 11.5
-3.75458 9.1098375 1.9171208 13
-3.7943692 9.1130743 2.2812796 14
-3.7574389 9.1171646 2.644804 15
-3.3917487 -4.536932 -0.29718077 6
-3.2829404 -1.3613815 -0.31087303 5
-3.4475021 -1.0138952 -0.31418654 5
-3.5237927 -0.63703328 -0.31335452 5
-3.591208 -0.25748509 -0.31494209 5
-3.5733538 0.64750707 -0.31808615 5
-3.4982309 1.0315354 -0.31934562 5
-3.3979936 1.4151008 -0.32260123 5
-3.2450163 1.782213 -0.3243548 5
-3.4920282 5.4946995 -0.34149927 6
-3.3365519 9.1006727 -0.16937979 7
-3.3800151 9.1164589 0.16983108 8
-3.3793705 9.1151419 0.50990516 9
-3.3809192 9.1195383 1.0234536 10.5
-3.3808472 9.1197624 1.5418568 12
-3.3815064 9.1217556 1.8926898 13
-3.3822312 9.1239462 2.2485142 14
-3.4179029 9.1206703 2.6120856 15
-3.0427411 -14.171611 -0.25469345 7
-3.0604882 -4.7684121 -0.2972849 6
-2.8450944 -2.1301215 -0.31061825 5
-3.057642 -1.8148164 -0.31096652 5
-3.063756 2.1426034 -0.32783836 5
-2.8391585 2.480232 -0.33044451 5
-3.1123805 5.7754421 -0.34419307 6
-2.9776969 9.1225071 0.16750963 8
-2.978142 9.1243677 0.50330025 9
-2.9795585 9.1290655 1.0103512 10.5
-2.9794478 9.1292286 1.5221133 12
-2.9813111 9.1349077 1.8692344 13
-2.9836669 9.142415 2.2219567 14
-2.9470716 9.1411715 2.5756099 15
-2.7158599 -4.9801269 -0.29764935 6
-2.5126665 -2.5112925 -0.31047851 5
-2.6777949 -2.3198631 -0.30963427 5
-2.4271991 -0.90577793 -0.31760058 4
-2.515239 -0.6427604 -0.3185946 4
-2.5907092 -0.27893335 -0.31997895 4
-2.611789 0.23511489 -0.32270014 4
-2.5529711 0.65479356 -0.32422838 4
-2.4474211 1.0194669 -0.32637286 4
-2.6699891 2.6946819 -0.33254731 5
-2.4903498 2.9043384 -0.33542243 5
-2.7216258 6.0547681 -0.34832829 6
-2.6197057 9.124712 -0.16605301 7
-2.5883791 9.1384163 0.16569442 8
-2.5884697 9.1387663 0.49796557 9
-2.5885165 9.1395826 0.99934345 10.5
-2.5895994 9.1433372 1.506137 12
-2.5897985 9.1448584 1.8487816 13
-2.5899715 9.1453924 2.1959956 14
-2.5525708 9.1397018 2.5444238 15
-2.3631108 -5.181366 -0.298843 6
-2.1307302 -2.8422873 -0.31050256 5
-2.3294375 -2.6857684 -0.31073615 5
-2.1712706 -1.3937215 -0.31665167 4
-2.3594675 -1.0776453 -0.3179217 4
-2.0221 -0.29114529 -0.323259 3
-2.0330956 0.29339045 -0.32567626 3
-2.0183339 0.44095209 -0.32770509 3
-2.2927732 1.3705573 -0.32901764 4
-2.0828753 1.6935652 -0.33081374 4
-2.2900474 3.0963781 -0.33767787 5
-2.0712013 3.2687426 -0.33932343 5
-2.2949784 6.2756286 -0.35069472 6
-2.170871 9.1516724 0.16396081 8
-2.1721981 9.1572695 0.49326599 9
-2.1694298 9.1458206 0.98856241 10.5
-2.16996 9.1488676 1.4900362 12
-2.1707201 9.1523762 1.8294489 13
-2.1729565 9.1621389 2.1752365 14
-2.1706696 9.1527224 2.5220692 15
-1.804081 -5.4297423 -0.30047056 6
-1.8199819 -3.059916 -0.31145626 5
-1.8307074 -1.8261098 -0.31728831 4
-1.634918 -1.220433 -0.32207423 3
-1.7742195 -0.96712697 -0.31966439 3
-1.9724488 -0.50376022 -0.32210913 3
-1.6306825 -0.35485631 -0.32379615 2
-1.6442657 0.35931802 -0.32778379 2
-1.9509052 0.65295476 -0.32677859 3
-1.8140308 0.99855304 -0.32960984 3
-1.6693407 1.2617913 -0.33273169 3
-1.9019555 1.9229052 -0.33316326 4
-1.690125 2.1262457 -0.33485255 4
-1.8377386 3.4226084 -0.34066513 5
-1.8530676 6.4746828 -0.35352615 6
-1.9287783 9.1497107 -0.1637338 7
-1.7591314 9.1558838 0.16239622 8
-1.7599512 9.1603613 0.48873749 9
-1.7607452 9.1651239 0.98143274 10.5
-1.7595594 9.1595764 1.4778256 12
-1.7622809 9.1745939 1.8167572 13
-1.7611029 9.1687746 2.1565006 14
-1.762053 9.1744766 2.5044868 15
-1.2181985 -5.611578 -0.30138505 6
-1.3679334 -3.2904096 -0.31183857 5
-1.3998266 -2.1665802 -0.31659433 4
-1.2194705 -1.6176718 -0.31978393 3
-1.4339566 -1.4267154 -0.31981078 3
-1.3091249 -1.0122546 -0.32082686 2
-1.340988 -0.66918582 -0.32462797 1.3333334
-1.293786 -0.28133434 -0.32790586 0.5
-1.3735423 0.30023724 -0.32535717 1
-1.3460436 0.67628103 -0.32933447 1.3333334
-1.3868332 0.97315079 -0.33196864 2
-1.3999246 1.4183083 -0.33300263 2.75
-1.2471737 1.6948906 -0.33482265 3
-1.4629565 2.3158278 -0.33749741 4
-1.2892277 2.4101253 -0.33676711 4
-1.5982126 3.57165 -0.34314138 5
-1.3479607 3.7071626 -0.3459214 5
-1.3970327 6.6547093 -0.35702279 6
-1.2539732 9.1667271 -0.16219005 7
-1.3552017 9.1691151 0.16130798 8
-1.3554885 9.1716633 0.48560849 9
-1.3554235 9.1727219 0.97505617 10.5
-1.3564339 9.1805515 1.4701606 12
-1.3555896 9.1749048 1.8033013 13
-1.3567626 9.1842394 2.1440818 14
-1.3557044 9.1773539 2.4866774 15
-1.0147558 -3.4346454 -0.3133145 5
-0.91858232 -2.4370646 -0.31936324 4
-1.0791466 -2.3433805 -0.3162533 4
-0.97509199 -1.7675414 -0.31933224 3
-0.9986155 -1.3218938 -0.32115704 2
-1.0139022 -0.9937132 -0.32387361 1
-1.0730029 -0.68575442 -0.32668665 0.25
-1.1977431 0.26187196 -0.32941094 0
-1.0256865 0.66667253 -0.33049253 0
-0.96788728 0.98463899 -0.3337312 0.75
-0.96007323 1.4139738 -0.33520007 2
-0.99437821 1.865611 -0.33692807 3
-1.0312253 2.5602565 -0.34024826 4
-0.94294643 3.8431025 -0.34723061 5
-0.92591256 6.8108001 -0.36097336 6
-0.9551084 9.1821041 0.16051923 8
-0.95491117 9.1810656 0.48330474 9
-0.95505667 9.1837931 0.97057199 10.5
-0.95520037 9.1859274 1.4628084 12
-0.98726296 9.1763363 1.7941166 13
-0.85690749 9.2049732 1.7970221 13
-0.95505095 9.1853304 2.1324277 14
-0.98829538 9.1852694 2.4760671 15
-0.99057835 9.2081804 2.4819813 15
-0.76723951 -3.4958575 -0.3131839 5
-0.65327054 -2.5186508 -0.31944302 4
-0.57259655 -1.8214406 -0.32229435 2.6666667
-0.64517039 -1.3892316 -0.32274541 1.5
-0.68284816 -1.0635108 -0.3251147 0.25
-0.62741029 1.0629231 -0.33486351 0
-0.60265017 1.4134034 -0.33686176 1.3333334
-0.52282703 1.6506429 -0.33840683 2
-0.61349624 2.0502481 -0.34088457 3
-0.65655416 2.6996806 -0.34238163 4
-0.52922094 3.9625049 -0.35053557 5
-0.43846422 6.9154706 -0.36399657 6
-0.59040934 9.1888857 -0.16160861 7
-0.5573712 9.1912689 0.15996113 8
-0.55765826 9.1965313 0.48222443 9
-0.54068637 9.1924019 0.96768332 10.5
-0.72377491 9.2028084 1.1331172 11
-0.65609759 9.1864357 1.4584776 12
-0.45864955 9.2089472 1.4599625 12
-0.58945638 9.1829309 1.7884679 13
-0.59106404 9.2064638 1.7932345 13
-0.5899291 9.1914434 2.1263046 14
-0.5911116 9.2088079 2.1305394 14
-0.58974737 9.1901798 2.467607 15
-0.5911476 9.2103281 2.4732702 15
-0.36590603 -1.612955 -0.32096425 2
-0.36256111 -1.3587655 -0.32405648 1
-0.3166731 -1.1758119 -0.32549918 0
-0.14333093 1.3704245 -0.33857229 0.60000002
-0.12837982 1.7425023 -0.34060845 2
-0.19754158 2.1440349 -0.34218737 3
-0.26425499 2.7904892 -0.34522712 4
-0.076055765 2.8308406 -0.34565556 4
-0.24336393 3.9975252 -0.35114148 5
-0.076346956 4.022079 -0.34982035 5
-0.077066988 6.9781256 -0.3630107 6
-0.077801272 9.2164726 -0.15774654 7
-0.26008788 9.1981106 0.15972719 8
-0.036993168 9.2135372 0.16183756 8
-0.19388254 9.194768 0.48119658 9
-0.012291756 9.2131863 0.48567399 9
-0.32588544 9.1955347 0.80433023 10
-0.10051617 9.2137575 0.96923304 10.5
-0.11162618 9.2172632 1.460462 12
-0.32567343 9.197402 1.7885084 13
-0.089627758 9.2216978 1.7930193 13
-0.11175449 9.2166252 2.1285169 14
-0.11178756 9.2163801 2.4702666 15
0.33910114 -5.8663568 -0.30841166 6
0.22534916 -3.6222334 -0.3179411 5
0.25807995 -2.6060448 -0.32237488 4
0.19689685 -2.0449586 -0.32634777 3
0.18525901 -1.6675036 -0.32770413 2
0.1484506 -1.3534305 -0.32739088 0.75
0.2164351 -1.1909277 -0.32676896 0
0.19898283 1.3454131 -0.33936194 0.5
0.24128047 1.7409922 -0.34189194 2
0.21099371 2.1566329 -0.34341627 3
0.23059632 2.8300128 -0.34756473 4
0.2128091 4.0199409 -0.35031158 5
0.28579903 9.2190285 0.16428405 8
0.28589487 9.2306108 0.48721287 9
0.28531021 9.2263718 0.97355008 10.5
0.28536353 9.2405834 1.4673309 12
0.28482249 9.2311697 1.7982373 13
0.28463164 9.2319021 2.1353583 14
0.28459156 9.2413416 2.4803538 15
0.42249218 -5.8553143 -0.3081145 6
0.5105257 -3.6041057 -0.31899545 5
0.76997006 -3.5737979 -0.32047662 5
0.6376304 -2.5498791 -0.32393208 4
0.41912571 -2.0027952 -0.32524353 3
0.57219899 -1.8357501 -0.32656765 2.6666667
0.60235631 -1.3713599 -0.32976261 1.3333334
0.61298323 -1.0430249 -0.33060652 0
0.52143764 1.1273687 -0.3402555 0
0.59853768 1.3319753 -0.34293988 1
0.54993367 1.6619024 -0.3430534 2
0.6228255 2.0817568 -0.34541437 3
0.63457501 2.7650988 -0.34824565 4
0.79467958 3.9809902 -0.35376728 5
0.5052256 4.0218768 -0.35299349 5
0.42651233 7.0088506 -0.36515504 6
0.58582652 9.2396383 -0.15803015 7
0.68549985 9.2371235 0.16534136 8
0.68526477 9.2380171 0.48918507 9
0.68528897 9.2441416 0.97834277 10.5
0.68496144 9.2445965 1.4721173 12
0.68499517 9.2481108 1.8065602 13
0.68425667 9.2423468 2.1436763 14
0.68470186 9.2523146 2.4901061 15
1.0345737 -15.274378 -0.26825577 7
0.84746963 -5.8625741 -0.31087658 6
1.0304239 -3.5332503 -0.32273978 5
0.99529213 -2.4341817 -0.3245503 4
0.9729811 -1.8115869 -0.32873073 3
1.0294467 -1.3319336 -0.33332303 2
0.95005834 -0.97077984 -0.33237743 0.75
1.049117 -0.60575122 -0.33585089 0
1.1793422 -0.29770735 -0.3375034 0
1.1765708 0.31300262 -0.33904159 0
1.0676256 0.58872473 -0.34032905 0
0.98352659 0.98541546 -0.34075931 0.80000001
1.0319277 1.3848081 -0.3425917 2
0.9490478 1.9430861 -0.34554073 3
0.93140572 2.6819756 -0.34897274 4
1.0852072 3.9328358 -0.35577661 5
0.93524081 7.008502 -0.36759934 6
1.0886536 9.2478952 0.16656947 8
1.0874975 9.2409029 0.49182579 9
1.0885533 9.2523909 0.98384845 10.5
1.0887814 9.2575226 1.4810822 12
1.0883379 9.2557802 1.816463 13
1.0882382 9.2575197 2.1571209 14
1.0887257 9.264184 2.5047781 15
1.2696047 -5.8110538 -0.31214297 6
1.4090228 -3.4154892 -0.32435778 5
1.3479915 -2.2916813 -0.3285656 4
1.2215027 -1.6527569 -0.32867309 3
1.4123511 -1.5319202 -0.33390722 3
1.375463 -0.96345955 -0.33353966 2
1.3508439 -0.65728378 -0.33493182 1.3333334
1.342005 -0.23757979 -0.3372556 0.75
1.3485349 0.16612767 -0.34056783 0.66666669
1.3815225 0.56589651 -0.33956283 1.25
1.3743844 1.0464873 -0.34405655 2
1.4847918 1.5454391 -0.34399614 3
1.3123255 1.7070705 -0.34514457 3
1.3515425 2.4876871 -0.34957448 4
1.3612285 3.831357 -0.35481399 5
1.4410013 6.9461088 -0.3687335 6
1.2578446 9.25035 -0.15895157 7
1.395511 9.2644453 0.16783445 8
1.5142632 -24.752529 0.43121755 8
1.3928618 9.2494068 0.49471697 9
1.3945833 9.2627745 0.98985314 10.5
1.3967624 9.2790585 1.4914552 12
1.4962094 9.2609301 1.8293374 13
1.4646298 9.2793245 2.1748278 14
1.3938992 9.266221 2.5168729 15
1.6959703 -5.7526793 -0.31469712 6
1.777195 -3.2631261 -0.32614559 5
1.6692117 -2.0834386 -0.3303659 4
1.8958257 -1.9028097 -0.33250168 4
1.6189156 -1.3130808 -0.33470458 3
1.8340861 -1.0014876 -0.33664557 3
1.7879622 -0.6291393 -0.33743942 2.5
1.6888131 -0.19789851 -0.33928287 2
1.6899759 0.21558966 -0.34029546 2
1.6434135 0.49581411 -0.34211585 2
1.8840445 1.0126286 -0.34528151 3
1.6540989 1.379791 -0.34650445 3
1.814885 2.164453 -0.34977022 4
1.7733847 3.6719227 -0.35641733 5
1.9488426 6.8671703 -0.37097076 6
1.9501976 9.2829237 -0.16113557 7
1.7048117 9.2689991 0.16908702 8
1.7043134 9.2678118 0.49875382 9
1.7053934 9.2753191 0.99704391 10.5
1.8701279 -24.75341 1.2995548 9
1.7050203 9.2756643 1.4996774 12
1.8102458 9.2861013 1.8454294 13
1.8684481 -24.735069 2.1689203 10
1.8120716 9.2964439 2.1934581 14
1.6005226 9.2738686 2.5283668 15
1.8680098 -24.732954 3.0443163 11
1.8677318 -24.732962 3.9274333 12
1.8675679 -24.734501 4.8206658 13
2.2755883 -15.434982 -0.27305886 7
2.1158271 -5.650177 -0.31653625 6
2.1295073 -3.0698853 -0.32830003 5
2.1014974 -1.6952993 -0.33475429 4
2.3399334 -1.3840306 -0.33741704 4
2.0474441 -0.51081669 -0.34035751 3
2.0975399 -0.20679763 -0.34027916 3
2.1038218 0.22660655 -0.34178644 3
2.0496325 0.57317418 -0.34404129 3
2.3516574 1.5441555 -0.34887072 4
2.1765914 1.7982769 -0.34997162 4
2.1614926 3.4596555 -0.35666335 5
2.2099495 9.2920799 0.17174667 8
2.2255504 -24.734535 0.4320462 8
2.2073929 9.2827559 0.50554216 9
2.2091212 9.2909832 1.0103045 10.5
2.2241845 -24.722582 1.2995955 9
2.2112229 9.3012667 1.5212011 12
2.2104907 9.2990894 1.8654153 13
2.2257049 -24.742348 2.1722646 10
2.2089336 9.2939701 2.2134786 14
2.2096188 9.2980204 2.5693696 15
2.2242713 -24.729671 3.0476696 11
2.2233517 -24.722672 3.9306173 12
2.2246237 -24.73979 4.8275914 13
2.542424 -5.5439286 -0.31993103 6
2.4726553 -2.8521285 -0.33160371 5
2.6817019 -2.6773148 -0.33297309 5
2.516006 -1.0313486 -0.33781999 4
2.6607985 -0.66161412 -0.34084955 4
2.7439547 -0.26997399 -0.34290177 4
2.7595851 0.29417834 -0.34517151 4
2.7084112 0.69773138 -0.34772611 4
2.5828624 1.0869176 -0.34817794 4
2.46749 1.3733895 -0.35036653 4
2.6347373 3.1067884 -0.35657629 5
2.4075344 3.2958133 -0.35706082 5
2.4458077 6.731606 -0.37215573 6
2.6663959 9.3057232 -0.16409492 7
2.5893266 9.2896776 0.17366365 8
2.5825465 -24.729506 0.43266788 8
2.5196631 9.2991829 0.51069236 9
2.591774 9.3002062 1.0218273 10.5
2.5825245 -24.731962 1.3020217 9
2.6634099 9.2999115 1.5397838 12
2.5922711 9.3043985 1.8855804 13
2.579437 -24.70537 2.1721766 10
2.5938272 9.3105297 2.2400787 14
2.5901039 9.2987585 2.5957859 15
2.5819602 -24.731983 3.052351 11
2.5805049 -24.720903 3.935976 12
2.5771832 -24.692152 4.8251872 13
2.950413 -5.3793826 -0.321771 6
2.8772357 -2.4858766 -0.33418873 5
3.0687437 -2.286962 -0.33642817 5
3.0462437 2.6844718 -0.35579962 5
2.8543253 2.9090061 -0.35693496 5
2.9411869 6.5765028 -0.37430292 6
2.9844418 9.3063402 0.17626527 8
2.9396808 -24.717813 0.43326589 8
2.9869461 9.3152437 0.51899761 9
2.9869306 9.3156881 0.86286938 10
2.9403324 -24.725622 1.3038962 9
2.9881124 9.3205442 1.3841194 11.5
2.9989853 9.3160696 1.9115734 13
2.9377427 -24.706423 2.1758852 10
2.9862442 9.3167191 2.2685237 14
2.9849172 9.3132792 2.6310828 15
2.9355586 -24.690626 3.0522778 11
2.9372544 -24.707178 3.9402554 12
2.9361932 -24.700781 4.8347812 13
2.9343715 -24.690596 6.6623478 15
3.4389961 -15.525107 -0.2779749 7
3.3658142 -5.2119131 -0.32530761 6
3.2460284 -2.0727704 -0.33860257 5
3.3936021 -1.836736 -0.33930385 5
3.5338519 -1.5943401 -0.34092507 5
3.5549729 1.9628813 -0.35632324 5
3.3948169 2.2103689 -0.35532027 5
3.2466903 2.4666607 -0.35745698 5
3.4052474 6.3449044 -0.37411344 6
3.4162679 9.3271132 -0.16805914 7
3.4934356 9.3293533 0.17995861 8
3.298146 -24.709351 0.43401381 8
3.4935465 9.3299742 0.52891016 9
3.4922001 9.3273134 0.87888205 10
3.2963109 -24.697865 1.3049159 9
3.4949796 9.3355198 1.4100701 11.5
3.4937527 9.3332586 1.9469972 13
3.2954741 -24.6938 2.1788497 10
3.416059 9.3312817 2.3045712 14
3.4954565 9.33916 2.6834784 15
3.296052 -24.70027 3.0591502 11
3.2945747 -24.691475 3.9450457 12
3.2956939 -24.702009 4.8439546 13
3.2935748 -24.688499 5.7502928 14
3.2940397 -24.694239 6.6755996 15
3.758486 -4.9938488 -0.32763249 6
3.6547153 -1.3402892 -0.34234107 5
3.8033519 -0.94181997 -0.34481058 5
3.9017019 -0.52697557 -0.34623179 5
3.9468789 -0.24403329 -0.34771678 5
3.9725585 0.27386245 -0.35004425 5
3.9637818 0.56426805 -0.35187554 5
3.8955035 0.99615335 -0.35347408 5
3.770489 1.4160435 -0.35368505 5
3.6706362 1.6918125 -0.35479471 5
3.8652034 6.1018343 -0.37525541 6
3.8105214 9.34583 0.182495 8
3.6585381 -24.706142 0.43494847 8
3.8026214 9.3274174 0.53498811 9
3.8063807 9.3371429 0.8900671 10
3.655899 -24.690422 1.3072852 9
3.7278769 9.3377752 1.2431062 11
3.7699828 9.34552 1.7876799 12.5
3.6548553 -24.685398 2.1826484 10
3.8078544 9.3431616 2.3406167 14
3.8089995 9.3464909 2.7166009 15
3.6535933 -24.678926 3.0628347 11
3.6538637 -24.682739 3.9517829 12
3.6525838 -24.676188 4.8488455 13
3.651638 -24.671896 5.7582259 14
3.6509783 -24.669556 6.6826053 15
4.1325479 -4.7406168 -0.32957548 6
4.3011084 5.8161683 -0.37582463 6
4.206748 9.3401146 -0.17301768 7
4.209662 9.3442974 0.1855372 8
4.199244 -24.684643 0.43624732 8
4.2110796 9.3488598 0.54487914 9
4.2090993 9.3452759 0.90511405 10
4.1965189 -24.670637 1.3109447 9
4.2096047 9.3466921 1.2679734 11
4.1711407 9.351759 1.7238522 12.25
4.1967793 -24.673843 2.1893761 10
4.2449427 9.3547115 2.2333121 13.6
4.2139678 9.3585453 2.76333 15
4.195972 -24.671345 3.0727012 11
4.1951838 -24.668039 3.9633234 12
4.1943364 -24.664827 4.8636255 13
4.1919985 -24.652983 5.7739782 14
4.1925349 -24.657904 6.7028327 15
4.6358247 -15.556349 -0.28339198 7
4.7752652 -5.3943748 -0.12463631 7
4.7592964 -4.9690876 -0.11893839 7
4.6709065 -4.5718899 -0.18728662 6.6666665
4.7380238 -4.1344476 -0.1816024 6.6666665
4.7228441 -3.8042834 -0.10453165 7
4.7118907 5.4944677 -0.37608188 6
4.7836499 -5.6425643 0.26085508 8.5
4.7745976 -5.3937988 0.25416958 8.5
4.7645793 -4.9749322 0.24333693 8.5
4.7499671 -4.584219 0.23372605 8.5
4.7346363 -4.1618395 0.22314005 8.5
4.7281733 -3.8085606 0.21515702 8.5
4.5449519 9.3604908 0.18851332 8
4.7452736 -24.67688 0.43798199 8
4.7848887 -5.6442618 0.6511724 10
4.7743702 -5.3937097 0.63413084 10
4.765851 -4.9764366 0.60700029 10
4.7524433 -4.5540199 0.58024937 10
4.7385802 -4.1654334 0.6684885 10.5
4.734612 -3.7750864 0.66336817 10.6
4.5433016 9.3576393 0.55295044 9
4.7824688 -5.6416759 1.0449698 11.5
4.7770844 -5.3971028 1.018621 11.5
4.7622795 -4.9943328 1.0008112 11.6
4.7529473 -4.6204286 0.93783683 11.5
4.7452292 -4.1714692 1.0075597 12
4.730525 -3.7829845 1.0760823 12.5
4.5445995 9.3607683 0.91909611 10
4.7422519 -24.662846 1.3158118 9
4.7853565 -5.6453104 1.4451218 13
4.7771797 -5.3973861 1.4078907 13
4.7669754 -4.9781647 1.3470125 13
4.7537141 -4.5885253 1.4133432 13.5
4.7467718 -4.1576033 1.3504528 13.5
4.7296519 -3.8573284 1.3433098 13.666667
4.5507355 9.3737135 1.2890877 11
4.7795854 -5.6387224 1.7140906 14
4.7807326 -5.4016247 1.807444 14.5
4.7706966 -5.0357552 1.7381736 14.5
4.7506752 -4.6510086 1.7911187 15
4.7393909 -4.1667991 1.7013327 15
4.7331228 -3.8133802 1.6395453 15
4.5458302 9.3642693 1.659317 12
4.7414165 -24.660114 2.1968613 10
4.5504966 9.3742447 2.0371537 13
4.5458803 9.3653965 2.4160876 14
4.7385879 -24.647097 3.0818229 11
4.5426989 9.3594694 2.8013685 15
4.7384062 -24.647764 3.9756768 12
4.7365255 -24.639671 4.8777785 13
4.7396498 -24.657486 5.7977176 14
4.7356629 -24.638544 6.7238507 15
4.9581118 -3.6416533 -0.17759226 6.6666665
5.105278 5.1501536 -0.37682909 6
5.0551987 9.3574934 -0.1793641 7
4.9861522 -3.6439414 0.21897079 8.5
4.9324679 9.369772 0.19201458 8
5.0106158 -3.6436121 0.62091863 10.333333
4.9804068 9.3802643 0.56480151 9
4.9865527 -3.6446023 1.0965354 12.5
4.9348407 9.3752165 0.93612462 10
5.0056319 -3.6404078 1.3631548 13.666667
4.9379578 9.3811302 1.3119395 11
5.0546074 -3.6382065 1.6803813 15
4.9344115 9.375473 1.6893541 12
4.9724374 9.3672266 2.0738192 13
4.9339814 9.3755026 2.4594765 14
4.9354153 9.3784943 2.8543832 15
5.1012173 -24.630297 5.8081326 14
5.0996032 -24.624128 6.7394009 15
5.3996663 -3.624994 -0.11183471 7
5.498209 -3.4949884 -0.34094113 6
5.4599257 4.7658029 -0.37665889 6
5.3700194 -3.6333969 0.23053181 8.5
5.3304543 9.3754196 0.19572048 8
5.3654203 -3.6305313 0.64808685 10.333333
5.3392868 9.3912897 0.57468808 9
5.3990936 -3.6342571 0.96005857 11.666667
5.3359561 9.385829 0.95416903 10
5.4007535 -3.6263216 1.3933448 13.5
5.3372192 9.3884296 1.3366886 11
5.4463181 -3.6296608 1.7658637 15
5.3364949 9.3876333 1.7220961 12
5.3377151 9.390275 2.1125028 13
5.3409853 9.3963757 2.5093992 14
5.3389578 9.393343 2.9104159 15
5.8597651 -15.508169 -0.28902116 7
5.7892437 -3.6201937 -0.11729278 7
5.7896538 -3.1197765 -0.34402922 6
5.7640305 4.3408322 -0.37509879 6
5.992383 9.4009438 -0.18776129 7
5.7929187 -3.6226218 0.24248454 8.5
5.8022738 9.3977594 0.20060849 8
5.7914495 -3.621897 0.60340226 10
5.8046103 9.4018822 0.5880301 9
5.7809834 -3.615525 0.96622312 11.5
5.8039308 9.4012508 0.97672457 10
5.8615189 -3.6081331 1.4740323 13.5
5.8949051 9.3977432 1.3734471 11
5.8666887 -3.6114674 1.8586247 15
5.8006525 9.3986034 1.76164 12
5.8042359 9.4027901 2.161613 13
5.6156697 9.4005623 2.5425565 14
5.8084788 9.4095364 2.9793649 15
6.1644115 -3.6112647 -0.12261903 7
6.0396142 -2.7133663 -0.34620944 6
6.2869425 -2.2963171 -0.34981969 6
6.3124809 3.4576435 -0.3743355 6
6.0632915 3.9145896 -0.37525895 6
6.1627789 -3.610477 0.25341776 8.5
6.2883325 9.408886 0.20569599 8
6.157939 -3.6078653 0.63049197 10
6.2920699 9.414937 0.6028043 9
6.1240454 -3.6080139 0.96423423 11.333333
6.2434745 -3.5985987 1.1502458 12
6.2896066 9.4115763 1.0008906 10
6.042706 -3.6002953 1.3773303 13
6.2446856 -3.5994058 1.4113261 13
6.2946181 9.4194145 1.4028045 11
6.1521454 -3.6050148 1.7907254 14.5
6.1972914 9.4192801 1.7987915 12
6.1859145 9.4045515 2.2021699 13
6.1933422 9.4142752 2.6172028 14
6.2926464 9.4179611 3.05199 15
6.5676851 -3.596781 -0.12840481 7
6.4967532 -1.855042 -0.35296309 6
6.6587162 -1.3917698 -0.3552177 6
6.7920475 -0.91521841 -0.35770813 6
6.7089105 2.5003004 -0.37261209 6
6.5258288 2.9844177 -0.37333101 6
6.46383 -3.6018443 0.39273983 9
6.5670605 -3.5966046 0.13435186 8
6.59763 9.4241867 0.20917854 8
6.5941267 -3.5911248 0.57436287 9.666667
6.5960999 9.4223614 0.6123569 9
6.5209908 -3.5922942 1.0098764 11.333333
6.595026 9.4211845 1.0169353 10
6.5989022 -3.5940075 1.3798363 12.666667
6.5963883 9.4234495 1.4244218 11
6.5176153 -3.5908225 1.8217847 14.333333
6.6036716 9.4340906 1.8372524 12
6.6759143 -3.5953577 2.045399 15
6.500803 9.4309759 2.2411017 13
6.5963736 9.4244738 2.6718268 14
6.5953274 9.4233522 3.0993795 15
7.1130891 -15.390723 -0.29513621 7
6.8904519 -0.42648613 -0.36016396 6
6.9794526 0.47566438 -0.36466697 6
6.9513154 0.98111242 -0.36579567 6
6.9217429 1.4925616 -0.36879447 6
6.8258972 1.9965785 -0.37026793 6
7.0254321 9.4424133 -0.19799475 7
6.9163918 9.4368868 0.21282658 8
6.9159346 9.4365816 0.62299991 9
6.9124303 9.4321756 1.0342095 10
6.9185333 9.4407301 1.4495556 11
6.9161878 9.4379416 1.8669853 12
6.9175692 9.440011 2.2900164 13
6.9169931 9.4396744 2.7183075 14
6.9167094 9.4396172 3.1536446 15
8.3887539 -15.189095 -0.30154923 7
9.6907511 -14.91182 -0.3085306 7
10.575018 -47.48027 0.84800452 8
10.572735 -47.472767 2.5481086 9
10.570979 -47.467655 4.2541094 10
10.565011 -47.443672 5.9678149 11
10.562801 -47.436554 7.697278 12
10.560942 -47.43103 9.4457684 13
11.000445 -14.531187 -0.31561437 7
11.288669 -47.469688 0.85085911 8
11.280805 -47.439293 2.5549817 9
11.280817 -47.441952 4.2661252 10
11.277835 -47.43206 5.9863529 11
11.274614 -47.421185 7.7205076 12
11.270283 -47.405682 9.4722261 13
11.999317 -47.429161 0.85337389 8
11.997002 -47.422508 2.5633337 9
11.996942 -47.424759 4.2798738 10
11.987785 -47.391148 6.0025425 11
11.989559 -47.400658 7.744648 12
11.985323 -47.386497 9.502058 13
12.722685 -47.420994 0.85667092 8
12.719534 -47.411648 2.5726006 9
12.71695 -47.404423 4.294323 10
12.711444 -47.386337 6.0246816 11
12.710099 -47.383743 7.7711554 12
12.705291 -47.368301 9.5342646 13
13.448287 -47.401825 0.85997415 8
13.442874 -47.385063 2.5816159 9
13.438308 -47.371288 4.3086095 10
13.437088 -47.369301 6.0466752 11
13.4352 -47.364979 7.7991681 12
13.433491 -47.361301 9.5709553 13
14.176145 -47.372219 0.86329514 8
14.174131 -47.367699 2.5917451 9
14.168444 -47.350929 4.3250704 10
14.164883 -47.34127 6.0686908 11
14.162626 -47.335976 7.8273273 12
14.162908 -47.339172 9.6068449 13
14.912015 -47.350796 0.86697638 8
14.906072 -47.33408 2.6016068 9
14.911733 -47.354149 4.3447309 10
14.899949 -47.318943 6.0928836 11
14.902056 -47.32777 7.8608017 12
14.896592 -47.312634 9.6441326 13
15.647983 -47.3134 2.6128113 9
15.650518 -47.323112 4.3623133 10
15.635715 -47.282593 7.8900337 12
15.63468 -47.28157 9.6828251 13
16.396179 -47.292149 2.624634 9
16.39971 -47.30431 4.3820987 10
16.388929 -47.275276 6.1458664 11
16.386328 -47.271858 9.7282772 13
16.613522 -33.325241 0.65284282 8
16.568319 -32.077301 0.63321942 8
16.541548 -30.932257 0.61546516 8
16.771851 -30.3113 0.60805798 8
16.401604 -47.305782 0.87495059 8
16.610071 -33.319473 1.9546077 9
16.578136 -32.097355 1.8969136 9
16.551649 -30.952139 1.8433133 9
16.776566 -30.320799 1.8200915 9
16.579165 -32.100437 3.1651356 10
16.540251 -30.9319 3.073245 10
16.766901 -30.304361 3.0347209 10
16.615807 -33.332108 3.2624838 10
16.550152 -30.951418 4.3146348 11
16.760984 -30.294685 4.2564158 11
16.621862 -33.345387 4.5794411 11
16.588686 -32.11993 4.4436331 11
16.556049 -30.963478 5.5669169 12
16.753559 -30.282309 5.4873552 12
16.625792 -33.354427 5.9080191 12
16.58791 -32.119545 5.7311201 12
16.601273 -32.146496 7.0388713 13
16.566179 -30.983452 6.8358226 13
16.62785 -33.359722 7.2512589 13
16.596395 -32.138199 8.3574514 14
16.553804 -30.961433 8.1126509 14
16.636635 -33.378517 8.616745 14
16.564934 -30.983295 9.4218073 15
16.750277 -30.279507 9.2801981 15
16.602919 -32.151966 9.703454 15
17.15839 -47.288609 0.87937218 8
17.153181 -47.278152 4.4023042 10
17.148424 -47.267014 6.1764302 11
17.14118 -47.24905 7.9638395 12
17.141569 -47.252113 9.7741194 13
17.329075 -30.285469 0.61268574 8
17.325661 -30.280493 1.8326311 9
17.324081 -30.278719 3.0569599 10
17.316008 -30.265633 4.2870345 11
17.311689 -30.25909 5.5278287 12
17.317158 -30.269644 6.7857146 13
17.314142 -30.265406 8.0576982 14
17.311756 -30.262283 9.3503456 15
17.921646 -47.268925 0.88397783 8
17.905159 -30.278122 1.8480741 9
17.913036 -47.248119 2.6501985 9
17.896708 -30.264832 3.081398 10
17.898148 -30.26824 4.3235712 11
17.881794 -30.241613 5.5711765 12
17.907921 -47.238441 6.2059231 11
17.892382 -30.260485 6.8407574 13
17.904621 -47.231667 8.0036812 12
17.892784 -30.262175 8.1246042 14
18.486881 -30.262323 0.62315035 8
18.690971 -47.244888 0.88873804 8
18.678776 -47.215946 2.6634405 9
18.482582 -30.257219 3.1075382 10
18.470764 -30.238867 4.3570232 11
18.682562 -47.227333 4.4462523 10
18.674549 -47.208958 6.2369027 11
18.462471 -30.227272 6.892673 13
18.675943 -47.214352 8.0456219 12
18.463243 -30.22953 8.1863756 14
18.465973 -30.23501 9.5022955 15
19.074755 -30.241615 0.62852669 8
19.074333 -30.241896 1.878974 9
19.055597 -30.215101 5.6652102 12
19.061268 -30.225052 6.9540663 13
19.054077 -30.214653 8.2557917 14
19.048302 -30.206514 9.5785122 15
19.466339 -47.215881 0.89364535 8
19.459408 -47.200886 2.6783569 9
19.456028 -47.194492 4.4692769 10
19.452566 -47.187916 6.2706494 11
19.450363 -47.184402 8.0875454 12
19.674894 -30.224163 0.63420153 8
19.668673 -30.215551 1.8949143 9
19.666491 -30.213146 3.1601663 10
19.666927 -30.214756 4.433547 11
19.658012 -30.20204 5.7153049 12
19.665562 -30.214577 7.0161057 13
19.654097 -30.197966 8.3276834 14
19.651255 -30.194599 9.6634121 15
20.216021 23.316397 -0.5183174 7
20.291796 -9.078126 -0.3795788 7
20.28162 -30.200411 0.63998282 8
20.363232 24.892056 0.58366483 8
20.08852 25.287632 0.58598459 8
20.252937 -47.193478 0.89892477 8
20.278101 -30.196108 1.9119859 9
20.37244 24.904036 1.7099075 9
20.088335 25.288195 1.7161589 9
20.249126 -47.186367 2.6940389 9
20.277857 -30.196671 3.1887906 10
20.373163 24.905685 2.8402102 10
20.088671 25.289417 2.8506262 10
20.382227 24.917494 3.9792376 11
20.103016 25.308224 3.994957 11
20.247869 -47.185181 4.4957428 10
20.275312 -30.193829 4.472949 11
20.382666 24.918808 5.1270123 12
20.105721 25.312431 5.1478844 12
20.275181 -30.194571 5.768599 12
20.241043 -47.171074 6.3066549 11
20.386124 24.923798 6.2886262 13
20.101883 25.308435 6.311995 13
20.264477 -30.179607 7.0750279 13
20.399906 24.941393 7.4703736 14
20.111288 25.321074 7.4966097 14
20.233135 -47.154457 8.1316366 12
20.260014 -30.173939 8.4006186 14
20.399179 24.941317 8.6668186 15
20.116955 25.329029 8.700036 15
20.648243 24.514517 0.58182895 8
20.643362 24.509466 1.7031289 9
20.646889 24.514372 2.8292515 10
20.658464 24.528805 3.9642906 11
20.668694 24.541651 5.1101251 12
20.665092 24.538137 6.2657337 13
20.675505 24.55122 7.4418731 14
20.674393 24.550678 8.6335716 15
20.921753 24.128319 0.57985133 8
21.046144 -47.165504 0.90435135 8
20.927294 24.135378 1.6979694 9
21.04863 -47.172771 2.7105274 9
20.938099 24.148499 2.8215744 10
20.930178 24.140097 3.9497879 11
21.046534 -47.169796 4.5228844 10
20.947004 24.160147 5.0929608 12
21.03171 -47.138355 6.3422756 11
20.951048 24.165503 6.246943 13
20.96014 24.176689 7.4190121 14
21.036184 -47.15012 8.1824007 12
20.961617 24.179121 8.6080885 15
21.533255 -7.833796 -0.39046368 7
21.474154 23.375679 0.57656705 8
21.207237 23.7603 0.57837749 8
21.482965 23.38588 1.6881957 9
21.200268 23.753181 1.6924454 9
21.490765 23.394972 2.8047633 10
21.220903 23.776894 2.8136027 10
21.495045 23.400257 3.9284265 11
21.209421 23.764734 3.9379423 11
21.499905 23.406178 5.0624337 12
21.220295 23.777554 5.0761795 12
21.504131 23.411413 6.209466 13
21.221876 23.780001 6.2255955 13
21.501492 23.40921 7.3703613 14
21.228449 23.788036 7.3927174 14
21.514624 23.424131 8.5561991 15
21.234207 23.795172 8.5792704 15
21.867336 21.839191 -0.51866603 7
21.801722 -6.2025166 -0.38550371 7
21.86499 -7.9545693 0.41729027 8
21.838631 -7.417428 0.41392076 8
21.821554 -6.8910551 0.41093487 8
21.804684 -6.5432143 0.40897638 8
21.79394 -6.2005591 0.40723079 8
21.750822 23.005596 0.57518268 8
21.857777 -47.156925 0.91041249 8
21.85437 -7.9510007 1.2314786 9
21.838999 -7.4177551 1.2216684 9
21.824387 -6.8922172 1.2125231 9
21.815052 -6.5465813 1.2068509 9
21.806515 -6.2043853 1.2015167 9
21.801889 -6.2033257 1.9980878 10
21.851408 -7.9502144 2.0486104 10
21.842405 -7.419157 2.0327184 10
21.826906 -6.8932791 2.0172603 10
21.830051 -6.5513363 2.0088649 10
21.854454 -47.151443 2.7273445 9
21.752958 23.00906 2.7957759 10
21.856176 -7.9522352 2.8715742 11
21.858 -7.424695 2.8506086 11
21.842749 -6.8985438 2.8288689 11
21.817144 -6.5477324 2.8133328 11
21.823267 -6.2096577 2.8025682 11
21.872526 -7.7817488 3.6946795 12
21.843554 -7.245337 3.6628783 12
21.821428 -6.8920946 3.6424751 12
21.822062 -6.5494728 3.6267722 12
21.81016 -6.2061915 3.6098719 12
21.761036 23.018183 3.9164698 11
21.84549 -47.133816 4.5493264 10
21.867134 -7.6033721 4.5195413 13
21.860229 -7.2511415 4.4964361 13
21.84194 -6.8988385 4.4721394 13
21.833143 -6.5530615 4.4509053 13
21.819872 -6.2092137 4.4298544 13
21.861805 -7.6018162 5.3647518 14
21.851927 -7.2486782 5.3365698 14
21.846415 -6.9005294 5.3108015 14
21.83308 -6.5533152 5.2844601 14
21.821346 -6.2098989 5.2598071 14
21.842112 -47.128235 6.3827295 11
21.867765 -7.9576411 6.258069 15
21.853308 -7.2494254 6.1925154 15
21.839512 -6.8986349 6.1602578 15
21.827477 -6.5519128 6.1300411 15
21.830395 -6.2127395 6.1055059 15
21.780956 23.040424 6.193542 13
21.778976 23.038967 7.3516698 14
21.833366 -47.111103 8.229455 12
21.784496 23.045433 8.5314436 15
22.288391 22.258957 0.57246596 8
22.019594 22.630632 0.57374692 8
22.299503 22.270571 1.675819 9
22.034195 22.64617 1.6800057 9
22.301369 22.272974 2.7832446 10
22.306604 22.278744 3.8983111 11
22.310944 22.283617 5.0233784 12
22.043213 22.657154 5.0355835 12
22.320831 22.294031 6.1630039 13
22.330072 22.303806 7.3190618 14
22.3286 22.302923 8.4908581 15
22.058285 22.674406 8.5106497 15
22.697433 -6.1065884 0.4225547 8
22.659842 -47.106438 0.91593182 8
22.69529 -6.1062703 1.2456055 9
22.565023 21.898251 1.6721013 9
22.680861 -6.102653 2.0704322 10
22.657877 -47.104004 2.7434325 9
22.566959 21.900646 2.7770233 10
22.673962 -6.101059 2.9002612 11
22.677197 -6.1021924 3.7384372 12
22.577368 21.911249 3.8904417 11
22.662485 -47.115223 4.5787559 10
22.656824 -6.0969825 4.5814404 13
22.582874 21.917105 5.0134597 12
22.655188 -6.0968118 5.4390059 14
22.642609 -6.0937047 6.3073859 15
22.590225 21.924755 6.1500926 13
22.654957 -47.101254 6.4227481 11
22.593424 21.9284 7.3017259 14
22.650339 -47.093349 8.2825832 12
23.089071 21.154436 0.56935012 8
22.830824 21.528381 0.57046336 8
23.097855 21.162941 1.6660883 9
22.832355 21.530317 1.6689519 9
23.112295 21.176609 2.7684317 10
22.839106 21.537167 2.7723246 10
23.112677 21.177435 3.8766265 11
22.840208 21.538702 3.8822291 11
23.119942 21.184555 4.9959626 12
22.847435 21.546001 5.0032144 12
23.126801 21.191309 6.1284127 13
22.855045 21.553673 6.1375508 13
23.122395 21.187782 7.2735438 14
22.869875 21.568138 7.2905035 14
22.997993 21.380047 8.4490528 15
23.350019 20.192539 -0.51779926 7
23.355625 20.790241 0.56857866 8
23.364798 20.79883 1.6637346 9
23.365263 20.799698 2.7628124 10
23.37326 20.807249 3.8699877 11
23.38731 20.820646 6.1178155 13
23.397341 20.830023 7.2654366 14
23.403057 20.835581 8.4311895 15
23.77796 -4.953814 -0.41226849 7
23.889933 20.067375 0.56745148 8
23.630159 20.43453 0.56812894 8
23.900015 20.076227 1.6602844 9
23.917862 20.091583 2.7590096 10
23.64576 20.448845 2.7610953 10
23.915041 20.089636 3.8628433 11
23.642406 20.446384 3.8656929 11
23.916935 20.091633 4.9769778 12
23.662941 20.464529 4.9845853 12
23.668043 20.469374 6.1139312 13
23.928507 20.102177 7.2485356 14
23.666304 20.468323 7.2571735 14
23.93442 20.107567 8.4115715 15
23.668858 20.470982 8.4204397 15
24.15291 19.704182 0.56697565 8
24.166834 19.715899 1.6590633 9
24.161533 19.711975 2.7542965 10
24.179153 19.727095 4.9722419 12
24.188044 19.734728 6.0996871 13
24.772833 -3.3304708 -0.42348909 7
24.644268 18.397263 -0.51570153 7
24.694954 18.992657 0.56675303 8
24.693972 18.992254 1.6572573 9
24.426287 19.3505 1.6577036 9
24.433865 19.356855 2.7534668 10
24.700531 18.997986 3.8542449 11
24.449966 19.369951 3.8580344 11
24.708849 19.004719 4.967134 12
24.449333 19.36982 4.9702325 12
24.715248 19.009985 6.0927396 13
24.451136 19.371624 6.0954242 13
24.723883 19.016975 7.2350249 14
24.452007 19.372696 7.2359571 14
24.722309 19.016136 8.3932619 15
24.461397 19.380505 8.3981009 15
24.947662 18.623466 0.56639594 8
24.957876 18.631395 1.6569021 9
24.96274 18.635349 2.7517779 10
24.966337 18.638361 3.8536615 11
24.968082 18.639996 4.9650517 12
24.975977 18.646212 6.0905237 13
24.994169 18.660103 7.2351174 14
24.991047 18.658127 8.392848 15
25.480602 17.906029 0.56664264 8
25.212645 18.263771 0.5664314 8
25.484945 17.909367 1.6571544 9
25.219202 18.26882 1.6567172 9
25.490925 17.913851 2.7522781 10
25.218302 18.26848 2.7508221 10
25.491899 17.914829 3.8539369 11
25.238621 18.283478 3.8548555 11
25.492037 17.915226 4.9650707 12
25.23844 18.283657 4.9661975 12
25.247927 18.290838 6.0922861 13
25.523363 17.937794 7.2364435 14
25.263874 18.302685 7.236505 14
25.526577 17.940361 8.3964748 15
25.244934 18.289331 8.3892193 15
25.643736 -1.5888805 -0.43454045 7
25.697618 16.454048 -0.51165807 7
25.741825 17.543217 0.56681168 8
25.753124 17.551178 1.6580707 9
25.752377 17.550947 2.7530682 10
25.760925 17.557039 3.8561659 11
25.764711 17.559895 4.9686403 12
25.772144 17.565231 6.0947371 13
25.772926 17.566053 7.2350669 14
26.002514 17.179655 0.56707573 8
26.138695 17.00157 1.6590137 9
26.148521 17.008234 2.7557423 10
26.024891 17.195187 3.8583817 11
26.290577 16.833961 4.9748907 12
26.293692 16.836203 6.1013641 13
26.031464 17.200047 6.0971184 13
26.304588 16.843414 7.2457013 14
26.304766 16.84379 8.4062042 15
26.060448 17.2197 8.4061613 15
26.539808 14.422269 -0.50658202 7
26.531301 16.45513 0.56807661 8
26.546535 16.465014 2.7596517 10
26.554193 16.469982 3.8652155 11
26.564526 16.476603 4.9814963 12
26.568317 16.479187 6.1096125 13
26.569296 16.48003 7.2527633 14
26.572737 16.482401 8.4154234 15
26.880045 1.8112532 -0.45435357 7
27.15333 12.322914 -0.50031006 7
27.07091 15.73237 0.5697068 8
26.801256 16.094597 0.56884611 8
27.061825 15.727301 1.6652952 9
26.817976 16.104826 1.6643431 9
26.806803 16.098347 2.7624152 10
27.076811 15.736386 3.8739543 11
26.825157 16.109556 3.8706176 11
27.085102 15.741394 4.9923501 12
26.824274 16.10924 4.986361 12
26.835827 16.116383 6.1173353 13
27.112312 15.757579 7.2745485 14
26.831053 16.113745 7.260375 14
27.116903 15.76045 8.4410343 15
26.851503 16.126225 8.4295712 15
27.328308 3.8242726 -0.46473318 7
