# .PCD v0.7 - Point Cloud Data file format
VERSION 0.7
FIELDS x y z intensity
SIZE 4 4 4 4
TYPE F F F F
COUNT 1 1 1 1
WIDTH 184
HEIGHT 1
VIEWPOINT 0 0 0 1 0 0 0
POINTS 184
DATA ascii
-47.323444 0.00012758262 0.82597005 8
-47.309444 0.0001297311 2.4793165 9
-47.281448 -0.67741323 4.1368008 10
-46.925579 -13.822044 0.85105604 8
-46.927986 -13.095388 2.5505228 9
-46.780422 -19.049034 0.87776065 8
-39.201553 -5.6536117 3.4638426 10
-39.173481 -6.8000374 0.69260603 8
-39.180496 -6.8012586 2.0825748 9
-22.61092 9.5907526 0.43019417 8
-22.623627 9.5961895 1.2896044 9
-18.613998 -48.28653 2.704365 9
-18.600677 -48.2491 8.1816082 12
-16.401085 1.8878381 0.2885043 8
-16.444338 3.5891984 0.29441628 8
-16.408686 1.8887193 0.86601758 9
-16.449589 3.5903571 0.88312429 9
-16.41243 1.889156 1.4458447 10
-16.4466 3.5897183 1.4736309 10
-16.239578 -48.195812 6.2367482 11
-15.616397 -25.227367 4.6935625 12
-15.610338 -25.216757 7.9400077 15
-15.470722 -48.183926 4.4200029 10
-13.953999 -48.156479 2.6205218 9
-12.461194 -48.119125 0.86095631 8
-12.453042 -48.079876 9.6465712 13
-11.714372 -48.05344 7.8265848 12
-10.840452 -2.8572958 1.3754611 11
-10.262305 -48.03809 4.29105 10
-10.260008 -48.025383 6.0231171 11
-9.5461073 -48.044247 2.5608144 9
-8.140254 -2.7810946 1.361146 12
-5.4970407 -3.0076246 1.2161053 13
-5.3993382 9.0454302 1.294993 11
-4.6085682 -47.904663 0.83481312 8
-4.6253343 -2.7938063 1.2453438 14
-4.608964 -47.904087 2.51688 9
-4.6087027 -47.896626 4.2044592 10
-4.6077876 -47.882317 5.9010043 11
-4.6069942 -47.86924 7.6113367 12
-4.6083603 -47.87867 9.3441525 13
-4.4110498 9.0857706 0.17663319 8
-4.4141054 9.0922146 0.53034443 9
-4.575974 9.0909986 0.89144921 10
-4.4415574 3.5502789 1.3151615 14
-4.4768085 5.0608306 1.3156412 13
-4.5068059 6.86584 1.3026439 12
-4.4119749 9.088192 1.2417296 11
-4.4331174 3.4404309 1.5063255 15
-4.4166999 9.0982428 1.9678408 13
-4.4191294 9.1035938 2.7141395 15
-4.2318597 -4.6189837 0.99007553 12
-4.2517734 -3.7975953 1.1058509 13
-4.2618318 -3.1008871 1.214437 14
-4.3621831 -2.4672585 1.3405262 15
-4.3958702 2.251298 1.3255183 15
-4.2708144 -3.1074307 1.4125526 15
-3.7942297 9.1146936 2.2813776 14
-3.1915402 9.109889 2.5885117 15
-1.1193688 9.1650429 1.7949662 13
-0.19343172 9.1769056 0.48021266 9
1.5150921 -24.770187 1.2990464 9
1.512892 -24.739183 2.167027 10
1.513278 -24.749765 3.0432594 11
1.5123955 -24.739996 3.9245472 12
1.5120252 -24.738506 4.816556 13
1.6664298 9.2580385 2.1781907 14
1.8701596 -24.750259 0.43170321 8
1.8050822 9.2633419 2.5359967 15
2.5153968 9.2866421 1.5312039 12
2.6568921 9.2751513 0.51155084 9
2.9554899 9.2998219 1.9055761 13
2.9363916 -24.704914 5.743525 14
3.5645399 9.3188181 2.3142028 14
3.8798234 9.3258734 1.2490034 11
3.8809299 9.3290749 1.6099715 12
4.2032342 9.3329782 0.18528493 8
4.779551 -3.6547408 -0.10363932 7
4.7701373 -3.6477003 0.10737038 8
4.7731271 -3.650075 0.31864065 9
4.7654257 -3.644336 0.5297789 10
4.7092338 9.3536339 0.55676866 9
4.7793379 -3.6552179 1.1781243 13
4.7315097 -4.3110781 1.2519991 13
4.7758775 -3.6527016 1.3979303 14
4.7529955 -4.8567572 1.5771796 14
4.7418575 -4.446631 1.7517323 15
4.7611551 -3.6416376 1.6172203 15
4.7079039 9.3529625 2.0472655 13
4.9129524 -3.6459448 0.75745511 11
4.9184427 -3.6500971 0.97757953 12
5.1045737 -24.637297 0.43865749 8
5.1074066 -24.652391 1.3191624 9
5.1046457 -24.640633 2.20157 10
5.1033278 -24.635813 3.089407 11
5.108139 -24.660431 3.989301 12
5.1025629 -24.635204 4.891067 13
5.6847887 -3.6135657 1.3190312 13
5.6069064 9.3848429 1.3532662 11
5.6946435 -3.6199026 1.5688943 14
5.6106486 9.3914347 1.7448028 12
5.6846967 -3.6137345 1.8173659 15
5.7974854 9.394331 2.5634069 14
5.798389 9.3961849 2.9745822 15
7.2471895 9.4526749 0.21673474 8
7.2503638 9.4570866 0.63462573 9
7.2349992 9.4375401 1.0517782 10
7.2406044 9.4450941 1.4739951 11
7.2347651 9.4378614 1.8975538 12
7.2411356 9.4464102 2.3290827 13
7.2403903 9.4457693 2.7645888 14
7.2393422 9.4447393 3.206996 15
15.651745 -47.322708 0.87075073 8
15.639858 -47.293015 6.1180897 11
16.382654 -47.259232 7.9248328 12
16.755564 -30.286955 6.7347655 13
16.755844 -30.288498 7.9987664 14
17.149982 -47.267418 2.6369255 9
17.898745 -30.266327 0.61765492 8
17.914356 -47.253479 4.4237728 10
17.877857 -30.238003 9.4213924 15
18.475046 -30.243942 1.8622075 9
18.466177 -30.232344 5.6179452 12
19.067961 -30.232754 3.1330404 10
19.058413 -30.218597 4.3932939 11
21.756763 23.012463 1.6837274 9
21.771185 23.029505 5.0482039 12
21.868526 -7.9573112 4.5426664 13
21.878569 -7.9612603 5.3960147 14
21.875229 -7.6067743 6.2286658 15
22.01791 22.63006 2.7879665 10
22.031305 22.644369 3.906414 11
22.04365 22.658192 6.1753931 13
22.043447 22.658587 7.3307037 14
22.553358 21.88644 0.57123625 8
22.596348 21.931784 8.4723778 15
23.377998 20.811914 4.9868326 12
23.626865 20.432119 1.6614317 9
23.916744 20.091898 6.1032243 13
24.16383 19.714235 3.8570445 11
24.186628 19.733978 7.2403488 14
24.187712 19.735273 8.4003668 15
24.416294 19.342237 0.56663042 8
24.688251 18.988216 2.7512162 10
25.506853 17.925915 6.092144 13
25.772591 17.56612 8.3937073 15
26.013416 17.187883 4.9685755 12
26.044926 17.209194 7.2414055 14
26.26597 16.817265 0.567505 8
26.278978 16.826309 3.8598883 11
26.529818 16.454437 1.6609462 9
27.06654 15.73023 2.7656343 10
27.083355 15.740585 6.1216588 13
27.639427 15.019538 7.2972884 14
27.639303 15.019649 8.4659548 15
28.158133 14.269804 5.0306349 12
28.677397 13.51235 0.57663763 8
28.70492 13.525867 6.2011013 13
28.959623 13.140861 1.6917787 9
29.24262 12.766533 3.9467888 11
29.27289 12.780086 8.5961971 15
29.551495 12.399663 7.4341283 14
29.795439 12.001749 2.8373852 10
30.667494 10.84348 5.183147 12
30.924017 10.437256 0.59311295 8
30.965294 10.451265 8.7948837 15
31.262154 10.053944 7.6171288 14
31.515661 9.6386089 4.0757775 11
31.551184 9.6494312 6.4467731 13
31.806993 9.2306643 1.7610322 9
32.71283 7.9844165 0.61127144 8
32.733562 7.9893599 2.9751902 10
32.778801 8.0000982 9.0789661 15
33.077568 7.5717559 7.8698668 14
33.380165 7.1385226 6.6687188 13
33.671913 6.6972518 4.244719 11
33.691097 6.7009697 5.4720912 12
34.314651 5.8069873 1.8493755 9
34.972321 4.8907022 0.64000183 8
34.989025 4.892766 3.1183326 10
35.36739 4.4287982 6.9620385 13
35.361992 4.4279728 8.2635612 14
36.048168 3.4670994 4.476017 11
36.044636 3.466589 5.7667341 12
