# .PCD v0.7 - Point Cloud Data file format
VERSION 0.7
FIELDS x y z intensity
SIZE 4 4 4 4
TYPE F F F F
COUNT 1 1 1 1
WIDTH 1334
HEIGHT 1
VIEWPOINT 0 0 0 1 0 0 0
POINTS 1334
DATA ascii
-1.4501357 -2.8637047 -0.31102791 0
-1.3505621 -2.8155892 -0.31290412 0
-1.2476221 -2.859019 -0.31269386 0
-1.1386728 -2.8273854 -0.31516558 0
-1.0556706 -2.8543615 -0.31503335 0
-0.94058877 -2.8521967 -0.31606007 0
-0.86863631 -2.838372 -0.31690267 0
-0.74649733 -2.875042 -0.31815842 0
-0.5663569 -2.8406498 -0.32059765 0
-0.44646999 -2.8789001 -0.32260558 0
-2.2017813 -2.7037847 -0.30506152 0
-2.1299853 -2.7334645 -0.30356938 0
-2.0682468 -2.7750764 -0.3043707 0
-1.9531469 -2.7415209 -0.30605912 0
-1.8522711 -2.7496529 -0.30741104 0
-1.7483888 -2.7778308 -0.30837455 0
-1.6430669 -2.7393467 -0.30972806 0
-1.5297245 -2.7240953 -0.31139186 0
-1.4474746 -2.7598479 -0.3113108 0
-1.3291562 -2.7207916 -0.31290337 0
-1.2520956 -2.7607229 -0.31360045 0
-1.1478512 -2.7365849 -0.31438157 0
-1.0454195 -2.765842 -0.31583112 0
-0.94726914 -2.76177 -0.31564724 0
-0.86101568 -2.7432222 -0.31769663 0
-0.72939825 -2.7544947 -0.31881106 0
-0.67333651 -2.7546821 -0.31915417 0
-0.54859436 -2.751559 -0.32112822 0
-0.43254161 -2.789088 -0.32314754 0
-2.2339296 -2.6387386 -0.30354616 0
-2.1521554 -2.6428442 -0.30573505 0
-2.0373435 -2.6534076 -0.30517837 0
-1.936156 -2.6371126 -0.30658835 0
-1.8537145 -2.6417966 -0.3070128 0
-1.7590623 -2.6660423 -0.30882177 0
-1.6520483 -2.6247663 -0.30982864 0
-1.5583034 -2.6548593 -0.31126782 0
-1.4452043 -2.662137 -0.31210193 0
-1.3532084 -2.6412599 -0.3129296 0
-1.2515606 -2.6576555 -0.31385663 0
-1.1219244 -2.6218333 -0.31485933 0
-1.0508696 -2.6641717 -0.31631416 0
-0.95837331 -2.6493125 -0.31661329 0
-0.85140747 -2.6463745 -0.3178218 0
-0.73869288 -2.686245 -0.31864879 0
-0.65971804 -2.6176081 -0.319848 0
-0.53083181 -2.6624684 -0.32165882 0
-0.40932766 -2.6394012 -0.32405084 0
-0.32772136 -2.6032004 -0.32215527 0
-0.25463426 -2.6269658 -0.32408419 0
-0.14234762 -2.6505177 -0.32593337 0
-0.047266312 -2.6428289 -0.32455832 0
0.04756343 -2.6572096 -0.32633832 0
0.1434201 -2.6699858 -0.32831353 0
0.23984008 -2.6729732 -0.32982579 0
0.35500059 -2.6651692 -0.33035332 0
0.44486964 -2.6586854 -0.33130336 0
0.54757571 -2.647259 -0.33255792 0
0.65448987 -2.6284931 -0.33337891 0
0.75077295 -2.6196702 -0.3348296 0
-2.3401451 -2.5448155 -0.30314988 0
-2.2515278 -2.5590341 -0.30370119 0
-2.1651158 -2.5452256 -0.30429018 0
-2.0499678 -2.5545073 -0.30619502 0
-1.96152 -2.5172739 -0.30685902 0
-1.8604666 -2.5464838 -0.30787957 0
-1.7444072 -2.5634067 -0.30910158 0
-1.6417204 -2.5273354 -0.31061488 0
-1.565551 -2.5680943 -0.31042075 0
-1.4573505 -2.5523233 -0.31319422 0
-1.3615339 -2.5508161 -0.3133024 0
-1.2501985 -2.5592909 -0.31443951 0
-1.1480581 -2.5313323 -0.31498185 0
-1.0517228 -2.5586786 -0.31613868 0
-0.96565264 -2.5538983 -0.31757545 0
-0.8575961 -2.5403681 -0.31756762 0
-0.75188935 -2.5886893 -0.31921947 0
-0.65519816 -2.523416 -0.32013166 0
-0.53866982 -2.5497072 -0.32145369 0
-0.45143604 -2.5482478 -0.32175776 0
-0.35914564 -2.5572329 -0.32282913 0
-0.24788181 -2.5573902 -0.32429993 0
-0.13843459 -2.5770314 -0.32614052 0
-0.051814724 -2.5593839 -0.32519576 0
0.045637354 -2.5512798 -0.32699391 0
0.14850953 -2.5573936 -0.32875162 0
0.24710521 -2.5498164 -0.33006915 0
0.34350833 -2.5789804 -0.33013225 0
0.45537758 -2.5703907 -0.33140641 0
0.54740524 -2.5542488 -0.33296925 0
0.64020258 -2.5400083 -0.33344519 0
0.75468135 -2.5305903 -0.33506143 0
0.853971 -2.5696511 -0.33474395 0
0.94722033 -2.5610976 -0.33573228 0
1.0455514 -2.5433254 -0.33926484 0
1.1409316 -2.5155556 -0.3391636 0
-2.4402537 -2.4490776 -0.30292153 0
-2.3417218 -2.4414055 -0.30419722 0
-2.2340541 -2.4434094 -0.30429021 0
-2.1442821 -2.4486704 -0.30488735 0
-2.0456088 -2.4634712 -0.30639696 0
-1.9216058 -2.4299452 -0.30762345 0
-1.866596 -2.4673328 -0.30788347 0
-1.7435501 -2.4473169 -0.30937469 0
-1.6504922 -2.4500906 -0.310904 0
-1.5557078 -2.4717019 -0.31128269 0
-1.4673311 -2.4463367 -0.31204638 0
-1.3537183 -2.4514842 -0.31401995 0
-1.2458476 -2.4602559 -0.31487635 0
-1.1391376 -2.4190037 -0.31657079 0
-1.0506315 -2.4556417 -0.31624618 0
-0.93907768 -2.4316981 -0.31840631 0
-0.8385542 -2.4374871 -0.31767383 0
-0.75916553 -2.4647522 -0.31938949 0
-0.64213532 -2.4733121 -0.32048917 0
-0.55866283 -2.4360998 -0.3212935 0
-0.46056974 -2.4455628 -0.32223678 0
-0.34543288 -2.4597208 -0.32359585 0
-0.23965091 -2.4724588 -0.32456359 0
-0.14911282 -2.4488249 -0.32646221 0
-0.061241936 -2.4442456 -0.32620946 0
0.04335076 -2.4235597 -0.32780969 0
0.1574958 -2.4391527 -0.32903856 0
0.26279503 -2.4369648 -0.33015722 0
0.35351235 -2.4414144 -0.33057022 0
0.43683651 -2.465776 -0.33158153 0
0.547019 -2.466203 -0.33271673 0
0.65695333 -2.457341 -0.33429405 0
0.76453352 -2.435796 -0.3352854 0
0.87720156 -2.480303 -0.33508778 0
0.95247692 -2.4663627 -0.33752197 0
1.0434965 -2.4385595 -0.33903697 0
1.1513073 -2.4720423 -0.33927336 0
1.2558969 -2.4539533 -0.34008723 0
1.338267 -2.4235137 -0.34091383 0
1.4177382 -2.4023576 -0.34250686 0
-2.5298216 -2.352246 -0.30225921 0
-2.4616554 -2.3555551 -0.30350757 0
-2.3557408 -2.3415756 -0.30407354 0
-2.2534039 -2.36078 -0.30530661 0
-2.1426253 -2.3433962 -0.30602202 0
-2.0373244 -2.3379822 -0.30599713 0
-1.9645232 -2.3775673 -0.30764461 0
-1.8656639 -2.3593032 -0.30908743 0
-1.7535399 -2.3527794 -0.30957067 0
-1.6462066 -2.3460696 -0.31025326 0
-1.5600489 -2.3644094 -0.3120977 0
-1.4414133 -2.3268149 -0.31251499 0
-1.3427533 -2.3383639 -0.31527081 0
-1.2375026 -2.3595076 -0.31526777 0
-1.1264075 -2.3394542 -0.31646216 0
-1.0418763 -2.3417132 -0.31642449 0
-0.96702445 -2.3617194 -0.31722832 0
-0.84923768 -2.3650656 -0.31833157 0
-0.75286579 -2.3398521 -0.31981614 0
-0.65327972 -2.3757851 -0.32032451 0
-0.54970586 -2.3360448 -0.32158899 0
-0.44976443 -2.3435035 -0.32270104 0
-0.34968507 -2.3676085 -0.3235811 0
-0.25361258 -2.3389623 -0.32543093 0
-0.15976764 -2.3420343 -0.32588193 0
-0.058305439 -2.3271616 -0.32683238 0
0.041826367 -2.3384128 -0.32835355 0
0.14209408 -2.3339796 -0.32920924 0
0.24287486 -2.3325729 -0.33036029 0
0.34310076 -2.3216922 -0.33078429 0
0.45705262 -2.344203 -0.33205914 0
0.53397101 -2.3536751 -0.33269987 0
0.63479 -2.3744249 -0.33442071 0
0.73885125 -2.3539727 -0.33551976 0
0.84232533 -2.349844 -0.33540717 0
0.93846065 -2.3792536 -0.3378543 0
1.0447522 -2.3481579 -0.33904001 0
1.1461768 -2.3461728 -0.33908117 0
1.2537702 -2.3494098 -0.34064114 0
1.348011 -2.3350182 -0.34135851 0
1.4460866 -2.3568296 -0.34138176 0
1.5457207 -2.3207283 -0.34373546 0
-2.6288002 -2.2201204 -0.30174369 0
-2.5766563 -2.2726777 -0.3012681 0
-2.4556186 -2.2397168 -0.30311874 0
-2.3475995 -2.2569776 -0.30468649 0
-2.2373993 -2.245456 -0.30565479 0
-2.1287756 -2.2302155 -0.30699959 0
-2.0515645 -2.2438188 -0.30716234 0
-1.9500442 -2.2593186 -0.30729431 0
-1.8362306 -2.255055 -0.30934551 0
-1.7400565 -2.2330685 -0.31118369 0
-1.6473564 -2.254775 -0.31114104 0
-1.54119 -2.2647941 -0.31250557 0
-1.4447966 -2.224174 -0.31377506 0
-1.3771708 -2.2590699 -0.31308854 0
-1.2442387 -2.2492323 -0.31644553 0
-1.1592489 -2.2628376 -0.31619629 0
-1.0531323 -2.236347 -0.31738943 0
-0.94866556 -2.2616584 -0.31834456 0
-0.85170341 -2.2532606 -0.31933382 0
-0.75901127 -2.2480056 -0.31964901 0
-0.64919788 -2.2646511 -0.32086471 0
-0.54587752 -2.2330449 -0.32214114 0
-0.45013484 -2.2578356 -0.32306775 0
-0.34995121 -2.2567825 -0.32395688 0
-0.24739909 -2.2208693 -0.32600796 0
-0.16113222 -2.2461698 -0.325701 0
-0.056171373 -2.2420118 -0.32730553 0
0.040301971 -2.2532656 -0.32889745 0
0.1368894 -2.2485483 -0.32937428 0
0.24990916 -2.2442806 -0.33026767 0
0.36341825 -2.237375 -0.33172855 0
0.4594771 -2.2214916 -0.3322244 0
0.55066353 -2.252564 -0.33325154 0
0.64427692 -2.2545891 -0.33560771 0
0.7440055 -2.257045 -0.33522809 0
0.84261817 -2.2291448 -0.33667466 0
0.93591833 -2.2584667 -0.33868164 0
1.0402788 -2.2506752 -0.33872572 0
1.1422602 -2.2421343 -0.34010234 0
1.2458167 -2.2561853 -0.34045151 0
1.3508122 -2.2514663 -0.34098023 0
1.4596595 -2.2469709 -0.34297636 0
1.5517702 -2.2454782 -0.34488255 0
1.6499635 -2.2471747 -0.34467411 0
1.7286441 -2.2183716 -0.34531417 0
-2.7224419 -2.105829 -0.30112082 0
-2.6575499 -2.1800096 -0.30108136 0
-2.5511365 -2.1544526 -0.30221868 0
-2.436245 -2.1488507 -0.30313444 0
-2.348352 -2.1318352 -0.3047941 0
-2.2444451 -2.1473286 -0.30618215 0
-2.1447268 -2.1524231 -0.30717432 0
-2.0664613 -2.1649337 -0.3078461 0
-1.960049 -2.1437101 -0.30874568 0
-1.8450649 -2.1376994 -0.30836797 0
-1.7527814 -2.1524134 -0.31115544 0
-1.6530852 -2.1529288 -0.31219655 0
-1.5468158 -2.1387289 -0.31221476 0
-1.4400494 -2.1421485 -0.31454498 0
-1.3499398 -2.1563699 -0.31417647 0
-1.2596415 -2.1458948 -0.31534871 0
-1.1485382 -2.1523757 -0.3170217 0
-1.0379909 -2.1248012 -0.3181451 0
-0.94665951 -2.1692383 -0.31819889 0
-0.86080956 -2.1374424 -0.31961572 0
-0.76264024 -2.1566408 -0.32021901 0
-0.65375501 -2.1578715 -0.32098466 0
-0.55681926 -2.1447599 -0.32289502 0
-0.44824582 -2.1676981 -0.32294217 0
-0.34861004 -2.1482289 -0.32406628 0
-0.25263694 -2.1301351 -0.32585299 0
-0.14583391 -2.1433659 -0.32649586 0
-0.054037306 -2.156862 -0.3277787 0
0.038777575 -2.1681187 -0.32944128 0
0.14741588 -2.1647654 -0.32991475 0
0.25570226 -2.1556644 -0.33021319 0
0.34966567 -2.1526988 -0.3317931 0
0.44206867 -2.1373303 -0.33215976 0
0.54827857 -2.1420066 -0.33328754 0
0.64622444 -2.1381404 -0.33644405 0
0.74769229 -2.1633489 -0.33521774 0
0.8434763 -2.1384704 -0.33721372 0
0.9403739 -2.1406987 -0.33867455 0
1.0362797 -2.1603043 -0.33886337 0
1.1422541 -2.1404452 -0.34012181 0
1.251754 -2.1561642 -0.3407664 0
1.3540795 -2.1518056 -0.34156245 0
1.4459373 -2.1576617 -0.34365073 0
1.5482216 -2.151186 -0.34400892 0
1.6415107 -2.1378636 -0.34517199 0
1.7452393 -2.1747975 -0.34596395 0
1.8399708 -2.137912 -0.3474336 0
-2.7552998 -2.0482991 -0.30117729 0
-2.6399438 -2.0418828 -0.30116907 0
-2.5243011 -2.0407283 -0.30220455 0
-2.449317 -2.0487864 -0.30408674 0
-2.3437767 -2.0375862 -0.30391288 0
-2.2560554 -2.0576894 -0.30629635 0
-2.1524062 -2.0693207 -0.30713135 0
-2.0463629 -2.0537319 -0.30824116 0
-1.941833 -2.0343692 -0.30953911 0
-1.848906 -2.0414212 -0.31017542 0
-1.755228 -2.0633914 -0.30906758 0
-1.6652502 -2.0450974 -0.3119075 0
-1.5482562 -2.0248344 -0.31343642 0
-1.4648001 -2.0693803 -0.31378046 0
-1.3392949 -2.0298319 -0.31539193 0
-1.2468631 -2.0452836 -0.31539005 0
-1.1497422 -2.047384 -0.31685868 0
-1.046479 -2.0479884 -0.31869835 0
-0.93392527 -2.0592265 -0.31920707 0
-0.85032058 -2.0271952 -0.32014966 0
-0.74855989 -2.0696695 -0.32062274 0
-0.65488553 -2.0353179 -0.32134762 0
-0.54952168 -2.0561941 -0.32309002 0
-0.43896452 -2.0484014 -0.32354549 0
-0.34469703 -2.0303767 -0.32425335 0
-0.25720143 -2.0435348 -0.32623932 0
-0.14835928 -2.0487051 -0.32701334 0
-0.047911134 -2.0561068 -0.32836416 0
0.05165416 -2.0603776 -0.33017448 0
0.15487599 -2.0564466 -0.3299937 0
0.25332454 -2.0528994 -0.33057296 0
0.34861913 -2.0532212 -0.33198351 0
0.45387706 -2.0462525 -0.33199361 0
0.55023348 -2.0414023 -0.33522147 0
0.64091897 -2.031333 -0.33636612 0
0.75048095 -2.0744388 -0.33576417 0
0.84359568 -2.0518587 -0.33794132 0
0.9524411 -2.04491 -0.33839694 0
1.0611087 -2.0587256 -0.33967295 0
1.1615703 -2.0341556 -0.34063691 0
1.2551087 -2.0589011 -0.34120181 0
1.3563437 -2.0447648 -0.3433682 0
1.454814 -2.042161 -0.34359047 0
1.5399278 -2.0560849 -0.34415376 0
1.6437787 -2.0483747 -0.34545264 0
1.7462082 -2.0526741 -0.34666476 0
1.8611082 -2.0650015 -0.34745786 0
1.9501941 -2.0430911 -0.34826356 0
2.022619 -2.0010204 -0.3493441 0
-2.8360634 -1.9450258 -0.30089957 0
-2.7382338 -1.9556047 -0.30196044 0
-2.6192956 -1.9376462 -0.30273318 0
-2.5506134 -1.9442296 -0.30323988 0
-2.478405 -1.9455504 -0.30304718 0
-2.3720834 -1.9459276 -0.30460536 0
-2.2485764 -1.9548422 -0.3060073 0
-2.1327839 -1.9641147 -0.30798909 0
-2.0389876 -1.9323158 -0.30898976 0
-1.9537511 -1.960762 -0.30990511 0
-1.8549942 -1.9524866 -0.31079331 0
-1.7444962 -1.9635271 -0.31061411 0
-1.6399419 -1.9309592 -0.31153286 0
-1.5476307 -1.956989 -0.31446102 0
-1.4498655 -1.9453324 -0.31440622 0
-1.3536049 -1.9485755 -0.31494319 0
-1.2582618 -1.9469427 -0.31599113 0
-1.1523821 -1.9526753 -0.31716073 0
-1.0503542 -1.9348392 -0.31767455 0
-0.95506132 -1.9550333 -0.31991372 0
-0.85856712 -1.9296432 -0.32043552 0
-0.73269826 -1.9521302 -0.32097983 0
-0.65056354 -1.9267601 -0.32211629 0
-0.55024749 -1.9466162 -0.32300577 0
-0.46096951 -1.9725159 -0.32416943 0
-0.36464623 -1.9749397 -0.32376793 0
-0.2450069 -1.9461746 -0.32652989 0
-0.15635045 -1.9506993 -0.32728764 0
-0.055832803 -1.9446565 -0.3280355 0
0.048520532 -1.9337195 -0.32999033 0
0.15936461 -1.9324143 -0.33033913 0
0.24585964 -1.9547471 -0.33164358 0
0.35995775 -1.9344444 -0.33238679 0
0.4472093 -1.9626606 -0.33257887 0
0.55245131 -1.9543953 -0.33479807 0
0.66609269 -1.9569865 -0.33513725 0
0.74804598 -1.9686319 -0.3366144 0
0.8526541 -1.958001 -0.33850798 0
0.95982552 -1.9219165 -0.33890578 0
1.0506071 -1.9687058 -0.33993003 0
1.13621 -1.92531 -0.34052524 0
1.2392702 -1.9687852 -0.3412644 0
1.3420438 -1.9420286 -0.34361646 0
1.433373 -1.9521627 -0.34338605 0
1.5429782 -1.9605988 -0.34525213 0
1.6439381 -1.9510235 -0.34621999 0
1.7448368 -1.9359978 -0.34648311 0
1.8479298 -1.9637799 -0.34750658 0
1.9554981 -1.9533364 -0.34863672 0
2.0488033 -1.9416947 -0.34956771 0
2.1167049 -1.921487 -0.35101199 0
-2.9051042 -1.8140349 -0.30012989 0
-2.8673716 -1.8674369 -0.3002865 0
-2.7743187 -1.8448591 -0.30102727 0
-2.6625414 -1.8540585 -0.30233312 0
-2.564702 -1.8411043 -0.30397117 0
-2.4573491 -1.8451017 -0.30485693 0
-2.3266156 -1.8535417 -0.305269 0
-2.2234464 -1.8506846 -0.30715817 0
-2.140105 -1.842806 -0.30700621 0
-2.0402613 -1.843102 -0.30945262 0
-1.939824 -1.8562609 -0.30985937 0
-1.8553265 -1.8620081 -0.31082752 0
-1.7509435 -1.8372648 -0.31225681 0
-1.6478268 -1.854882 -0.31203404 0
-1.5577384 -1.8580456 -0.31257853 0
-1.4425194 -1.8511745 -0.315265 0
-1.3473954 -1.8444886 -0.31521675 0
-1.2607521 -1.8526144 -0.31647408 0
-1.1616133 -1.8456061 -0.31726518 0
-1.0573348 -1.8412791 -0.31794146 0
-0.95080459 -1.8378826 -0.31940883 0
-0.8480165 -1.8385124 -0.32146829 0
-0.75500917 -1.8595645 -0.3213059 0
-0.64096159 -1.8627955 -0.32256749 0
-0.54463315 -1.8265779 -0.32314295 0
-0.44332221 -1.8714585 -0.32547104 0
-0.34709468 -1.8393718 -0.32518515 0
-0.25321999 -1.8393205 -0.32665107 0
-0.15219806 -1.8463856 -0.32814768 0
-0.059653647 -1.8506725 -0.32878804 0
0.046531286 -1.8542103 -0.32987937 0
0.15284185 -1.8534003 -0.3304618 0
0.26089868 -1.85745 -0.33262396 0
0.35321799 -1.8402176 -0.33290923 0
0.45037055 -1.8422648 -0.33284244 0
0.53790498 -1.8614891 -0.33460531 0
0.65654039 -1.8561499 -0.33602589 0
0.75598925 -1.8389738 -0.33686119 0
0.83959788 -1.8511745 -0.33844134 0
0.95649779 -1.8235446 -0.33922905 0
1.0527492 -1.8717098 -0.34040296 0
1.1557022 -1.8296174 -0.3413431 0
1.234881 -1.8427403 -0.34321913 0
1.336193 -1.8379961 -0.34212574 0
1.454896 -1.8398075 -0.34460759 0
1.5489688 -1.8744758 -0.34512874 0
1.6445618 -1.8512191 -0.34562564 0
1.7436041 -1.8265845 -0.3467389 0
1.8492167 -1.8557146 -0.34794813 0
1.9675291 -1.8647115 -0.34908307 0
2.0539901 -1.846594 -0.35041228 0
2.1478002 -1.8583761 -0.35115889 0
2.218122 -1.8194983 -0.35226625 0
-2.9283326 -1.7707978 -0.3002733 0
-2.8339076 -1.7415445 -0.30112052 0
-2.7345572 -1.7348515 -0.3019574 0
-2.642426 -1.7571409 -0.30278271 0
-2.5318146 -1.7362994 -0.30392587 0
-2.4446709 -1.7459373 -0.30533376 0
-2.3507059 -1.7478271 -0.30680075 0
-2.2467568 -1.7552449 -0.3062335 0
-2.1741748 -1.7576829 -0.30715156 0
-2.0691216 -1.7473685 -0.30859542 0
-1.9553366 -1.7498283 -0.31017351 0
-1.8380634 -1.7419034 -0.31168601 0
-1.7516801 -1.7579532 -0.31226832 0
-1.656395 -1.7603645 -0.31303889 0
-1.550125 -1.7449234 -0.31334332 0
-1.4385101 -1.7410399 -0.31500623 0
-1.3376944 -1.7422549 -0.31648907 0
-1.2589524 -1.7671936 -0.31582084 0
-1.1534905 -1.7484137 -0.31777588 0
-1.0413765 -1.7359987 -0.3186284 0
-0.95755607 -1.7519588 -0.31893507 0
-0.85174948 -1.7590008 -0.32124266 0
-0.74830282 -1.7485683 -0.32232773 0
-0.64500618 -1.7592428 -0.32293993 0
-0.54751599 -1.7443678 -0.32374686 0
-0.44442359 -1.763491 -0.32665339 0
-0.35704389 -1.726222 -0.32665151 0
-0.25722373 -1.7408983 -0.32643288 0
-0.14418609 -1.7452646 -0.32982373 0
-0.068584554 -1.7490419 -0.3298938 0
0.056115944 -1.7507168 -0.33029184 0
0.14848368 -1.7508302 -0.33122241 0
0.23889841 -1.7447994 -0.33435553 0
0.3506836 -1.7590046 -0.33305681 0
0.4501912 -1.7335877 -0.33295804 0
0.5554592 -1.7447346 -0.33440259 0
0.64855248 -1.7611914 -0.336667 0
0.75853258 -1.7379096 -0.3378343 0
0.8510496 -1.7523819 -0.33779526 0
0.94537818 -1.7412922 -0.33923763 0
1.0415627 -1.7649021 -0.34052801 0
1.1526382 -1.7413628 -0.34231955 0
1.2514653 -1.7567177 -0.34224737 0
1.3368518 -1.7411008 -0.34478861 0
1.4515525 -1.7311858 -0.34449655 0
1.5587569 -1.7546672 -0.3451784 0
1.6548281 -1.7504554 -0.34609786 0
1.7406777 -1.722 -0.3475523 0
1.839743 -1.7436035 -0.34827539 0
1.9509926 -1.7457387 -0.34910217 0
2.058337 -1.7635895 -0.3504003 0
2.1505611 -1.7557472 -0.35174024 0
2.2445457 -1.7361447 -0.35182002 0
2.3164532 -1.7135845 -0.35378796 0
-2.8712308 -1.6806239 -0.30078176 0
-2.7798235 -1.6539242 -0.30181688 0
-2.680299 -1.6471486 -0.30282766 0
-2.5704401 -1.6566511 -0.30384228 0
-2.4743197 -1.6453789 -0.30482638 0
-2.3668387 -1.6481352 -0.30611229 0
-2.2639563 -1.649963 -0.30782023 0
-2.141525 -1.6563454 -0.30829641 0
-2.0238707 -1.6602818 -0.30941701 0
-1.9275191 -1.6277903 -0.31052256 0
-1.8697443 -1.6730108 -0.31130323 0
-1.7600949 -1.6444204 -0.31226358 0
-1.6469561 -1.6528467 -0.31335038 0
-1.5404955 -1.6371895 -0.31417874 0
-1.4488982 -1.6465243 -0.31448731 0
-1.3484397 -1.6554778 -0.31689242 0
-1.2299591 -1.6502855 -0.317615 0
-1.1358744 -1.6437714 -0.31771922 0
-1.0587355 -1.6732856 -0.31861898 0
-0.96586806 -1.6367755 -0.32064271 0
-0.85373932 -1.6565989 -0.32069296 0
-0.74765658 -1.6486019 -0.32301155 0
-0.64870876 -1.6447248 -0.32277477 0
-0.54776287 -1.6614739 -0.32427517 0
-0.45094869 -1.6324283 -0.32661197 0
-0.34121436 -1.6496605 -0.32749048 0
-0.24810587 -1.6482137 -0.32704741 0
-0.15642396 -1.6629893 -0.32868817 0
-0.046554811 -1.6708648 -0.32872519 0
0.034686718 -1.6739137 -0.32931086 0
0.14130324 -1.6747024 -0.33077738 0
0.2619473 -1.6729742 -0.33332857 0
0.35510579 -1.657196 -0.33268437 0
0.44625521 -1.6410013 -0.33268914 0
0.55287403 -1.6372199 -0.33594158 0
0.64050847 -1.6432073 -0.33623514 0
0.75093746 -1.6556724 -0.33802617 0
0.85497987 -1.6425589 -0.33824372 0
0.95800877 -1.6501735 -0.34000504 0
1.0500017 -1.6578573 -0.3412171 0
1.1515795 -1.6360376 -0.34110513 0
1.2546594 -1.6388092 -0.3431462 0
1.3607956 -1.6676672 -0.34337476 0
1.4298016 -1.632872 -0.34436712 0
1.5503743 -1.6475403 -0.34508747 0
1.6645209 -1.6704612 -0.34675711 0
1.7391912 -1.6402644 -0.34758344 0
1.8443708 -1.6422821 -0.34782156 0
1.9419445 -1.6399792 -0.34954831 0
2.047219 -1.654982 -0.35065266 0
2.1662285 -1.6509023 -0.35172436 0
2.2690635 -1.6535981 -0.35340953 0
2.3531029 -1.638577 -0.35414994 0
-3.0548425 -1.5606614 -0.3006849 0
-2.9420547 -1.5564899 -0.30084839 0
-2.8490486 -1.5335281 -0.30137569 0
-2.7360067 -1.5493332 -0.30198115 0
-2.634711 -1.5421911 -0.3029989 0
-2.526691 -1.552753 -0.30453482 0
-2.4301906 -1.5417542 -0.30553988 0
-2.34234 -1.5576017 -0.30647156 0
-2.2189875 -1.5451736 -0.30800188 0
-2.1373558 -1.5576735 -0.30967221 0
-2.0438805 -1.5502925 -0.3110185 0
-1.9722407 -1.5482045 -0.31010467 0
-1.8419973 -1.5556329 -0.31142265 0
-1.7305542 -1.5484129 -0.31227362 0
-1.6407993 -1.5551305 -0.31300461 0
-1.5430731 -1.548594 -0.31465113 0
-1.4431107 -1.5558316 -0.31519225 0
-1.3391966 -1.5516508 -0.31612304 0
-1.2510623 -1.5527968 -0.31783298 0
-1.152181 -1.5459543 -0.31825063 0
-1.0505674 -1.5675718 -0.31909573 0
-0.95495605 -1.5419874 -0.32062221 0
-0.85273933 -1.5440426 -0.32145348 0
-0.74091434 -1.5383322 -0.32254833 0
-0.6603663 -1.539536 -0.32392141 0
-0.55586213 -1.5618696 -0.3245984 0
-0.45228744 -1.5575895 -0.32608053 0
-0.35132745 -1.55472 -0.32749546 0
-0.25207424 -1.5521851 -0.32846069 0
-0.15139218 -1.5620655 -0.32865816 0
-0.053532969 -1.5484065 -0.329622 0
0.052559566 -1.5474671 -0.33012405 0
0.14985947 -1.5468816 -0.33282584 0
0.24894202 -1.5520046 -0.33400574 0
0.3553943 -1.5495265 -0.3329435 0
0.44943193 -1.5472256 -0.33253363 0
0.53695709 -1.5637864 -0.3359243 0
0.65858489 -1.5699692 -0.33635148 0
0.74698347 -1.5572649 -0.33798793 0
0.85412753 -1.5208237 -0.3390924 0
0.94100702 -1.5687083 -0.34018189 0
1.0515598 -1.5447712 -0.34075344 0
1.1567854 -1.5291289 -0.34225765 0
1.261327 -1.5488176 -0.34307218 0
1.3576628 -1.550439 -0.34369266 0
1.4541731 -1.5589453 -0.34394532 0
1.5399073 -1.5453577 -0.3462548 0
1.6505818 -1.5643413 -0.34692055 0
1.7673794 -1.5587989 -0.34710279 0
1.8585653 -1.5621691 -0.34913793 0
1.9403969 -1.5535291 -0.34974274 0
2.0450196 -1.5585375 -0.35080105 0
2.1391456 -1.535583 -0.35177597 0
2.2329609 -1.5548587 -0.35293737 0
2.354866 -1.5416828 -0.35432157 0
2.4380548 -1.5467247 -0.35453877 0
-2.9723027 -1.465235 -0.30034155 0
-2.8631773 -1.4454737 -0.3023794 0
-2.7399817 -1.4496241 -0.30263209 0
-2.641171 -1.446102 -0.30382729 0
-2.5681548 -1.4786763 -0.303709 0
-2.460609 -1.4402789 -0.30518126 0
-2.3730826 -1.4583571 -0.30624199 0
-2.2674131 -1.4613477 -0.30734992 0
-2.1743207 -1.4458987 -0.30862549 0
-2.0554821 -1.4533315 -0.31043893 0
-1.9302019 -1.4493107 -0.31198376 0
-1.8335764 -1.4607155 -0.3113746 0
-1.740199 -1.4556499 -0.31278145 0
-1.6503766 -1.4556214 -0.31325889 0
-1.5482181 -1.4532 -0.31342626 0
-1.4449393 -1.4501107 -0.31580848 0
-1.3511285 -1.4510505 -0.31597313 0
-1.2558745 -1.4465958 -0.31758493 0
-1.1433361 -1.4371101 -0.3193644 0
-1.0381238 -1.457239 -0.32080865 0
-0.94266498 -1.4512947 -0.32066405 0
-0.84966356 -1.4397153 -0.324202 0
-0.75526738 -1.4558591 -0.32171419 0
-0.64972514 -1.4517035 -0.32399768 0
-0.55263537 -1.4411883 -0.32508186 0
-0.45800528 -1.4477526 -0.32604089 0
-0.35391116 -1.4478662 -0.32748869 0
-0.23871237 -1.430918 -0.32934791 0
-0.15020004 -1.443627 -0.32922342 0
-0.054817185 -1.435137 -0.32914191 0
0.043329537 -1.4375495 -0.32988551 0
0.14980803 -1.4387742 -0.33422685 0
0.2510615 -1.4348494 -0.33299395 0
0.34124798 -1.4337382 -0.33384418 0
0.45616907 -1.4527743 -0.33450243 0
0.55517524 -1.4510019 -0.33525872 0
0.63367116 -1.4575505 -0.33686075 0
0.75204551 -1.4517728 -0.33826849 0
0.85321879 -1.4458071 -0.33998868 0
0.95098758 -1.4639949 -0.34055448 0
1.0438828 -1.4270022 -0.33993995 0
1.1586331 -1.4438087 -0.3421793 0
1.2544805 -1.4534256 -0.34281421 0
1.3618942 -1.4682094 -0.34345296 0
1.4492646 -1.4545048 -0.34547755 0
1.5601535 -1.4575142 -0.34584105 0
1.6493977 -1.4407562 -0.34612533 0
1.7642627 -1.4471662 -0.34821278 0
1.8656901 -1.4645319 -0.34918556 0
1.9611577 -1.4508061 -0.35025311 0
2.0567908 -1.4470286 -0.35056996 0
2.1530428 -1.4539883 -0.35277766 0
2.2393143 -1.450972 -0.35261545 0
2.3148355 -1.4454311 -0.3536357 0
2.4418964 -1.4528286 -0.3550089 0
2.5318484 -1.4257113 -0.35682216 0
-3.0317414 -1.3619497 -0.30026057 0
-2.9495823 -1.3250403 -0.3011831 0
-2.8362606 -1.3480277 -0.30163118 0
-2.7401412 -1.3508192 -0.30307522 0
-2.6392338 -1.3483974 -0.3042421 0
-2.5439301 -1.3458576 -0.30546179 0
-2.4415371 -1.3367763 -0.30572367 0
-2.3237925 -1.3601947 -0.30667543 0
-2.2293704 -1.3481435 -0.30797416 0
-2.1233768 -1.3428835 -0.30921015 0
-2.0736575 -1.3620785 -0.30932966 0
-1.9704745 -1.3513563 -0.3112227 0
-1.8645655 -1.3588281 -0.31275418 0
-1.7559333 -1.3581785 -0.31286955 0
-1.6506664 -1.3540702 -0.31361803 0
-1.5354514 -1.3478702 -0.31436315 0
-1.4423348 -1.3527789 -0.31461433 0
-1.3388798 -1.3436968 -0.31715286 0
-1.2458403 -1.3431231 -0.31696221 0
-1.1589772 -1.3505278 -0.31998602 0
-1.0449097 -1.3473974 -0.32096332 0
-0.94735509 -1.3442719 -0.32190043 0
-0.8608703 -1.3622564 -0.32213107 0
-0.74802041 -1.354504 -0.32346097 0
-0.64013255 -1.3342384 -0.32458195 0
-0.54367357 -1.3489529 -0.32444099 0
-0.45641032 -1.3400966 -0.32697695 0
-0.35751113 -1.3535463 -0.32819393 0
-0.25833482 -1.3554561 -0.3263914 0
-0.15094754 -1.3549286 -0.32977325 0
-0.045876551 -1.3459384 -0.33067182 0
0.048028983 -1.3444315 -0.33104438 0
0.13839321 -1.3552262 -0.33434388 0
0.25002024 -1.3544749 -0.33312735 0
0.36927551 -1.3576435 -0.332656 0
0.45372635 -1.3585339 -0.33534062 0
0.55413413 -1.3432846 -0.33573899 0
0.64591849 -1.3401299 -0.3392933 0
0.75344783 -1.3563854 -0.33866718 0
0.84846288 -1.3405271 -0.3388617 0
0.94609517 -1.3486657 -0.33870694 0
1.0628992 -1.3549025 -0.34096175 0
1.1492387 -1.3314855 -0.34193185 0
1.2529275 -1.3662076 -0.3422384 0
1.3505013 -1.3591781 -0.34499177 0
1.4538367 -1.3581762 -0.34506023 0
1.5504313 -1.3478752 -0.3453182 0
1.6541973 -1.3569396 -0.34757495 0
1.7392707 -1.3398631 -0.34845874 0
1.8466535 -1.3457689 -0.34883299 0
1.9570112 -1.341988 -0.34977198 0
2.0627401 -1.3504368 -0.35130373 0
2.1561918 -1.3678999 -0.35192356 0
2.2430503 -1.3492392 -0.35313192 0
2.3536382 -1.3551409 -0.35475409 0
2.4443674 -1.3386154 -0.35606131 0
2.537297 -1.3423939 -0.35654336 0
2.6077604 -1.3087997 -0.3587912 0
-3.1794691 -1.2409862 -0.30004802 0
-3.0623767 -1.2289636 -0.30109787 0
-2.9815557 -1.2632258 -0.30046961 0
-2.8893011 -1.2485976 -0.30189121 0
-2.7852643 -1.2512217 -0.3030282 0
-2.6860867 -1.2532344 -0.30357116 0
-2.5838473 -1.2507745 -0.30437341 0
-2.4608257 -1.2423359 -0.30668339 0
-2.3495114 -1.2575904 -0.30723283 0
-2.2404735 -1.2373202 -0.30824468 0
-2.1612623 -1.2650354 -0.30859736 0
-2.0561578 -1.2434069 -0.30991313 0
-1.9485699 -1.2558064 -0.31084344 0
-1.8538729 -1.252014 -0.31202006 0
-1.7550935 -1.2598531 -0.31402785 0
-1.6493218 -1.2569094 -0.31440267 0
-1.538735 -1.2439234 -0.31475571 0
-1.451882 -1.2550319 -0.31569061 0
-1.354084 -1.254092 -0.31627628 0
-1.2432486 -1.2477306 -0.3185043 0
-1.1359259 -1.2423928 -0.31777555 0
-1.0527596 -1.2556485 -0.3209734 0
-0.94400215 -1.2439913 -0.32255191 0
-0.85164875 -1.2514043 -0.32338551 0
-0.73743808 -1.2388375 -0.32506445 0
-0.64953721 -1.2480627 -0.32460406 0
-0.55679345 -1.266819 -0.32458445 0
-0.44462645 -1.2449352 -0.32661369 0
-0.34659353 -1.2404454 -0.32949799 0
-0.24065213 -1.2454494 -0.32732329 0
-0.14497922 -1.2564831 -0.32936665 0
-0.057215415 -1.2538756 -0.33130816 0
0.048456982 -1.2553436 -0.33087662 0
0.16117576 -1.255785 -0.33338329 0
0.24993038 -1.2544539 -0.33381981 0
0.34069785 -1.253517 -0.33301094 0
0.44880384 -1.240754 -0.3355431 0
0.54006791 -1.2458882 -0.33629879 0
0.6584931 -1.2530465 -0.33815262 0
0.75503373 -1.2562625 -0.33895713 0
0.8422929 -1.2376955 -0.33740965 0
0.96244287 -1.2404398 -0.34102991 0
1.060702 -1.24695 -0.34157085 0
1.1597543 -1.2502873 -0.34166485 0
1.2574769 -1.2441485 -0.34391737 0
1.3509883 -1.2620348 -0.34421089 0
1.4491656 -1.2563055 -0.34525675 0
1.5540853 -1.2563205 -0.34669879 0
1.652393 -1.2519915 -0.34810305 0
1.7599525 -1.2507423 -0.34704885 0
1.83318 -1.2379557 -0.34898037 0
1.9352607 -1.2277371 -0.34988332 0
2.029485 -1.2471189 -0.3510766 0
2.1343429 -1.2492713 -0.35236755 0
2.2434909 -1.2492394 -0.35405907 0
2.3386371 -1.2587248 -0.35494849 0
2.4404826 -1.2468125 -0.35616082 0
2.5534599 -1.2360148 -0.35750067 0
2.6324124 -1.2512317 -0.3578825 0
-3.1155181 -1.139565 -0.30029076 0
-3.0163629 -1.1525462 -0.30147868 0
-2.9241314 -1.1655476 -0.30263472 0
-2.8322952 -1.1524886 -0.30326164 0
-2.7340879 -1.1583462 -0.30422649 0
-2.6307707 -1.1592454 -0.30487323 0
-2.5321157 -1.1593829 -0.30578861 0
-2.4296701 -1.1547748 -0.3063353 0
-2.3363435 -1.1517539 -0.30784225 0
-2.2312524 -1.1449577 -0.30883569 0
-2.1439745 -1.1607881 -0.30975381 0
-2.0413184 -1.1559098 -0.31062728 0
-1.9420475 -1.1462826 -0.3111133 0
-1.8424517 -1.1504987 -0.31222719 0
-1.7391115 -1.156507 -0.31322899 0
-1.6320778 -1.1496499 -0.31538591 0
-1.5660926 -1.16602 -0.31566897 0
-1.4562672 -1.1518074 -0.31668031 0
-1.3606648 -1.1491156 -0.31705996 0
-1.2518955 -1.1418418 -0.31864709 0
-1.1516814 -1.1557691 -0.31983092 0
-1.0400509 -1.1505833 -0.31998873 0
-0.95399243 -1.1545665 -0.32299516 0
-0.84895849 -1.1390265 -0.32435724 0
-0.76061499 -1.1528296 -0.32521737 0
-0.64019895 -1.1527426 -0.325266 0
-0.53766537 -1.1478987 -0.32678527 0
-0.45827118 -1.1491984 -0.32695806 0
-0.35879341 -1.1729304 -0.32872805 0
-0.2643038 -1.191227 -0.32699186 0
-0.18525006 -1.194518 -0.32389575 0
0.35503304 -1.1901355 -0.33285069 0
0.45094159 -1.1677058 -0.33550549 0
0.55734307 -1.1461701 -0.33725294 0
0.64334118 -1.1481537 -0.33760348 0
0.74179119 -1.154173 -0.33798653 0
0.85702926 -1.1646901 -0.33937564 0
0.93875539 -1.1360643 -0.3409259 0
1.0478104 -1.1458668 -0.3417801 0
1.1491983 -1.1532319 -0.34278485 0
1.236604 -1.1506579 -0.34390846 0
1.3402387 -1.1484498 -0.34486759 0
1.4530442 -1.1575114 -0.34597343 0
1.5519215 -1.147983 -0.34719145 0
1.6686685 -1.1443841 -0.34741777 0
1.7654076 -1.1557126 -0.34865201 0
1.8639634 -1.1638536 -0.34932643 0
1.9366555 -1.1335549 -0.35103384 0
2.053757 -1.1567144 -0.35160246 0
2.1453936 -1.1417949 -0.35388783 0
2.2457235 -1.1473179 -0.35398224 0
2.3631907 -1.1580552 -0.35611263 0
2.4660208 -1.1650167 -0.35654083 0
2.5519438 -1.1464248 -0.35780132 0
2.6540329 -1.1621114 -0.35896468 0
2.703918 -1.1228333 -0.35985231 0
-3.1390219 -1.0723522 -0.30061895 0
-3.0470779 -1.065361 -0.30119199 0
-2.9535732 -1.0564337 -0.302019 0
-2.8615396 -1.046665 -0.30276567 0
-2.7636631 -1.0559927 -0.30389094 0
-2.6764953 -1.044764 -0.3050501 0
-2.5625775 -1.0427361 -0.30660102 0
-2.4516046 -1.0526692 -0.30744323 0
-2.338794 -1.0407904 -0.30833364 0
-2.2676256 -1.0579325 -0.30868953 0
-2.1653545 -1.0482093 -0.30980873 0
-2.0656955 -1.0553805 -0.31061527 0
-1.9616334 -1.03784 -0.31232971 0
-1.8586981 -1.0524945 -0.31326324 0
-1.7450863 -1.0420272 -0.31345773 0
-1.6634073 -1.0552675 -0.31378463 0
-1.5422313 -1.0576006 -0.31580192 0
-1.4576056 -1.0462985 -0.3171683 0
-1.3429081 -1.0387765 -0.318719 0
-1.2454286 -1.0518034 -0.31844562 0
-1.1538743 -1.0474337 -0.31963632 0
-1.0500197 -1.0537906 -0.32031748 0
-0.93376058 -1.0533684 -0.3223983 0
-0.85070121 -1.0560858 -0.32383797 0
-0.75559592 -1.0448081 -0.32523781 0
-0.65708792 -1.049674 -0.32598603 0
-0.56535751 -1.077814 -0.32618496 0
0.65542042 -1.0751153 -0.33745575 0
0.75156456 -1.047668 -0.33773741 0
0.85913944 -1.0441523 -0.34002107 0
0.9616999 -1.0569588 -0.34116209 0
1.0512139 -1.0515202 -0.34311411 0
1.1434437 -1.0380384 -0.34440538 0
1.2496774 -1.0400815 -0.34459019 0
1.3708277 -1.0538415 -0.34534881 0
1.4479543 -1.0421948 -0.34693742 0
1.5463426 -1.0441711 -0.34734735 0
1.6446505 -1.0433456 -0.34808791 0
1.7474918 -1.060286 -0.34886408 0
1.8516359 -1.0520976 -0.3505457 0
1.9484842 -1.0487336 -0.35149682 0
2.0570221 -1.0509086 -0.35278991 0
2.1603281 -1.0456847 -0.35392165 0
2.2593756 -1.0541087 -0.35524952 0
2.3542197 -1.057618 -0.35596296 0
2.4464533 -1.0572447 -0.35693431 0
2.5461419 -1.0572542 -0.35777822 0
2.6421421 -1.0530734 -0.35822311 0
2.7308199 -1.0433176 -0.35896444 0
-3.1303389 -0.93752176 -0.30109879 0
-3.0415001 -0.96689248 -0.30140007 0
-2.9557512 -0.93963909 -0.30242568 0
-2.8626959 -0.94770497 -0.30284709 0
-2.7492442 -0.96123028 -0.30408362 0
-2.6162815 -0.93579757 -0.30535695 0
-2.5380521 -0.94901574 -0.3059904 0
-2.4246519 -0.94646901 -0.30767015 0
-2.3276699 -0.94234651 -0.30920297 0
-2.2358263 -0.94728422 -0.31026199 0
-2.1277571 -0.93767858 -0.31105402 0
-2.0531752 -0.94919348 -0.31190738 0
-1.9466925 -0.9596616 -0.31185415 0
-1.8360124 -0.95470738 -0.31355867 0
-1.7490792 -0.93971336 -0.31508273 0
-1.6510378 -0.95033413 -0.31526044 0
-1.5421613 -0.95092648 -0.31657329 0
-1.4403993 -0.95776922 -0.31753087 0
-1.3330405 -0.94019848 -0.31843498 0
-1.2546488 -0.95029181 -0.31933001 0
-1.1511772 -0.94441742 -0.32030395 0
-1.0464634 -0.93860918 -0.32172272 0
-0.96436453 -0.96102834 -0.32092598 0
-0.85896313 -0.95308828 -0.32251248 0
-0.751351 -0.95016307 -0.32470968 0
-0.69849324 -0.99544835 -0.32584271 0
0.78379321 -0.99116141 -0.33859378 0
0.85542524 -0.94897783 -0.34026736 0
0.95957255 -0.94926918 -0.34184766 0
1.0607549 -0.95113564 -0.34401003 0
1.1444256 -0.95035464 -0.34399304 0
1.2510711 -0.95343727 -0.34401903 0
1.3489506 -0.93924493 -0.3459287 0
1.4508249 -0.95963115 -0.3462429 0
1.530727 -0.93735927 -0.3475028 0
1.6372116 -0.94264704 -0.34837076 0
1.748732 -0.94787705 -0.35009995 0
1.8408564 -0.94609022 -0.35083476 0
1.9569639 -0.95888877 -0.35160789 0
2.0201302 -0.93752223 -0.35335809 0
2.1348438 -0.95906693 -0.35422978 0
2.2520137 -0.95415139 -0.35488418 0
2.3524685 -0.95747387 -0.35626307 0
2.4501908 -0.95637882 -0.35667381 0
2.5674956 -0.93916887 -0.35799956 0
2.6741004 -0.95655054 -0.35920531 0
2.7518916 -0.94022256 -0.35979784 0
-3.2074509 -0.84510744 -0.30014682 0
-3.120615 -0.8462044 -0.30089819 0
-3.0245385 -0.86673224 -0.30217147 0
-2.9379883 -0.84192824 -0.30313811 0
-2.8432119 -0.85907471 -0.30434054 0
-2.7460573 -0.85111815 -0.30493474 0
-2.6460841 -0.86175317 -0.30571702 0
-2.560468 -0.83386517 -0.30666021 0
-2.45661 -0.83924586 -0.30686745 0
-2.3540361 -0.84196931 -0.30775496 0
-2.2503746 -0.84144855 -0.30915496 0
-2.1616821 -0.84378576 -0.31063071 0
-2.0728223 -0.84341604 -0.31194159 0
-1.9645494 -0.84578574 -0.31314901 0
-1.850979 -0.84225821 -0.31494087 0
-1.7648363 -0.85435849 -0.31420442 0
-1.6560301 -0.86104739 -0.3154411 0
-1.5670476 -0.84061545 -0.31715143 0
-1.4397492 -0.83713233 -0.31744915 0
-1.3661861 -0.85869253 -0.3193756 0
-1.2541243 -0.84687907 -0.32047328 0
-1.1353096 -0.84382427 -0.32092842 0
-1.0530958 -0.85139799 -0.32065549 0
-0.9539426 -0.85359997 -0.32277429 0
-0.85657328 -0.84744161 -0.32303488 0
-0.79817253 -0.89845997 -0.32201934 0
0.94587803 -0.85846955 -0.34240773 0
1.0381223 -0.84986717 -0.34401271 0
1.1587971 -0.86158031 -0.34315109 0
1.2427227 -0.84443384 -0.34631342 0
1.3417854 -0.85565156 -0.34544075 0
1.4495677 -0.84857851 -0.34640756 0
1.5602654 -0.85421026 -0.34830302 0
1.6490879 -0.83624643 -0.35100248 0
1.7710381 -0.84183884 -0.35079741 0
1.8539848 -0.84885013 -0.35144952 0
1.9382105 -0.85417962 -0.35197607 0
2.0523553 -0.8522023 -0.35353914 0
2.1554718 -0.85908788 -0.35434911 0
2.2536633 -0.86111909 -0.35563138 0
2.3391399 -0.85566694 -0.35544455 0
2.4365427 -0.85187835 -0.35672429 0
2.5294018 -0.84384578 -0.35715643 0
2.6245103 -0.85485995 -0.35812032 0
2.7422781 -0.85725397 -0.35897961 0
2.8168349 -0.82907522 -0.36054242 0
-3.2337236 -0.72937888 -0.30033273 0
-3.1379564 -0.75518262 -0.30066085 0
-3.0446301 -0.75579804 -0.30164278 0
-2.9543662 -0.75583351 -0.30245364 0
-2.8651145 -0.75494456 -0.30361977 0
-2.7730398 -0.75196242 -0.30473536 0
-2.6605854 -0.74192017 -0.30613726 0
-2.5327587 -0.7455228 -0.3081353 0
-2.4291663 -0.73008227 -0.30906761 0
-2.368957 -0.7467764 -0.30894598 0
-2.2471073 -0.74975812 -0.30969054 0
-2.138031 -0.75335795 -0.31108764 0
-2.0331564 -0.76022536 -0.31169891 0
-1.9267088 -0.75206918 -0.31337419 0
-1.8389155 -0.7482354 -0.31446359 0
-1.651668 -0.77057821 -0.31558564 0
-1.5483773 -0.75244546 -0.31584325 0
-1.4432424 -0.74687618 -0.31774217 0
-1.3487509 -0.76000321 -0.31824085 0
-1.2481954 -0.75483721 -0.31984431 0
-1.1553857 -0.75717974 -0.32154852 0
-1.0456803 -0.75334001 -0.3211337 0
-0.94807178 -0.75537509 -0.32266942 0
1.0524676 -0.75540948 -0.34340325 0
1.1509105 -0.75339526 -0.34555358 0
1.2517829 -0.75296694 -0.34327233 0
1.3327993 -0.74441606 -0.34743261 0
1.447084 -0.73937058 -0.34783363 0
1.5514443 -0.75108594 -0.34866911 0
1.6294955 -0.75075155 -0.34889019 0
1.7424479 -0.75772858 -0.34946951 0
1.8450783 -0.73571986 -0.35124293 0
1.94917 -0.74477619 -0.35302666 0
2.0757258 -0.74819893 -0.35248601 0
2.1355186 -0.75250798 -0.35433125 0
2.2519612 -0.74430597 -0.35475531 0
2.3822234 -0.75709867 -0.35641682 0
2.4798124 -0.74912483 -0.35752144 0
2.5777991 -0.73871499 -0.3586745 0
2.6617677 -0.76277846 -0.35929596 0
2.7576311 -0.74775583 -0.3600584 0
2.8395972 -0.74816442 -0.3605662 0
-3.2485805 -0.65979636 -0.30061454 0
-3.1565523 -0.66466928 -0.30121139 0
-3.0683081 -0.64608836 -0.30199766 0
-2.9743245 -0.64854282 -0.30273798 0
-2.8547785 -0.63689965 -0.30376735 0
-2.7587349 -0.67074174 -0.30463067 0
-2.6414194 -0.62888336 -0.30564153 0
-2.5446033 -0.65761679 -0.30677637 0
-2.4254334 -0.63447696 -0.30851597 0
-2.3316555 -0.65020084 -0.30959871 0
-2.2260482 -0.65530533 -0.31118479 0
-2.1416333 -0.66380757 -0.31213918 0
-2.0575476 -0.65394205 -0.31318447 0
-1.9669021 -0.65621853 -0.31406879 0
-1.875312 -0.65558195 -0.31468645 0
-1.4679399 -0.69125712 -0.31622273 0
-1.355067 -0.66325712 -0.31965652 0
-1.2449943 -0.64953226 -0.32085621 0
-1.1563653 -0.6530025 -0.32136351 0
-1.0505241 -0.65618145 -0.32298172 0
-0.98370647 -0.67463285 -0.31963521 0
1.0892421 -0.68010563 -0.3440901 0
1.1490988 -0.65073907 -0.34499869 0
1.252773 -0.63999569 -0.34596097 0
1.3470036 -0.6521064 -0.3461172 0
1.4445237 -0.65318727 -0.34673381 0
1.5414964 -0.65310925 -0.34759566 0
1.6630002 -0.64902568 -0.34953415 0
1.7652603 -0.66002893 -0.35116971 0
1.8560473 -0.64889246 -0.35171458 0
1.9416971 -0.64787555 -0.35202631 0
2.0274155 -0.64435148 -0.35337749 0
2.136061 -0.64526945 -0.35489067 0
2.2419231 -0.64246136 -0.35618854 0
2.3258922 -0.66652477 -0.35681 0
2.420398 -0.65631831 -0.35757652 0
2.5344296 -0.6483919 -0.35855022 0
2.6630619 -0.6544382 -0.36036599 0
2.7586138 -0.63621342 -0.3617321 0
2.8747616 -0.64849871 -0.36239067 0
-3.2538192 -0.51655626 -0.30106786 0
-3.1781807 -0.57479608 -0.30063486 0
-3.0608852 -0.56097746 -0.30201063 0
-2.9410565 -0.5245223 -0.30300343 0
-2.8426895 -0.56335682 -0.30428365 0
-2.7229526 -0.55299115 -0.30540425 0
-2.6270876 -0.55318397 -0.30592906 0
-2.5337389 -0.55247301 -0.30659017 0
-2.4391887 -0.55016083 -0.30742702 0
-2.3470104 -0.54703718 -0.30919525 0
-2.2540047 -0.55949235 -0.31023112 0
-2.164916 -0.55377531 -0.3112213 0
-2.0776932 -0.54735154 -0.31203675 0
-1.9449269 -0.54660642 -0.31394884 0
-1.8729112 -0.52225697 -0.31269851 0
-1.2093153 -0.57478243 -0.32396334 0
-1.1468552 -0.57341433 -0.32219461 0
-1.0701551 -0.55651164 -0.32329878 0
1.1646367 -0.55349153 -0.34561512 0
1.2439822 -0.55289036 -0.34675193 0
1.3694499 -0.55650961 -0.34609574 0
1.4548761 -0.53897673 -0.34896129 0
1.5539106 -0.53924119 -0.34925508 0
1.6447818 -0.54881251 -0.35003713 0
1.7325782 -0.55297363 -0.35106769 0
1.8553759 -0.54897922 -0.35210055 0
1.9636301 -0.55042601 -0.35403496 0
2.0685368 -0.54498839 -0.35501346 0
2.1666636 -0.55429196 -0.35548383 0
2.2684731 -0.54588401 -0.35651812 0
2.353605 -0.56636959 -0.35733375 0
2.4427149 -0.55105382 -0.35774431 0
2.5388131 -0.53453439 -0.358888 0
2.6426334 -0.55640674 -0.35959959 0
2.7561007 -0.55999291 -0.36086893 0
2.8210888 -0.53102601 -0.36222911 0
2.9031541 -0.55366993 -0.36290252 0
-3.3604622 -0.46822608 -0.30063987 0
-3.2519202 -0.44520488 -0.30160826 0
-3.1390066 -0.4523997 -0.30265868 0
-3.0263429 -0.45832926 -0.30378866 0
-2.9372885 -0.44484529 -0.30473691 0
-2.8391201 -0.45067954 -0.30507129 0
-2.7487516 -0.45646632 -0.30599427 0
-2.6565602 -0.46074399 -0.30697274 0
-2.5678883 -0.44536245 -0.30797362 0
-2.4567988 -0.46247947 -0.3079375 0
-2.3601491 -0.44429532 -0.30906224 0
-2.2766838 -0.46244171 -0.31041303 0
-2.1507475 -0.45261121 -0.31203729 0
-2.0216517 -0.45602569 -0.3138217 0
-1.9348679 -0.44686565 -0.31556505 0
-1.8478307 -0.45869449 -0.31524926 0
-1.7353461 -0.44408277 -0.31620634 0
-1.6603383 -0.43753397 -0.31757239 0
-1.5698167 -0.42572951 -0.31888059 0
-1.4735283 -0.41088992 -0.32051337 0
1.1903713 -0.47445703 -0.34336078 0
1.2567065 -0.44941467 -0.34702101 0
1.3592603 -0.45356759 -0.34832692 0
1.4330318 -0.45872793 -0.34809789 0
1.5467459 -0.45001426 -0.34859279 0
1.6598246 -0.43484059 -0.35115099 0
1.7528769 -0.45374313 -0.35263234 0
1.8369961 -0.45601511 -0.35280794 0
1.9421961 -0.44967207 -0.35392708 0
2.0504644 -0.44680148 -0.35478994 0
2.1691527 -0.46612194 -0.3548483 0
2.2292285 -0.42974052 -0.35701737 0
2.3495088 -0.45276555 -0.35798821 0
2.4812124 -0.44868049 -0.3597804 0
2.5720344 -0.4461419 -0.36055723 0
2.6573153 -0.44142815 -0.36112294 0
2.7436812 -0.45577121 -0.36188015 0
2.8316543 -0.44956976 -0.36287448 0
2.9245367 -0.44285005 -0.36369333 0
-3.3072219 -0.38034892 -0.30030474 0
-3.221333 -0.34712487 -0.30116153 0
-3.1318731 -0.33748436 -0.3021968 0
-3.0404224 -0.34966826 -0.30341265 0
-2.9483285 -0.36048022 -0.30451939 0
-2.858963 -0.34955406 -0.30550361 0
-2.7640572 -0.35799834 -0.30631909 0
-2.6747124 -0.34642443 -0.30723062 0
-2.5413771 -0.33857429 -0.3088364 0
-2.4809906 -0.3679966 -0.30959937 0
-2.3634129 -0.34059805 -0.3106578 0
-2.2505746 -0.3575373 -0.31148887 0
-2.1384387 -0.35838845 -0.3121582 0
-2.035732 -0.35313463 -0.31314149 0
-1.9403657 -0.34705293 -0.31400999 0
-1.8443257 -0.36375114 -0.31511793 0
-1.7541416 -0.34329343 -0.31597346 0
-1.6394025 -0.33921832 -0.31761271 0
-1.577749 -0.35833862 -0.31719607 0
-1.4507835 -0.34887928 -0.31884652 0
-1.3446624 -0.33784735 -0.3201324 0
-1.2914534 -0.30102652 -0.32008243 0
1.2475004 -0.34785262 -0.34712151 0
1.3489846 -0.3506076 -0.34749296 0
1.4666786 -0.35282248 -0.3492381 0
1.5523133 -0.35001025 -0.35083327 0
1.6293123 -0.35517412 -0.35157263 0
1.7546237 -0.35746357 -0.35210893 0
1.859817 -0.35022423 -0.35289037 0
1.9367601 -0.35023332 -0.35328832 0
2.0357141 -0.3561717 -0.35472456 0
2.1551414 -0.351733 -0.35627788 0
2.2200503 -0.3316626 -0.35587302 0
2.343025 -0.34786534 -0.35711032 0
2.4652381 -0.3548415 -0.35896355 0
2.5730917 -0.35199991 -0.35985985 0
2.6623185 -0.34479219 -0.36083031 0
2.7493885 -0.35607016 -0.36186212 0
2.8411129 -0.34728387 -0.3628974 0
2.9366908 -0.35045236 -0.36413831 0
-3.3419335 -0.23957483 -0.30106333 0
-3.2430789 -0.25577489 -0.30157265 0
-3.1534986 -0.24870843 -0.30277333 0
-3.0639186 -0.24164197 -0.30397403 0
-2.968354 -0.25544882 -0.30486348 0
-2.8601356 -0.23605961 -0.30661932 0
-2.7818079 -0.25953296 -0.30656394 0
-2.6639192 -0.24227029 -0.30815706 0
-2.5438335 -0.26320514 -0.30919498 0
-2.3018379 -0.29816225 -0.31131658 0
-2.2182205 -0.2873311 -0.31203827 0
-2.134603 -0.27649993 -0.31275994 0
-2.0535171 -0.28098595 -0.31400597 0
-1.9702411 -0.2695944 -0.31497094 0
-1.846091 -0.29307404 -0.31534016 0
-1.7694755 -0.280911 -0.31626007 0
-1.637491 -0.27430773 -0.31639895 0
-1.5467222 -0.27974918 -0.3182776 0
-1.4386219 -0.27079079 -0.32023823 0
-1.3507094 -0.26095131 -0.32129642 0
-1.2473246 -0.25657168 -0.32049456 0
-1.1727619 -0.23820862 -0.32072243 0
1.2724793 -0.24894221 -0.34749392 0
1.3448617 -0.24319072 -0.34861574 0
1.4633803 -0.25511324 -0.34951138 0
1.534628 -0.23814382 -0.35023549 0
1.6444489 -0.24898925 -0.35068074 0
1.7683715 -0.25701529 -0.35200962 0
1.8538114 -0.24450831 -0.35339424 0
1.9597573 -0.25385511 -0.35385776 0
2.0428345 -0.24978013 -0.35457245 0
2.1234837 -0.2596364 -0.35520068 0
2.2293444 -0.24022314 -0.35679325 0
2.3274605 -0.25080293 -0.35778436 0
2.4146206 -0.26019645 -0.35866204 0
2.5471239 -0.25604782 -0.35974178 0
2.6617427 -0.23894088 -0.36121184 0
2.7688904 -0.25831002 -0.36206469 0
2.8589518 -0.24609393 -0.36285275 0
2.9485559 -0.25380051 -0.36365288 0
-3.4199104 -0.19601291 -0.30032486 0
-3.3229117 -0.16661747 -0.30101645 0
-3.2329004 -0.16210437 -0.30189568 0
-3.142889 -0.15759128 -0.30277488 0
-3.0528779 -0.15307818 -0.30365407 0
-2.9628665 -0.1485651 -0.3045333 0
-2.8728552 -0.144052 -0.30541253 0
-2.7600639 -0.15789124 -0.30740675 0
-2.6432357 -0.14384949 -0.30826077 0
-2.5202858 -0.14458136 -0.3099817 0
1.287641 -0.15364954 -0.34757498 0
1.3497415 -0.1422231 -0.34879044 0
1.4616042 -0.15529671 -0.34860739 0
1.5400044 -0.14760804 -0.34972498 0
1.6572583 -0.14257753 -0.35111746 0
1.7451941 -0.15796025 -0.35203892 0
1.8274112 -0.15414447 -0.35313863 0
1.973425 -0.15564823 -0.35495725 0
2.0561194 -0.14736989 -0.35594794 0
2.1375544 -0.15320574 -0.35688752 0
2.2469971 -0.1449084 -0.35854861 0
2.3473923 -0.15138182 -0.35949174 0
2.4348276 -0.15702067 -0.36027399 0
2.5222628 -0.16265951 -0.36105621 0
2.6415441 -0.14496301 -0.36234108 0
2.7605581 -0.16471231 -0.363655 0
2.876828 -0.14425583 -0.36511981 0
2.9712794 -0.14893727 -0.36607337 0
-3.4309611 -0.049118035 -0.30048287 0
-3.3361585 -0.071633101 -0.30076408 0
-3.246201 -0.069701843 -0.30182356 0
-3.1562436 -0.067770585 -0.30288303 0
-3.0662861 -0.065839335 -0.3039425 0
-2.9763288 -0.063908085 -0.30500197 0
-2.8863711 -0.061976831 -0.30606139 0
-2.7514353 -0.059079949 -0.30765063 0
-2.6164989 -0.056183074 -0.3092398 0
-2.5265415 -0.05425182 -0.31029928 0
1.296382 -0.055745706 -0.34772941 0
1.3579525 -0.04232708 -0.34930041 0
1.4460949 -0.048161283 -0.3494238 0
1.5296371 -0.053368106 -0.35028824 0
1.6647646 -0.047581602 -0.35178721 0
1.7400591 -0.049744241 -0.35279983 0
1.8301603 -0.055399418 -0.35396191 0
1.9564686 -0.056036662 -0.35541105 0
2.0655348 -0.04439351 -0.3564142 0
2.147001 -0.046142161 -0.35718611 0
2.2503998 -0.048352156 -0.35816717 0
2.3491554 -0.0504677 -0.35924649 0
2.4369442 -0.052352566 -0.36022118 0
2.5247333 -0.05423744 -0.36119589 0
2.6471639 -0.049128376 -0.36236939 0
2.7667465 -0.06910567 -0.36411509 0
2.8746076 -0.0411461 -0.36451036 0
2.9698555 -0.042461406 -0.36552599 0
-3.4336624 0.049095947 -0.30149397 0
-3.3326766 0.047630012 -0.30238533 0
-3.2424624 0.04633807 -0.30318269 0
-3.1522484 0.045046136 -0.30398002 0
-3.0620344 0.043754194 -0.30477735 0
-2.9718201 0.042462256 -0.30557469 0
-2.861491 0.030879594 -0.30680108 0
-2.7460737 0.03957317 -0.30756071 0
-2.63129 0.047244448 -0.30834231 0
-2.5207496 0.036002554 -0.30956134 0
1.2908834 0.033884581 -0.34606484 0
1.3483607 0.053692851 -0.34902358 0
1.4510663 0.048959941 -0.3487615 0
1.5308619 0.053446282 -0.35034394 0
1.6633937 0.047634922 -0.35138556 0
1.7385862 0.049790885 -0.35233194 0
1.8283247 0.050138984 -0.35332072 0
1.9541231 0.060527209 -0.35523522 0
2.0612171 0.044291899 -0.35625768 0
2.1429915 0.046048597 -0.35731724 0
2.251833 0.048400674 -0.35872936 0
2.3530157 0.050577592 -0.35973167 0
2.4406652 0.052456815 -0.36055771 0
2.5283146 0.054336041 -0.36138377 0
2.6367176 0.046990167 -0.36256623 0
2.7480197 0.058722399 -0.36349419 0
2.877897 0.041215576 -0.36520642 0
2.9746389 0.042554259 -0.36627284 0
-3.4364548 0.17229892 -0.30154461 0
-3.3412497 0.16755018 -0.30255759 0
-3.2512562 0.1630386 -0.3035183 0
-3.161263 0.15852702 -0.304479 0
-3.0712695 0.15401542 -0.30543968 0
-2.981276 0.14950386 -0.30640036 0
-2.8622882 0.15023786 -0.30776826 0
-2.7306886 0.14646541 -0.30879551 0
-2.6182101 0.15005486 -0.31000105 0
-2.5282621 0.1448999 -0.31096169 0
1.2905625 0.14847635 -0.3481898 0
1.3592309 0.14648393 -0.34887156 0
1.4529772 0.15658751 -0.35017046 0
1.5411111 0.14846981 -0.35178623 0
1.6656754 0.14335644 -0.35234505 0
1.7399844 0.14975858 -0.35272804 0
1.8318294 0.1540069 -0.35331747 0
1.9725648 0.15561096 -0.35493469 0
2.0565281 0.1474002 -0.35614091 0
2.1380258 0.15324461 -0.35713053 0
2.2463906 0.14491004 -0.35837427 0
2.3464167 0.15137339 -0.35952759 0
2.4340887 0.15702809 -0.36053744 0
2.5410662 0.16391769 -0.36142009 0
2.6497159 0.15213503 -0.36235642 0
2.7641585 0.13852812 -0.36360371 0
2.8729661 0.14396708 -0.36447084 0
2.9662993 0.1572189 -0.36565083 0
-3.4321492 0.27080858 -0.30162609 0
-3.338181 0.26339629 -0.30266595 0
-3.2483759 0.25631207 -0.30365974 0
-3.1585708 0.24922788 -0.30465353 0
-3.0687656 0.24214366 -0.30564734 0
-2.976258 0.25625625 -0.30647147 0
-2.8666368 0.24681118 -0.30802637 0
-2.7506914 0.24658258 -0.30893967 0
-2.6160374 0.26292449 -0.31078169 0
-2.526417 0.2539151 -0.31178862 0
-2.3137019 0.29969901 -0.31228772 0
-2.2303205 0.28889844 -0.31327802 0
-2.1469393 0.27809787 -0.31426829 0
-2.0565205 0.28132713 -0.3145476 0
-1.973127 0.26991692 -0.31543073 0
-1.8392155 0.2919825 -0.3160806 0
-1.7614895 0.27964321 -0.31608409 0
-1.6428649 0.27529669 -0.31762108 0
-1.5481547 0.27995044 -0.31890517 0
-1.4464693 0.27233386 -0.32201883 0
-1.3548928 0.26431862 -0.32316473 0
-1.2484182 0.25359613 -0.32359383 0
-1.1821203 0.24894685 -0.3237921 0
1.2726731 0.25850472 -0.34801915 0
1.3417773 0.2394141 -0.35037002 0
1.4658369 0.24751681 -0.34991565 0
1.5362866 0.2549789 -0.35145655 0
