# .PCD v0.7 - Point Cloud Data file format
VERSION 0.7
FIELDS x y z intensity
SIZE 4 4 4 4
TYPE F F F F
COUNT 1 1 1 1
WIDTH 1392
HEIGHT 1
VIEWPOINT 0 0 0 1 0 0 0
POINTS 1392
DATA ascii
-24.429083 -7.9640908 6.8896446 15
-24.452734 -7.3947945 6.8492799 15
-24.566528 20.776762 7.4812641 14
-24.517895 20.733454 8.6576023 15
-24.030394 21.545273 1.7462187 9
-24.370152 21.225725 2.8807089 10
-24.327963 21.186859 4.0145397 11
-24.286057 21.148233 5.1543074 12
-24.243015 21.108603 6.3025928 13
-24.369839 -8.7247496 6.9418602 15
-24.388494 -8.3392305 6.9117923 15
-24.194269 21.063976 7.4608335 14
-24.15679 21.029137 8.6374197 15
-23.995329 21.5117 2.8742759 10
-23.633181 21.805941 2.8697729 10
-23.950972 21.469788 4.0044274 11
-23.920404 21.440233 5.1431379 12
-23.822649 21.34823 7.4416075 14
-23.787939 21.314884 8.6156902 15
-23.296793 22.124197 1.7417542 9
-23.579922 21.754625 3.9958534 11
-23.207079 22.034613 3.9875314 11
-23.544838 21.720068 5.130549 12
-23.500002 21.676498 6.2719483 13
-23.457333 21.634905 7.425384 14
-23.418098 21.596458 8.5947838 15
-22.928339 22.407904 1.7397873 9
-22.890661 22.368866 2.8598044 10
-23.049559 -26.008631 4.3254137 11
-22.997364 22.148436 5.1165838 12
-23.00836 -25.958467 5.5529108 12
-23.126072 21.953257 6.2572651 13
-22.948196 -25.88689 6.7840438 13
-23.091904 21.918564 7.4101963 14
-22.891472 -25.819166 8.0267773 14
-22.848471 -25.766874 9.289216 15
-22.561319 22.690403 1.7381927 9
-22.520144 22.646751 2.8555336 10
-22.485455 22.609621 3.9768195 11
-22.767584 22.241882 6.2476749 13
-22.406008 22.525188 6.2382107 13
-22.686243 22.157816 8.5594978 15
-22.198093 22.974415 1.7371588 9
-22.151726 22.924166 2.8519514 10
-22.115723 22.884628 3.9708042 11
-22.354244 -25.964735 4.2663412 11
-22.080042 22.845421 5.0957756 12
-22.313967 -25.914253 5.4764395 12
-22.05221 22.814316 6.2319183 13
-22.263313 -25.851704 6.6924901 13
-22.374136 22.490835 7.387403 14
-22.207809 -25.783485 7.9179192 14
-22.321978 22.436052 8.5443687 15
-22.166388 -25.731573 9.163044 15
-21.830267 23.251522 1.7360468 9
-21.795992 23.212727 2.8504713 10
-21.756243 23.168097 3.9672623 11
-21.68881 -25.934824 4.2118611 11
-21.718166 23.125235 5.0900335 12
-21.648144 -25.882469 5.4055529 12
-21.68486 23.087435 6.2228031 13
-21.99544 22.753233 7.3711133 14
-21.647562 23.045357 7.3663206 14
-21.96974 22.724283 8.5351982 15
-21.607227 23.000019 8.5234365 15
-21.461899 23.525919 1.735167 9
-21.432865 23.491783 2.8485074 10
-21.389286 23.441696 3.9630024 11
-21.355421 23.402241 5.0849185 12
-21.328444 23.370319 6.2178411 13
-21.583288 -25.801184 6.6006212 13
-21.282871 23.317991 7.3570528 14
-21.538977 -25.744415 7.8123078 14
-21.24078 23.269447 8.5114632 15
-21.488871 -25.680681 9.0363388 15
-21.131365 23.843374 0.6241371 8
-21.107662 23.814301 1.735731 9
-21.053076 23.75037 2.8447711 10
-21.026327 23.717852 3.9601336 11
-21.030689 -25.893463 4.1577024 11
-20.993429 23.678385 5.0808334 12
-20.981131 -25.828697 5.3329182 12
-20.961905 23.64044 6.210968 13
-20.931995 -25.764425 6.5157609 13
-20.922308 23.59337 7.350421 14
-20.892063 -25.711456 7.7126336 14
-20.88673 23.550804 8.5058823 15
-20.849909 -25.655695 8.9234915 15
-20.788647 24.1451 0.62596273 8
-20.415956 24.411217 0.62700635 8
-20.751961 24.100138 1.7364997 9
-20.675821 24.006985 3.9603288 11
-20.634647 23.956791 5.0784087 12
-20.597927 23.911743 6.2058811 13
-20.527929 23.825579 8.4998693 15
-20.058588 24.694611 0.62863743 8
-20.387838 24.375219 1.7368842 9
-20.022762 24.6481 1.7375028 9
-20.050436 10.257093 2.7839127 11
-20.346327 24.3232 2.8459394 10
-20.104475 10.283697 3.5953705 12
-20.395542 -25.86054 4.1069841 11
-20.176468 10.319467 4.4240708 13
-20.281971 24.24147 5.0784349 12
-20.345367 -25.793142 5.2667646 12
-20.249226 10.355603 5.2699966 14
-20.308598 10.384873 6.1314025 15
-20.236401 24.184566 6.2026153 13
-20.30587 -25.739264 6.4370856 13
-20.204548 24.144041 7.342206 14
-20.257738 -25.6744 7.6156139 14
-20.168745 24.098755 8.4952135 15
-20.212305 -25.612913 8.8089476 15
-19.694735 24.969524 0.63018489 8
-19.91386 10.189263 1.1907351 9
-19.97986 10.222014 1.9819777 10
-19.987804 24.602663 2.8466325 10
-19.621002 24.871197 2.8466773 10
-19.951645 24.555737 3.958488 11
-19.762733 -25.810925 4.0556278 11
-19.619192 10.39058 5.1451907 14
-19.913462 24.50631 5.0754323 12
-19.723417 -25.755768 5.2028103 12
-19.672424 10.417675 5.9847431 15
-19.685015 -25.701778 6.3584466 13
-19.885834 24.469856 6.2038937 13
-19.627663 -25.623018 7.5181241 14
-19.855667 24.430252 7.3438144 14
-19.328817 25.24131 0.63179564 8
-19.312887 10.233545 1.1643605 9
-19.278435 10.571864 1.1722434 9
-19.294735 10.943338 1.1836212 9
-19.314501 11.323408 1.1956668 9
-19.33943 11.713622 1.2085067 9
-19.215714 11.637509 1.9888496 10
-19.298584 25.199389 1.7402563 9
-19.223347 12.021972 2.0083172 10
-19.423334 10.290011 2.7179534 11
-19.264597 25.152559 2.8488016 10
-19.487682 10.323059 3.5120847 12
-19.416273 24.975332 3.9607432 11
-19.55187 10.356002 4.3201432 13
-19.555428 24.783194 5.0760341 12
-19.200932 25.064503 5.0786009 12
-19.483959 24.687639 7.3383489 14
-19.597975 -25.580313 8.7022305 15
-19.463083 24.658646 8.4961605 15
-18.970005 25.522333 0.6337713 8
-19.152628 10.501813 1.930837 10
-19.168716 10.870764 1.9489325 10
-19.19556 11.252539 1.9688541 10
-18.942507 25.482872 1.7427199 9
-19.059517 10.989744 2.7229407 11
-19.088369 11.559211 2.7633326 11
-19.090569 11.937717 2.7891815 11
-18.903198 25.427517 2.8507829 10
-18.936607 10.736939 3.4687154 12
-18.947739 11.104995 3.500545 12
-18.958296 11.479265 3.5335512 12
-18.977121 11.865563 3.5694406 12
-18.873034 25.384466 3.9629974 11
-19.161777 -25.783781 4.0097141 11
-18.812202 10.665294 4.2244201 13
-18.81587 11.026561 4.261291 13
-18.831625 11.401381 4.3024502 13
-18.860474 11.791405 4.348259 13
-19.112253 -25.71331 5.140295 12
-18.847288 25.347351 5.0824952 12
-19.069645 10.450917 5.8472743 15
-19.071152 -25.654139 6.2803345 13
-19.167746 25.018682 6.2048554 13
-18.810616 25.295498 6.2078629 13
-19.043585 -25.613134 7.4363356 14
-19.135921 24.974619 7.3432479 14
-19.00115 -25.552084 8.6010809 15
-19.092505 24.915382 8.4913616 15
-18.609112 25.801029 0.63581878 8
-18.580706 25.759169 1.7450403 9
-18.546131 25.70875 2.8540401 10
-18.571058 -25.752213 3.9649143 11
-18.518423 25.667843 3.9672251 11
-18.515802 -25.671721 5.0803261 12
-18.690411 10.59513 4.9811087 14
-18.698833 10.956821 5.0256891 14
-18.699024 11.319903 5.0698533 14
-18.719427 11.701991 5.1213908 14
-18.587004 10.89013 5.7946029 15
-18.573296 11.24259 5.8409963 15
-18.594915 11.622912 5.9006433 15
-18.489626 -25.631517 6.2112164 13
-18.456396 25.576811 6.2132039 13
-18.444042 -25.564371 7.3466253 14
-18.593119 25.378527 7.3457541 14
-18.73151 25.18399 8.4924335 15
-18.255388 26.090731 0.63826317 8
-18.220514 26.038389 1.7479045 9
-18.181959 25.980782 2.8568401 10
-18.131321 25.903378 5.0913496 12
-18.095806 25.85008 6.2178054 13
-18.397835 -25.496325 8.4946566 15
-18.384966 25.472651 8.5019474 15
-18.017244 25.732643 8.5035639 15
-17.897305 26.375778 0.64071608 8
-17.86219 26.321508 1.7513663 9
-17.827995 26.268595 2.8619237 10
-17.974461 -25.693678 3.9177363 11
-17.792622 26.213936 3.9748189 11
-17.941221 -25.642258 5.0250006 12
-17.759844 26.163094 5.0936894 12
-17.906393 -25.588535 6.1399016 13
-17.734447 26.123098 6.2235608 13
-17.872808 -25.536551 7.2662129 14
-17.695187 26.062662 7.359993 14
-17.825138 -25.464399 8.4000063 15
-17.676928 26.033131 8.5201712 15
-17.519121 26.63208 0.64259678 8
-17.490028 26.585316 1.7538824 9
-17.4533 -25.730362 2.7884674 10
-17.538609 -11.683091 2.6041327 11
-17.457586 26.533466 2.8650537 10
-17.484774 -11.645784 3.3441963 12
-17.413601 -25.667915 3.877248 11
-17.432358 26.492571 3.9806118 11
-17.433733 -11.61033 4.0885873 13
-17.373627 -25.605064 4.9703064 12
-17.377947 -11.571701 4.8374996 14
-17.402205 26.444183 5.1011796 12
-17.314873 -11.528208 5.5914984 15
-17.344435 -25.558054 6.0742321 13
-17.369236 26.391487 6.2294159 13
-17.311508 -25.505503 7.1879749 14
-17.340866 26.345753 7.3708777 14
-17.27504 -25.447683 8.313921 15
-17.309397 26.295279 8.5258036 15
-17.16543 26.927145 0.64553159 8
-17.124037 26.859653 1.7574269 9
-16.950201 -11.645418 2.5422001 11
-16.904087 -11.612283 3.2655535 12
-16.849266 -11.573166 3.9909449 13
-17.069315 26.768705 3.9867644 11
-17.047853 26.732475 5.1109781 12
-16.979015 26.619278 7.3804398 14
-16.946941 26.566311 8.5359497 15
-16.404676 -3.4593177 1.4675896 10
-16.423576 -2.9743509 1.4606817 10
-16.469521 -2.6182151 1.4591596 10
-16.466608 -2.2559781 1.454134 10
-16.495741 -1.7800353 1.451444 10
-16.764791 27.146824 1.7621377 9
-16.430752 -1.6537755 2.0274651 11
-16.743109 27.109146 2.8778558 10
-16.697889 27.033344 3.9919608 11
-16.788189 -11.529737 4.7197967 14
-16.6803 27.002268 5.1181765 12
-16.728331 -11.487133 5.4556599 15
-16.642824 26.938984 6.2471757 13
-16.621952 26.902544 7.3940516 14
-16.339724 -11.57579 1.7692611 10
-16.315804 -3.4402711 2.0482416 11
-16.344374 -2.9596753 2.0399594 11
-16.35955 -2.60045 2.0341222 11
-16.383957 -2.2444847 2.0305643 11
-16.395035 -1.8878731 2.0262511 11
-16.395103 -11.613561 2.4845703 11
-16.218319 -3.4192364 2.6261199 12
-16.250328 -2.9423549 2.6161876 12
-16.27457 -2.586658 2.6102304 12
-16.299814 -2.2326515 2.605864 12
-16.319981 -1.7606875 2.5997789 12
-16.343754 -11.575736 3.1899579 12
-16.160873 -2.925817 3.1930165 13
-16.170847 -2.5698874 3.1830115 13
-16.206459 -2.2196951 3.1797924 13
-16.236691 -1.7515241 3.1743877 13
-16.372252 27.378828 2.8831069 10
-16.002645 27.653042 2.8893614 10
-16.136219 -3.4015231 3.2064834 13
-16.288845 -11.535378 3.8979015 13
-16.047262 -3.2624013 3.7814331 14
-16.067028 -3.0273926 3.7752817 14
-16.086889 -2.6745985 3.7654133 14
-16.113516 -2.2067218 3.7550287 14
-16.14258 -1.7412198 3.7484462 14
-16.011707 -2.5440197 4.344481 15
-16.026129 -2.1944675 4.3345118 15
-16.048738 -1.7308859 4.3252411 15
-16.340588 27.323278 4.0016179 11
-16.243616 -11.501868 4.6135225 14
-16.192383 -11.464088 5.3348765 15
-16.284554 27.224346 6.2604475 13
-16.248814 27.161926 7.4024525 14
-16.223928 27.11762 8.5639315 15
-15.76122 -13.340147 1.8302002 10
-15.798751 -12.987778 1.8117535 10
-15.814531 -12.625196 1.7916517 10
-15.830704 -12.270675 1.7724284 10
-15.859483 -11.932974 1.7553974 10
-15.656474 -13.249792 2.5421727 11
-15.676781 -12.885871 2.5142198 11
-15.70592 -12.536899 2.4888406 11
-15.728859 -12.190198 2.4635837 11
-15.74887 -11.848263 2.4389443 11
-15.611252 -12.459739 3.1851108 12
-15.633813 -12.114993 3.1530063 12
-15.653883 -11.775316 3.1217678 12
-15.642119 27.946556 2.8981361 10
-15.6776 -37.571114 3.6869488 10
-15.981455 -3.0109229 4.358242 15
-15.981565 -2.7744992 4.3468041 15
-15.795923 27.750635 4.0163808 11
-15.647106 -37.491108 5.1141419 11
-15.954902 27.565319 5.1397858 12
-15.91491 27.493567 6.2711225 13
-15.617366 -37.412888 6.5482454 12
-15.891337 27.450172 7.4200592 14
-15.866426 27.404428 8.5837164 15
-15.270454 28.224314 2.9057708 10
-15.555892 -13.162962 3.2514994 12
-15.559974 -12.788215 3.2127068 12
-15.471217 -13.089594 3.963516 13
-15.474912 -12.716646 3.9163566 13
-15.512664 -12.199405 3.8573885 13
-15.553982 -11.698669 3.8026183 13
-15.338538 -12.975626 4.6628571 14
-15.368698 -12.627701 4.6155119 14
-15.389996 -12.279951 4.5675859 14
-15.435776 -11.783266 4.5037527 14
-15.355762 -11.546568 5.1681051 15
-15.587674 27.84404 5.1514177 12
-15.217179 28.120586 5.1635461 12
-15.243712 -12.893665 5.374649 15
-15.265528 -12.541245 5.3173895 15
-15.29269 -12.200681 5.2643957 15
-15.31904 -11.866427 5.2134089 15
-15.563302 27.797848 6.2908664 13
-15.527467 27.731146 7.4369707 14
-15.500557 27.680363 8.6015797 15
-14.903172 28.514652 2.9151959 10
-15.027594 -37.518456 3.6628523 10
-14.877899 28.463667 4.0443077 11
-15.001828 -37.447083 5.0808754 11
-14.84655 28.401041 5.1772833 12
-15.19441 28.075851 6.3057113 13
-14.976631 -37.377098 6.5063453 12
-15.168717 28.025677 7.4587693 14
-14.951869 -37.308151 7.9429922 13
-15.130004 27.951412 8.6194382 15
-14.922645 -37.228001 9.3916302 14
-14.896107 -37.154449 10.860083 15
-14.525915 28.790766 2.9236548 10
-14.498187 28.733173 4.0544825 11
-14.472529 28.67968 5.1915665 12
-14.454707 28.641691 6.3408279 13
-14.789643 28.286814 7.4729624 14
-14.762956 28.23303 8.642045 15
-14.223176 22.312048 -0.38882598 7
-14.155077 29.085114 2.9344614 10
-14.388135 -37.470047 3.6401913 10
-14.127874 29.026585 4.0687222 11
-14.365429 -37.403744 5.0491185 11
-14.073583 28.909719 6.35671 13
-14.341456 -37.334118 6.4650097 12
-14.046811 28.852026 7.5165434 14
-14.314114 -37.255665 7.889936 13
-14.397044 28.521984 8.668334 15
-14.289668 -37.184681 9.3307076 14
-14.264259 -37.111095 10.789205 15
-13.725029 -0.29482144 0.71936542 9
-13.861972 3.8227961e-05 0.72645575 9
-13.779637 29.376577 2.9454546 10
-13.762019 -37.43512 3.6198192 10
-13.760017 29.33213 4.0853114 11
-13.738121 -37.36282 5.0190601 11
-13.72413 29.25297 5.2256455 12
-13.697217 -25.322216 5.6746392 13
-13.701269 29.201572 6.3788977 13
-13.713226 -37.287769 6.424861 12
-13.679645 -25.285385 6.7168698 14
-13.677816 29.148888 7.5439019 14
-13.688753 -37.213825 7.8413095 13
-13.652029 -25.229948 7.7676492 15
-13.651747 29.090588 8.7223911 15
-13.66939 -37.153683 9.2754288 14
-13.642421 -37.072784 10.722757 15
-13.315356 -1.0516304 0.69982868 9
-13.510331 -0.67801493 0.70876741 9
-13.396905 29.65918 2.9560428 10
-13.375201 29.608511 4.0985031 11
-13.346432 29.542181 5.2444296 12
-13.226591 -25.313158 5.6313853 13
-13.326344 29.495058 6.4024734 13
-13.295812 29.424776 7.5670719 14
-13.275529 29.377161 8.7522526 15
-12.99796 17.486643 -0.32646218 7
-12.827389 -2.0394561 0.68083459 9
-12.987211 -1.6847519 0.68629515 9
-13.126742 -1.4163015 0.69182706 9
-12.822476 -25.434734 2.5707788 10
-13.142507 -37.397472 3.6001322 10
-12.993402 29.898592 4.1142707 11
-13.122993 -37.334503 4.9920206 11
-12.970259 29.842709 5.2660637 12
-13.098413 -37.257095 6.3891253 12
-13.198481 -25.254967 6.6597075 14
-12.944881 29.781656 6.4255924 13
-12.919492 29.720562 7.5965972 14
-13.076891 -37.188328 7.7982159 13
-13.179606 -25.214394 7.7057867 15
-12.896832 29.66571 8.7841282 15
-13.053817 -37.11507 9.2207279 14
-13.026762 -37.030396 10.658027 15
-12.438863 -2.9039354 0.67026311 9
-12.536609 -2.6436954 0.6720736 9
-12.717128 -2.3031235 0.67764276 9
-12.679087 30.366537 0.68733215 8
-12.655727 30.308004 1.8342121 9
-12.626295 30.234928 2.9797328 10
-12.526937 -37.349876 3.5804162 10
-12.793733 -25.373398 3.5683479 11
-12.613719 30.202232 4.1325603 11
-12.510176 -37.292305 4.9644179 11
-12.746259 -25.270502 5.5825105 13
-12.583965 30.12837 5.2859225 12
-12.491495 -37.228981 6.3554869 12
-12.721288 -25.216551 6.6026659 14
-12.565014 30.08036 6.4523563 13
-12.465995 -37.145283 7.7534795 13
-12.69875 -25.167362 7.6368737 15
-12.537874 30.012716 7.6264095 14
-12.447838 -37.083378 9.1701641 14
-12.512055 29.948202 8.8156471 15
-12.424591 -37.00621 10.601328 15
-12.131046 14.088347 -0.28387997 7
-12.041362 -3.8332436 0.66433358 9
-12.22416 -3.4139874 0.66665173 9
-12.357666 -3.0724337 0.66838104 9
-12.290686 30.665245 0.69182104 8
-12.262869 30.593267 1.8424374 9
-12.345798 -25.388636 2.5497715 10
-12.243538 30.542484 2.9942348 10
-12.339902 -25.37211 3.544733 11
-12.223824 30.490736 4.1494398 11
-12.303248 -25.292351 4.5358996 12
-12.283625 -25.247545 5.5397978 13
-12.200655 30.430349 5.3094921 12
-12.262675 -25.19998 6.5534687 14
-12.236288 -25.141188 7.5767913 15
-12.157062 30.316359 7.6603537 14
-12.127115 30.238985 8.8510361 15
-11.633821 -4.9378176 0.66642207 9
-11.758515 -4.5975966 0.66510165 9
-11.916997 -4.1735783 0.66435981 9
-11.896594 30.959747 0.69631958 8
-11.875341 30.901905 1.8523597 9
-11.78008 -27.133867 2.6773009 10
-11.838431 -26.232327 2.6030002 10
-11.901202 -25.394089 2.5347168 10
-11.851352 30.836941 3.0079207 10
-11.923599 -37.317871 3.5630996 10
-11.709372 -25.941864 3.5795925 11
-11.871926 -25.327188 3.516115 11
-11.633986 -26.792677 3.6754606 11
-11.851379 -25.278879 4.5043573 12
-11.903554 -37.247391 4.937726 11
-11.825165 -25.218451 5.4974694 13
-11.885106 -37.181854 6.32023 12
-11.809527 -25.180527 6.5055499 14
-11.791934 30.674654 6.5082917 13
-11.781566 -25.116276 7.5194669 15
-11.859013 -37.092373 7.7086983 13
-11.842361 -37.032318 9.1171875 14
-11.824428 -36.968151 10.543376 15
-11.524604 31.327961 -0.46266666 7
-11.458748 11.524016 -0.25270283 7
-11.228021 -6.2650237 0.68114233 9
-11.334331 -5.904551 0.67612433 9
-11.493014 -5.3720913 0.66992879 9
-11.583134 -5.1135187 0.66801667 9
-11.506745 31.276905 0.70144379 8
-11.484357 31.213552 1.8627572 9
-11.461735 31.149561 3.0238602 10
-11.326106 -37.283993 3.5464821 10
-11.438529 31.083969 4.187407 11
-11.509956 -26.502337 4.6653419 12
-11.576409 -25.64282 4.5409813 12
-11.307523 -37.21489 4.9139156 11
-11.421189 31.034321 5.359148 12
-11.37275 -26.181728 5.6377511 13
-11.289028 -37.146049 6.2884917 12
-11.244482 -25.881739 6.6043997 14
-11.396765 30.965389 6.5364647 13
-11.376425 30.907537 7.7278147 14
-11.248446 -36.996326 9.0702419 14
-11.230327 -36.928467 10.48764 15
-10.923153 9.514308 -0.22917828 7
-10.831088 -7.7926846 0.71118724 9
-10.923692 -7.3932161 0.70190257 9
-11.039762 -6.9078803 0.69162351 9
-11.120423 -6.6299839 0.6868403 9
-11.100354 31.561115 0.70593935 8
-11.084047 31.5123 1.8726788 9
-11.063526 31.451488 3.0392363 10
-11.038964 31.379177 4.2072086 11
-11.025242 31.33769 5.3854866 12
-11.001249 31.266972 6.5679741 13
-11.111658 -25.571312 7.5609117 15
-10.982796 31.211975 7.765605 14
-10.720037 31.937447 -0.46341375 7
-10.500578 7.8986373 -0.21128759 7
-10.404551 0.29838181 0.18181865 8
-10.542415 0.60590333 0.18467373 8
-10.673995 0.92026067 0.18760073 8
-10.583425 -8.9599991 0.7426486 9
-10.652055 -8.6322126 0.73330623 9
-10.73595 -8.201499 0.72131586 9
-10.700442 31.87665 0.71124822 8
-10.684588 31.827023 1.8838454 9
-10.732249 -37.241394 3.5298901 10
-10.637315 31.681345 4.2286172 11
-10.713816 -37.169315 4.8895798 11
-10.622225 31.633963 5.4114656 12
-10.598545 31.56097 6.5989437 13
-10.678592 -37.030708 7.6341057 13
-10.585756 31.520405 7.805613 14
-10.312974 32.249653 -0.46400672 7
-10.12775 6.5382428 -0.19678754 7
-10.071443 -0.50556773 0.17588273 8
-10.200076 -0.21918812 0.17800233 8
-10.316216 0.074201152 0.18009694 8
-10.256417 32.065739 3.0724404 10
-10.234969 31.996313 4.2524018 11
-10.223025 31.956596 5.4428096 12
-10.11206 -37.063183 6.2277393 12
-10.200422 31.88353 6.6369262 13
-10.095864 -36.99535 7.5986805 13
-10.1808 31.819761 7.8446126 14
-10.078835 -36.924377 8.9830589 14
-10.061622 -36.852631 10.384958 15
-9.9040031 32.572678 -0.46483219 7
-9.7964344 5.3722925 -0.18491898 7
-9.6122646 -1.6700938 0.1704817 8
-9.7319508 -1.3689551 0.17157429 8
-9.8662605 -1.0286348 0.17306063 8
-9.9894228 -0.71722722 0.17466754 8
-9.8884706 32.519321 0.72245681 8
-9.8701515 32.456791 1.9070851 9
-9.8461075 32.37542 3.0900176 10
-9.8288651 32.316433 4.2775383 11
-9.8112202 32.256104 5.4710722 12
-9.774354 32.130203 7.8875966 14
-9.3448639 32.396492 -1.636816 6
-9.4883823 32.892323 -0.46568093 7
-9.2554874 3.4659324 -0.16742556 7
-9.5149822 4.363297 -0.17540684 7
-9.2503796 -2.6195405 0.16896445 8
-9.3916931 -2.2281933 0.16916613 8
-9.5406675 -1.8697118 0.17003702 8
-9.4719772 32.83326 0.72806442 8
-9.4526968 32.764221 1.9187177 9
-9.4311743 32.687408 3.1083055 10
-9.4158287 32.632015 4.3027458 11
-9.3987303 32.57053 5.5027442 12
-9.5339527 -37.028008 6.2006688 12
-9.381897 32.509956 6.712132 13
-9.5199718 -36.965 7.5660977 13
-9.3618708 32.438278 7.9312563 14
-9.5004911 -36.880562 8.9408293 14
-9.4863701 -36.816811 10.337992 15
-9.0809937 24.682859 -1.2836319 6
-9.0649309 33.204178 -0.46649733 7
-8.8011503 1.9219695 -0.15523367 7
-9.0187025 2.6584933 -0.16077489 7
-8.858408 -3.685739 0.17042981 8
-8.9763174 -3.3626802 0.16964789 8
-9.1053829 -3.0071819 0.16909686 8
-9.050436 33.148975 0.73381978 8
-9.0302429 33.072906 1.9307253 9
-9.0161772 33.019295 3.1289725 10
-9.0004568 32.959618 4.330214 11
-8.980237 32.883438 5.5350323 12
-8.9588575 -36.983589 6.173512 12
-8.9635906 32.820332 6.7507486 13
-8.9461956 -36.922352 7.5327845 13
-8.9438133 32.745743 7.9760447 14
-8.934268 -36.864033 8.90732 14
-8.9187517 -36.790817 10.296227 15
-8.6397467 33.531067 -0.46760261 7
-8.5807562 1.2384741 -0.15029934 7
-8.4228277 -4.9411082 0.17652038 8
-8.5093908 -4.6298027 0.17432539 8
-8.6706915 -4.2064176 0.17236842 8
-8.7905378 -3.8813787 0.17109968 8
-8.6244907 33.469875 0.73981065 8
-8.4710712 -13.730837 0.88408083 9
-8.5761414 -13.677696 1.4508411 10
-8.6090813 33.408092 1.9445935 9
-8.4229431 -13.648567 2.0083127 11
-8.5946541 33.35014 3.1500361 10
-8.5729179 33.263794 4.3553028 11
-8.5579872 33.203854 5.5694771 12
-8.5427942 33.142891 6.7929583 13
-8.5277596 33.082531 8.0292435 14
-8.0149069 6.9807539 -0.53959191 6
-8.1317244 8.1773386 -0.58234727 6
-8.2645655 9.5968895 -0.63601273 6
-8.3982849 11.296749 -0.7028873 6
-8.2121849 33.873779 -0.46900854 7
-8.1790581 2.1429138e-05 -0.14277664 7
-8.3600922 0.60024351 -0.14593554 7
-8.035924 -6.0492744 0.18520011 8
-8.1208944 -5.8002992 0.18298212 8
-8.2510376 -5.4146066 0.17978093 8
-8.3369579 -5.1351013 0.17757262 8
-8.1952057 33.801895 0.74616373 8
-8.1581621 -13.883522 0.88393736 9
-8.1228943 -13.821304 1.4427484 10
-8.1817274 33.74448 1.9588374 9
-8.1885653 -13.704842 2.0001135 11
-8.2787981 -13.630083 2.5657187 12
-8.143961 33.585022 4.3833332 11
-8.1345882 33.544533 5.6082077 12
-8.3923798 -36.95401 6.1502585 12
-8.1175337 33.472324 6.8376627 13
-8.378026 -36.881554 7.5016036 13
-8.1004524 33.399975 8.0790367 14
-8.3670807 -36.824001 8.8701916 14
-8.3527069 -36.751236 10.253053 15
-7.6600647 4.2007327 -0.44988552 6
-7.7647281 5.0126467 -0.47384369 6
-7.8880849 5.9332805 -0.50364888 6
-7.6141901 -1.6633037 -0.13565299 7
-7.7999725 -1.1260256 -0.13754827 7
-7.9897852 -0.57371831 -0.13994512 7
-7.6456823 -7.2671924 0.19836628 8
-7.7174535 -7.0260406 0.19546363 8
-7.8589253 -6.607657 0.19089492 8
-7.9636807 -6.268024 0.18731514 8
-7.8304167 -14.247067 0.89443868 9
-7.7126222 -14.270846 1.4623754 10
-7.982893 -13.806619 1.9990606 11
-7.7404237 34.048759 1.9715322 9
-7.6573234 -14.166247 2.0205328 11
-7.8134475 -13.972256 2.0076249 11
-7.6066332 -14.070182 2.5768626 12
-7.8569465 -13.814533 2.5589414 12
-7.7329612 34.014297 3.1939058 10
-7.8385105 -36.972122 4.7892351 11
-7.7026229 33.877487 5.6465411 12
-7.828362 -36.914749 6.1267939 12
-7.6832619 33.790615 6.8812008 13
-7.8132606 -36.833961 7.4707675 13
-7.8034649 -36.778061 8.8336906 14
-7.7904229 -36.706764 10.210884 15
-7.3480639 34.61552 -1.7092993 6
-7.4122519 2.7757795 -0.41068122 6
-7.5404019 3.4578722 -0.42889637 6
-7.3316498 34.536724 -0.47174141 7
-7.2263269 -2.7075367 -0.13286293 7
-7.4171314 -2.1873372 -0.13398358 7
-7.2865181 2.1479859 -0.39537296 6
-7.5272031 -7.5772324 0.20198312 8
-7.3146172 34.455013 0.75898039 8
-7.3008981 34.388939 1.9866275 9
-7.2913342 34.342449 3.2162435 10
-7.2807226 -36.945423 4.7741075 11
-7.2724376 34.251953 4.4447184 11
-7.2458782 34.123901 6.9289184 13
-7.2452445 -36.735546 8.8000193 14
-7.2363267 -36.680088 10.175983 15
-7.1910501 11.276742 -0.66405541 6
-6.8838525 34.881237 -0.47341245 7
-6.8498397 -3.7592807 -0.13214575 7
-7.0258732 -3.2239716 -0.1320224 7
-7.173933 1.5667142 -0.38315907 6
-6.8725715 34.822887 0.76647896 8
-6.8434792 34.673035 3.2393382 10
-6.8278942 34.592846 4.4774575 11
-6.8159738 34.531235 5.7239566 12
-6.8043494 34.471119 6.9805908 13
-6.4291596 35.22813 -0.47519577 7
-6.4157457 -4.8308039 -0.13252722 7
-6.7919974 0.98036265 -0.35880655 6
-6.4180069 35.166122 0.77355617 8
-6.4060059 35.099457 2.0195239 9
-6.7256432 -36.912155 4.7591758 11
-6.7159176 -36.848488 6.0860019 12
-6.7024503 -36.764221 7.419292 13
-6.0020204 11.089857 -0.62256777 6
-6.1900816 -5.3977294 -0.13355748 7
-6.2264686 -4.023335 -0.12392875 7
-6.0051255 1.5454503e-05 -0.31472287 6
-6.3853202 0.45849124 -0.33521309 6
-6.2270641 11.026924 -0.18368594 7
-6.0885305 11.057195 0.25802091 8
-6.1913781 11.055353 0.70153075 9
-6.3912663 35.017765 3.2642875 10
-6.3777757 34.942932 4.5121198 11
-6.3653612 34.873993 5.766715 12
-6.1662092 -36.819153 6.0682425 12
-6.3507338 34.792908 7.0282745 13
-6.1566367 -36.751106 7.4003983 13
-6.1469355 -36.682186 8.7461214 14
-6.1347051 -36.598045 10.105022 15
-5.7653303 12.760101 -1.1782796 5
-5.6998858 11.292912 -0.62313199 6
-5.9689121 35.586922 -0.47722438 7
-5.6786718 -6.6039624 -0.13695243 7
-5.9415779 -5.9828501 -0.13492423 7
-5.625123 -0.40396532 -0.29565316 6
-5.8395872 11.167988 -0.18120101 7
-5.690372 11.273028 -0.18086174 7
-5.8430214 11.173554 0.2587969 8
-5.6813207 11.254064 0.25944936 8
-5.9150119 11.11542 0.69819373 9
-5.6731491 11.236849 0.69903713 9
-5.9598093 35.532108 0.78125107 8
-5.9435029 35.434315 2.035285 9
-5.9329038 35.370583 3.2905245 10
-5.9184909 35.284092 4.5463748 11
-5.9077139 35.219292 5.8108525 12
-5.618608 -36.780949 6.0503345 12
-5.8955998 35.146515 7.08356 13
-5.6101265 -36.713943 7.3782663 13
-5.6001668 -36.637177 8.7176743 14
-5.4825621 14.894908 -1.3313129 5
-5.5887165 11.478627 -0.62818688 6
-5.4883714 11.695431 -0.63496804 6
-5.5001245 35.942543 -0.4792974 7
-5.3926854 -7.2659492 -0.13963513 7
-5.284358 -0.762972 -0.27981618 6
-5.5656276 11.43013 -0.18137784 7
-5.5476551 11.39216 0.26147905 8
-5.5374079 11.37008 0.70302474 9
-5.4914904 35.886047 0.78881258 8
-5.4780831 35.798313 2.0530665 9
-5.453907 35.640121 4.5833168 11
-5.4451284 35.582687 5.858954 12
-5.4345884 35.513718 7.1427765 13
-5.5918531 -36.571007 10.07674 15
-5.0347595 36.381142 -1.7659085 6
-5.07689 17.58869 -1.5307908 5
-5.0251985 36.312534 -0.48165396 7
-5.0783296 -7.9796548 -0.14308977 7
-4.941505 -1.0796552 -0.26484436 6
-5.0035524 36.157051 2.0708904 9
-4.9945059 36.092163 3.346154 10
-4.9827847 36.007927 4.622551 11
-4.974227 35.946587 5.9081326 12
-5.0728178 -36.730652 6.0317388 12
-5.0637536 -36.652866 7.3529253 13
-5.0593367 -36.608543 8.6950092 14
-5.0517921 -36.541451 10.049935 15
-4.4855051 21.115627 -1.7997818 5
-4.7379327 -8.7756643 -0.14776036 7
-4.6420507 -1.3692676 -0.25303268 6
-4.6106215 -17.939522 0.39193183 8
-4.6129642 -17.944492 1.0399073 9
-4.530808 36.596828 0.80438596 8
-4.6127434 -17.939493 1.689865 10
-4.6150041 -17.944103 2.3448873 11
-4.5234036 36.53825 2.0903518 9
-4.5136108 36.460342 3.3755069 10
-4.5396667 -36.766483 4.7080555 11
-4.5351791 -36.717186 6.0204692 12
-4.525898 -36.629059 7.3366294 13
-4.4829435 36.216202 7.2584672 13
-4.5192118 -36.561771 8.669898 14
-4.513989 -36.506115 10.023693 15
-4.2319646 1.9402847 -0.40397248 5
-4.2729144 2.342644 -0.4218291 5
-4.2770214 2.7602563 -0.43949726 5
-4.2590446 3.2024109 -0.4587774 5
-4.2134428 3.6681981 -0.47953549 5
-4.1237655 4.1447477 -0.50030738 5
-4.0503511 37.064461 -0.48679301 7
-4.3478751 -9.6491404 -0.15344942 7
-4.1743374 -1.7339529 -0.23566695 6
-4.0153575 0.87684208 -0.35861146 5
-4.1454191 1.3888164 -0.38075453 5
-4.0915508 -18.052685 0.39399713 8
-4.3480682 -17.984011 0.39266321 8
-4.2062244 -17.955635 1.0368328 9
-4.0418406 36.988731 0.81317389 8
-4.1955447 -17.90563 1.6795655 10
-4.1849756 -17.85569 2.3228383 11
-4.032649 36.906719 2.1094427 9
-4.0241084 36.830711 3.405648 10
-4.0016408 -36.734493 4.6983285 11
-4.0160213 36.758835 4.7053733 11
-4.0060554 36.669746 6.0088081 12
-3.6036856 26.021341 -2.1842704 5
-3.9694228 4.6064081 -0.51865143 5
-3.7950583 5.1008859 -0.54049706 5
-3.8999066 -10.629037 -0.16054942 7
-3.7362602 -2.0514474 -0.22106239 6
-3.7082226 0.13570505 -0.32476458 5
-3.8998516 0.56289005 -0.3442283 5
-3.8496161 -18.191526 0.39693409 8
-3.6252301 -18.432091 0.40216088 8
-3.829515 -18.092144 1.041414 9
-3.8131018 -18.010174 1.6829629 10
-3.9975967 -36.683357 6.0071197 12
-3.9981899 36.59996 7.3247247 13
-3.9842203 -36.532307 8.6507254 14
-3.9788191 -36.468281 9.9988937 15
-3.5543711 5.5692506 -0.55980432 5
-3.2702832 6.0372348 -0.57984883 5
-3.5494075 37.442879 -0.48954105 7
-3.3790424 -11.751798 -0.1695267 7
-3.4446366 -2.2270157 -0.21192974 6
-3.2766948 -0.59206128 -0.29145181 5
-3.4969761 -0.25116313 -0.30680242 5
-3.5991352 -18.29488 1.0511503 9
-3.5422139 37.370411 0.82187271 8
-3.5767739 -18.176655 1.6946931 10
-3.5349967 37.297668 2.1301868 9
-3.5270267 37.216961 3.4378562 10
-3.4644811 -36.684292 4.6872454 11
-3.5172679 37.117344 4.7458549 11
-3.5095148 37.038948 6.061986 12
-3.4572561 -36.576889 7.3077402 13
-3.5012841 36.955532 7.3866439 13
-3.040071 37.834831 -0.49256152 7
-2.904345 -2.5348296 -0.19736879 6
-3.1686511 -2.3875782 -0.204106 6
-2.961092 -0.9889006 -0.27278131 5
-2.8041964 0.93814051 -0.36189249 4
-2.8195529 1.2923912 -0.37851816 4
-3.0327687 37.749092 0.83064431 8
-3.0257492 37.66684 2.1500626 9
-3.0205622 37.607456 3.4710703 10
-3.0120368 37.506416 4.7910957 11
-3.0047901 37.421356 6.1184158 12
-2.5277467 38.326336 -1.8390894 6
-2.6613331 2.15573 -0.41545635 4
-2.5288217 2.5399337 -0.43309137 4
-2.5214081 38.2379 -0.49582815 7
-2.7619424 -13.066104 -0.1810001 7
-2.6380565 -2.6593201 -0.19078046 6
-2.6376324 -1.3263503 -0.25715834 5
-2.4861708 -0.26692888 -0.30727217 4
-2.680239 0.24415542 -0.33081082 4
-2.7685268 0.60451758 -0.34722611 4
-2.7990794 1.5341142 -0.38886812 4
-2.7527952 1.7758585 -0.39835373 4
-2.5155568 38.156826 0.84019095 8
-2.5082481 38.053551 2.171319 9
-2.5027943 37.978539 3.5031152 10
-2.497721 37.909332 4.8389721 11
-2.4916229 37.824543 6.1793556 12
-2.1973116 33.290531 -2.7672329 5
-2.3971734 2.7795575 -0.44251812 4
-2.2399216 3.0076225 -0.45107752 4
-2.0724845 3.2434156 -0.46191314 4
-2.1272132 -2.8710787 -0.17988372 6
-2.3842854 -2.7765932 -0.1853507 6
-2.1417868 -1.7375108 -0.23850194 5
-2.3825388 -1.5411863 -0.24620609 5
-2.1081514 -0.87697893 -0.27995393 4
-2.3102717 -0.59162313 -0.29287985 4
-2.0997458 0.30305043 -0.33567673 3
-2.1197529 0.58590031 -0.3480655 3
-2.0881331 1.0498793 -0.36829782 3
-2.0190065 1.3019509 -0.37751496 3
-2.0260642 -13.311965 0.76181048 9
-2.0263188 -13.309546 1.2343102 10
-2.0285513 -13.320036 1.7113355 11
-1.9968728 38.720238 -1.8549955 6
-1.7612268 1.899958 -0.40502074 3
-1.8787935 3.4633369 -0.47176874 4
-1.6478795 3.6359496 -0.47691157 4
-1.9920943 38.639339 -0.49918181 7
-1.7566576 -2.9971249 -0.17333813 6
-1.7946157 -1.9447261 -0.22741684 5
-1.7153238 -1.2941005 -0.26189256 4
-1.878505 -1.1213589 -0.26752433 4
-1.7583328 -0.58537656 -0.29426974 3
-1.9279739 -0.27850762 -0.30860689 3
-1.7015018 0.37146544 -0.33797032 2
-1.669929 0.76503885 -0.35544881 2
-1.6252295 0.96806693 -0.36565289 2
-1.9693432 1.4793258 -0.38644567 3
-1.902095 1.6540246 -0.39483392 3
-1.8224891 -13.24995 0.75749695 9
-1.987538 38.562721 0.84984964 8
-1.8213778 -13.237592 1.2258974 10
-1.8218529 -13.236688 1.6979066 11
-1.9820635 38.468166 2.1945705 9
-1.9774121 38.389652 3.5395062 10
-1.9719086 38.294544 4.8854933 11
-1.9675521 38.22187 6.2404919 12
-1.456161 39.13208 -1.8721257 6
-1.5238559 2.2058797 -0.41768542 3
-1.3084882 2.4084151 -0.42564154 3
-1.4151176 3.8293066 -0.48667347 4
-1.4530951 39.068878 -0.50300252 7
-1.3937531 -3.1041074 -0.16797614 6
-1.4501858 -2.1136954 -0.21871737 5
-1.4552652 -1.4674025 -0.25124228 4
-1.4185604 -0.98944664 -0.27355206 3
-1.303383 -0.71559918 -0.28900576 2
-1.4190737 -0.31035745 -0.30674273 1.5
-1.3240542 0.28902653 -0.33553541 0.5
-1.367411 0.68707871 -0.35187981 1
-1.3519832 1.0390229 -0.36759406 1.3333334
-1.4075351 1.4134401 -0.38418373 2
-1.2350401 1.6550266 -0.39594671 2
-1.4490857 38.980022 0.85990953 8
-1.4449761 38.888405 2.2185497 9
-1.4411788 38.805229 3.5769725 10
-1.437025 38.712452 4.9371047 11
-1.4329461 38.621761 6.3032279 12
-0.90476263 39.567734 -1.8907732 6
-1.0066619 1.8512524 -0.40362546 2
-1.0667397 2.592469 -0.4345499 3
-1.1525731 3.9715049 -0.49198687 4
-0.87899047 4.1056294 -0.49857536 4
-0.90180397 39.473843 -0.50661945 7
-1.0322865 -3.1743581 -0.16320804 6
-0.97521037 -2.2835786 -0.20981264 5
-1.0432069 -1.6884717 -0.23960374 4
-1.0318046 -1.2937332 -0.25993341 3
-0.96867204 -0.96218926 -0.27594888 1.75
-1.0077742 -0.63736755 -0.29226857 0.60000002
-1.1438876 -0.25025961 -0.31394437 0
-1.1302379 0.67255968 -0.35071921 0
-1.0222656 1.025383 -0.37043396 0.25
-0.95625561 1.3824641 -0.3844378 1
-0.89911318 39.391609 0.86999643 8
-0.89638942 39.307816 2.2428989 9
-0.89343905 39.213955 3.6144896 10
-0.89052773 39.121891 4.9885879 11
-0.88775688 39.036224 6.3695593 12
-0.56969631 2.089757 -0.41330403 2
-0.69743735 2.7612691 -0.44016859 3
-0.40482906 2.8655009 -0.44614446 3
-0.58695602 4.1838999 -0.5008328 4
-0.67798799 -3.2379167 -0.15998831 6
-0.58253545 -2.3652236 -0.20368122 5
-0.55915159 -1.8426362 -0.22973867 4
-0.58928931 -1.361462 -0.25568697 2.5
-0.62278813 -0.98744839 -0.27287224 0.83333331
-0.75468159 -0.76471359 -0.28680977 0
-0.76761824 1.195417 -0.37615317 0
-0.6342485 1.3914189 -0.38388517 0.33333334
-0.54619724 1.645286 -0.39385355 1
-0.11931085 40.474911 -4.1138878 5
-0.12228091 40.412514 -2.6868172 6
-0.34120879 39.999676 -1.9096328 6
-0.1251992 40.343029 -1.2704867 7
-0.12578376 1.7697306 -0.40189964 1
-0.23093672 2.1741316 -0.41588509 2
-0.19949228 2.8915329 -0.44636956 3
-0.28756875 4.2319913 -0.50208157 4
-0.33945549 39.902092 -0.51065135 7
-0.31962314 -1.4304713 -0.25060144 2.5
-0.26666316 -1.0500462 -0.27188903 0.33333334
-0.18291232 1.4523027 -0.38663384 0
-0.3096168 1.7225929 -0.397037 1
-0.12807348 40.266865 0.13785668 8
-0.33786571 39.823685 0.88069373 8
-0.13098793 40.203617 1.5417058 9
-0.33616415 39.731411 2.2679186 9
-0.13394174 40.150417 2.9456275 10
-0.33446237 39.639027 3.6542187 10
-0.13674551 40.059097 4.3488951 11
-0.33273035 39.543148 5.0425534 11
-0.13969702 40.000488 5.7611456 12
-0.33109549 39.459663 6.4386077 12
0.18104689 1.4544827 -0.41130662 0
0.21132743 1.7426718 -0.42783296 1
0.21647805 2.170526 -0.45213196 2
0.12272643 2.8929243 -0.49721181 3
0.16637367 4.2518663 -0.58001107 4
0.24294363 -3.2903492 -0.1556613 6
0.27752113 -2.4158332 -0.19952551 5
0.22203782 -1.9120477 -0.22564578 4
0.23177391 -1.4542696 -0.24950597 2.5
0.2264065 -1.0661069 -0.26834071 0.40000001
0.46220869 40.866127 -2.7140095 6
0.4578661 40.785774 -1.2814071 7
0.61049354 1.4682332 -0.40840429 0.5
0.57542711 1.6564797 -0.42204535 1
0.59683412 2.0925255 -0.44716907 2
0.53330225 2.8443508 -0.49354604 3
0.61910158 4.1938467 -0.57421011 4
0.62259161 -3.2604351 -0.1553873 6
0.55247349 -2.4080606 -0.20157641 5
0.72607887 -2.370189 -0.20170495 5
0.60704821 -1.8521397 -0.22726233 4
0.62857038 -1.3597078 -0.25197569 2.5
0.66223824 -0.99236304 -0.2712549 0.83333331
0.71396464 1.2612175 -0.39846933 0
0.45375541 40.725586 0.14250892 8
0.44960067 40.660229 1.5623612 9
0.44541979 40.592129 2.9812498 10
0.44134808 40.535416 4.4038911 11
1.060155 41.330376 -2.742295 6
1.0545444 41.258247 -1.2933517 7
0.89519781 1.4673409 -0.40888506 1
1.0395348 1.8609327 -0.43224823 2
1.0107908 2.6539538 -0.47979692 3
1.0545691 4.066987 -0.56561023 4
0.98257703 -3.2209723 -0.15649426 6
0.98602778 -2.3004222 -0.20312284 5
1.0125736 -1.7213243 -0.23183978 4
0.99510837 -1.3364202 -0.2519322 3
1.0119411 -0.96201801 -0.27221912 1.75
0.96274048 -0.63164514 -0.29040825 0.2
1.1409304 -0.316939 -0.30721235 0
1.1808639 0.68368405 -0.36425367 0
1.0487167 1.0246513 -0.3825967 0.25
1.0725011 1.3001276 -0.39761612 1
1.0490699 41.190723 0.1473937 8
1.0438635 41.133595 1.5841683 9
1.0380493 41.051727 3.0189848 10
1.0327859 40.992546 4.4579062 11
1.4219871 1.5004135 -0.41212878 2
1.2699186 1.6630352 -0.41979322 2
1.5077862 2.3093936 -0.45843795 3
1.3584031 2.4454474 -0.46736389 3
1.455622 3.8515399 -0.54970968 4
1.3874224 -21.685202 -0.27138987 7
1.3515218 -3.1615393 -0.15910354 6
1.3852706 -2.177551 -0.20911174 5
1.2499882 -1.6226978 -0.2371003 4
1.3800125 -1.4110777 -0.24883083 3.6666667
1.4471509 -1.0221256 -0.26851052 3
1.3329593 -0.54259759 -0.29376307 1.5
1.2865607 -0.17064214 -0.31326231 0.5
1.3538626 0.22414696 -0.33445916 0.5
1.3446736 0.56895971 -0.35445195 0.60000002
1.38982 1.0449271 -0.38125199 1.3333334
1.5263622 1.2997359 -0.39653394 2
1.6726592 41.815231 -2.7723534 6
1.6652619 41.732277 -1.3054391 7
1.915661 1.7604104 -0.42461547 3
1.7015707 2.0818765 -0.44365141 3
1.9429584 3.5200334 -0.53071731 4
1.7087198 3.6978357 -0.54084945 4
1.7602905 -22.460014 -0.28028241 7
1.8572099 -3.0486104 -0.16457134 6
1.7808959 -2.0032172 -0.21672352 5
1.9668449 -1.9174085 -0.22230706 5
1.7069194 -1.3370225 -0.25160375 4
1.9490366 -1.1205889 -0.26180711 4
1.821741 -0.57620007 -0.29198712 3
1.7246418 -0.2260371 -0.3108139 2.25
1.7406101 0.21238372 -0.33511752 2
1.7339282 0.60121512 -0.35495889 2
1.6710129 0.97534192 -0.37848625 2
1.6590486 41.678917 0.15257768 8
1.6517475 41.597473 1.6061327 9
1.6441655 41.508663 3.0573518 10
1.6380408 41.457489 4.5139036 11
2.3001261 42.306675 -2.803261 6
2.2448983 15.747252 -1.6006168 5
2.2919104 42.236942 -1.3185765 7
2.0377772 1.5051657 -0.40976247 3
2.3199968 3.0687819 -0.50145346 4
2.1410475 3.2976055 -0.51577723 4
2.2337251 -2.9132955 -0.16904178 6
2.2363183 -1.7549425 -0.23082833 5
2.190027 -0.87324458 -0.27607256 4
2.3595951 -0.66093272 -0.28825265 4
2.0555358 -0.12311735 -0.31722885 3
2.1387191 0.22272 -0.33468035 3
2.1842794 0.59020996 -0.35641673 3
2.1533177 1.0636867 -0.38338098 3
2.0736167 1.3145483 -0.39484721 3
2.2821476 42.137794 0.15787955 8
2.3276 -36.497974 0.81940287 8
2.275795 42.102203 1.6302167 9
2.2670853 42.022438 3.1007631 10
2.3185511 -36.374203 3.3705845 10
2.3144872 -36.319607 4.6514163 11
2.2580245 41.936176 4.5725727 11
2.3095436 -36.251198 5.9376264 12
2.3039243 -36.172199 7.2316694 13
2.299561 -36.113125 8.5430088 14
2.2949018 -36.0495 9.8707314 15
2.555512 11.767613 -1.2044069 5
2.7410214 9.3204679 -0.96521533 5
2.7155609 2.3306446 -0.45713684 4
2.6140761 2.5893476 -0.47326171 4
2.4703667 2.8236077 -0.48580593 4
2.7847924 9.4779358 -0.63465679 6
2.5079131 -2.8271863 -0.17420296 6
2.7806103 -2.7162383 -0.1795456 6
2.5839937 -1.4878908 -0.24349321 5
2.4605637 -0.5038591 -0.29665872 4
2.5822582 -0.2456914 -0.30869481 4
2.755024 0.18834434 -0.33243209 4
2.953721 42.889191 -4.3518448 5
2.9434483 42.809589 -2.8353605 6
2.9349346 42.755283 -1.332238 7
2.8667541 7.6596851 -0.80668777 5
2.8910532 1.5619504 -0.41112095 4
2.8620381 1.8208871 -0.42736596 4
2.8048856 2.0793834 -0.44295993 4
3.0444708 6.6409698 -0.54339933 5.6666665
2.9649377 6.9920239 -0.47926927 6
2.931565 7.3535285 -0.50133967 6
2.9046364 7.767292 -0.52696252 6
2.8732982 8.2239885 -0.55547208 6
2.8410864 8.7304516 -0.58733058 6
2.8089032 9.0739498 -0.60895741 6
3.0534329 -2.5835025 -0.18532312 6
2.8383381 -1.25386 -0.25470454 5
3.1003249 -0.98784852 -0.26927584 5
2.8237729 0.39617032 -0.34529528 4
2.8713641 0.61361682 -0.35775065 4
2.9067292 0.95643526 -0.37671307 4
2.9010446 1.3097914 -0.39550373 4
3.1417749 6.6074433 -0.20302792 7
3.0057824 6.9559293 -0.21300857 7
2.9711809 7.4589005 -0.22802511 7
2.9420714 7.8738165 -0.24050088 7
2.930239 8.2007446 -0.25040033 7
2.9026899 8.508419 -0.25973138 7
2.8760417 8.8453226 -0.26999289 7
2.8530872 9.2248716 -0.28160015 7
2.823956 9.6197634 -0.29371488 7
3.1277978 6.7094731 0.18211588 8.5
3.0547967 7.0298615 0.14084263 8.333333
3.0451741 7.3945961 0.23839563 8.666667
3.0114553 7.8395958 0.15081903 8.333333
2.9907069 8.1951494 0.20459054 8.5
2.9763017 8.6034384 0.26636469 8.666667
2.9428623 9.0626488 0.22299312 8.5
2.8994713 9.3831949 0.056097884 8
2.8698978 9.7851171 0.056918483 8
2.9228497 42.648029 0.16359438 8
3.1250913 6.971416 0.58620477 10
3.1026986 7.3396683 0.60975957 10
3.0850906 7.7632904 0.637537 10
3.0611751 8.2126617 0.66710967 10
3.0475667 8.5502329 0.6896885 10
3.0249245 8.8891306 0.71221012 10
2.9759727 9.4052439 0.57183331 9.5
2.9544766 9.8272514 0.59352249 9.5
2.9638674 10.123789 0.796067 10
3.1703355 7.0780196 0.86778075 11
3.1731629 7.3684254 1.0375003 11.5
3.1358936 7.732523 0.93078321 11
3.1033323 8.3326216 0.98949754 11
3.0846651 8.6614065 1.0219634 11
3.0551164 9.4286957 1.0991067 11
3.1870401 7.5512419 1.2058585 12
3.1748171 7.8347592 1.2425879 12
2.9130297 42.573856 1.6535755 9
2.8465159 -36.413883 2.0972714 9
2.9040093 42.51144 3.1432354 10
2.8401728 -36.339005 3.3725629 10
2.8347301 -36.275703 4.6523409 11
2.8929441 42.418907 4.6328936 11
2.8289878 -36.208595 5.9385123 12
2.8224087 -36.130787 7.2325835 13
2.8180051 -36.081001 8.5459585 14
2.8126123 -36.018581 9.8741922 15
3.5921707 43.25029 -1.3452737 7
3.4070311 6.211452 -0.68818158 5
3.3846893 6.6182184 -0.46379399 6
3.3440206 -2.4422297 -0.19267721 6
3.4341376 -0.57528365 -0.29159695 5
3.359947 6.6326208 -0.20452806 7
3.3684473 6.6559172 0.18498029 8.5
3.5803313 43.169044 0.16960074 8
3.3730094 6.6713901 0.57700938 10
3.3754926 -36.44125 0.82355917 8
3.3659067 6.7242727 0.97814876 11.5
3.2089717 7.0319767 1.1392934 12
3.3600769 6.7197733 1.3789893 13
3.2518554 6.9997015 1.4145145 13
3.2358215 7.3751631 1.4743568 13
3.4945235 6.7538342 1.8128418 14.5
3.2951815 6.9654503 1.6921457 14
3.5691359 43.09539 1.6794587 9
3.3687744 -36.373081 2.0992646 9
3.5581 43.023628 3.1883557 10
3.3554173 -36.237606 4.6549311 11
3.5456977 42.935303 4.6981673 11
3.3496957 -36.180267 5.9429312 12
3.3356688 -36.037727 8.5479975 14
3.60464 43.338825 -2.8696537 6
3.9669921 5.2736111 -0.63052404 5
3.7169893 5.7568526 -0.66029394 5
3.7982118 6.6464281 -0.47405434 6
3.7884274 -2.1835909 -0.20534478 6
3.6746297 -0.21956937 -0.31124583 5
3.9293547 0.27002552 -0.33763307 5
3.8020012 6.6575518 -0.20708169 7
3.7815573 6.6833649 0.19365981 8.5
3.7549651 6.6987076 0.59597003 10
3.8990841 -36.402504 0.82560807 8
3.7689378 6.7306738 1.006759 11.5
3.7762594 6.7503843 1.4233462 13
3.7817013 6.7660222 1.7784815 14.25
3.8913109 -36.332867 2.1016905 9
3.892566 6.7973461 2.014843 15
3.8840182 -36.267727 3.378422 10
3.8700349 -36.143112 5.9470954 12
3.861881 -36.069958 7.2431965 13
3.8547537 -36.006454 8.5546103 14
3.8472843 -35.939777 9.8824701 15
4.2826366 43.868484 -2.9044471 6
4.2687182 43.781918 -1.3595628 7
4.3686428 1.6141424 -0.41336125 5
4.3129072 4.2898488 -0.57099533 5
4.1517687 4.7670069 -0.59872788 5
4.2386341 6.6787992 -0.48606154 6
4.1122437 -27.242802 -0.33650896 7
4.2685947 -14.122004 -0.17401506 7
4.352036 -11.376106 -0.14168769 7
4.2563014 -1.8832927 -0.22075404 6
4.0618739 0.57202494 -0.35454282 5
4.1615491 0.89231181 -0.37102047 5
4.2975578 1.2477263 -0.39360189 5
4.1717124 6.6810427 -0.20959429 7
4.2607756 -11.379718 0.2825864 8
4.1859508 6.7109389 0.20297505 8.5
4.255136 43.698486 0.17589173 8
4.1668811 6.740458 0.61842334 10
4.1757779 6.7615232 1.0405611 11.5
4.3844633 -11.455313 1.5780325 11
4.1823831 6.7789593 1.4692751 13
4.1968751 6.807302 1.7652425 14
4.2423911 43.62352 1.7062086 9
4.2363749 6.8214254 2.0686185 15
4.2279897 43.53133 3.234103 10
4.2151542 43.455444 4.7651691 11
4.3907452 -36.10463 5.9522314 12
4.3817391 -36.03244 7.2492728 13
4.3744349 -35.974308 8.5627584 14
4.364934 -35.898102 9.8889923 15
4.4383712 2.0104392 -0.43648535 5
4.4808588 2.4289763 -0.46088558 5
4.4938788 2.8689861 -0.48667446 5
4.476541 3.330714 -0.51413578 5
4.4083872 3.7981744 -0.54119635 5
4.6413884 -20.598896 -0.25327837 7
4.5958481 -1.6526216 -0.23362166 6
4.5740924 6.723475 -0.21306953 7
4.6176715 -11.33209 0.28517795 8
4.5804648 6.73946 0.21259138 8.5
4.608922 -11.309046 0.71151304 9
4.557868 6.7654448 0.63990068 10
4.4238491 -36.369389 0.82791466 8
4.6010852 -11.288082 1.1380719 10
4.5677037 6.7844987 0.92916763 11
4.5997486 -11.283381 1.5681047 11
4.5693927 6.7915816 1.2200724 12
4.5112267 6.8146353 1.510151 13
4.5942187 6.8377709 1.821767 14
4.4146938 -36.295944 2.1047013 9
4.6792951 -11.245933 2.0018449 12
4.6096945 6.8655891 2.1334889 15
4.58709 -11.249642 2.4346428 13
4.407558 -36.239143 3.3830025 10
4.4003191 -36.181496 4.6654825 11
4.9636188 44.32436 -1.3742961 7
4.9241195 -1.3829745 -0.24697381 6
4.9128547 6.7466288 -0.21583851 7
4.9919143 -11.311152 0.28866652 8
5.0027275 6.7740197 0.2232125 8.5
4.9475436 44.232693 0.18246233 8
4.98283 -11.289001 0.71946758 9
4.8558383 6.7820158 0.65681887 10
5.0959291 6.8055124 0.67140585 10
4.94732 -36.320248 0.83000082 8
4.9805655 -11.28231 1.1519271 10
4.9837174 6.8091846 0.96220481 11
5.0156641 -11.249722 1.5857509 11
4.9989576 6.8366876 1.4179125 12.5
4.974453 6.8611932 1.8775671 14
4.9332266 44.156651 1.7337854 9
4.9385762 -36.257023 2.1080058 9
5.005023 -11.223981 2.0202725 12
4.943696 6.8747802 2.1877565 15
4.9500875 -11.208111 2.4558992 13
4.9395146 -11.182425 2.8973627 14
4.9302759 -36.197067 3.3870001 10
4.9345927 -11.169429 3.3480484 15
4.9172225 44.065361 3.2828054 10
4.9227519 -36.142826 4.6707983 11
4.9016604 43.978107 4.833817 11
4.9028249 -35.998463 7.2575426 13
4.8942943 -35.93684 8.5713949 14
4.8862252 -35.878632 9.9036713 15
5.291141 -11.326058 -0.14404911 7
5.2591753 -1.0792972 -0.26194048 6
5.3738103 -11.288954 0.29237258 8
5.3613873 -11.260966 0.72763264 9
5.4760799 -36.302036 0.83293223 8
5.3532519 -11.242144 1.1634701 10
5.4411492 -11.217559 1.6054682 11
5.4660511 -36.23579 2.1127472 9
5.4294519 -11.191592 2.0452063 12
5.3258414 -11.179181 2.4824576 13
5.3186655 -11.162314 2.9309256 14
5.4559193 -36.168865 3.3929708 10
5.4054384 -11.135054 3.3944187 15
5.4480467 -36.116943 4.6787138 11
5.4363537 -36.039665 5.9681239 12
5.4268265 -35.976738 7.2697778 13
5.404532 -35.829433 9.9121847 15
5.7572207 -11.251441 0.29594398 8
5.7555313 -11.246444 0.73743021 9
5.7462173 -11.226238 1.1787646 10
5.7314548 -11.195326 1.6198812 11
5.9919972 -36.195175 2.1167698 9
5.7220154 -11.175021 2.0645323 12
5.7060571 -11.141964 2.5098755 13
5.7972813 -11.119872 2.9730852 14
5.9819002 -36.133827 3.3989806 10
5.8858476 -11.093604 3.4441643 15
5.9687262 -36.053841 4.6827526 11
5.9593472 -35.996841 5.9761901 12
5.9500303 -35.940208 7.2805233 13
5.9365969 -35.858654 8.5931826 14
5.9270215 -35.800453 9.9283476 15
6.0540023 -11.228115 0.74480081 9
6.0013552 -36.252052 0.83527613 8
6.0334501 -11.187979 1.1882824 10
6.0263886 -11.172912 1.6351744 11
6.1118698 -11.136803 2.0892823 12
6.101635 -11.116123 2.5427208 13
6.2962375 -11.088213 3.023205 14
6.2841463 -11.064788 3.4900162 15
6.5314245 -36.222824 0.8382383 8
6.5210867 -36.164608 2.1217942 9
6.408464 -11.102387 2.5705795 13
6.5099826 -36.102139 3.4059951 10
6.4959798 -36.023567 4.6920047 11
6.4855518 -35.964863 5.9872856 12
6.4751701 -35.906391 7.2933307 13
6.4586148 -35.813625 8.605319 14
7.0631161 -36.192142 0.84131134 8
7.0499487 -36.123314 2.1266065 9
7.0352764 -36.046776 3.4114625 10
7.0279975 -36.008171 4.704174 11
7.0106802 -35.918049 5.9971538 12
6.9965272 -35.844143 7.3018751 13
6.9871254 -35.794617 8.6255226 14
7.5537896 -35.950974 4.7118592 11
7.543026 -35.897987 6.0127506 12
7.5262761 -35.816463 7.3189893 13
7.5114546 -35.744114 8.6399612 14
8.05618 -35.778755 7.3356094 13
8.0409708 -35.709023 8.6599569 14
10.956783 -6.8788443 -0.15762338 7
10.888511 -5.7935181 -0.15386941 7
11.035769 -4.8934207 -0.15475416 7
10.983518 -6.4613309 0.28771922 8
10.979715 -6.1456885 0.28297317 8
10.944616 -5.7205443 0.27616781 8
10.921032 -5.3154912 0.26998177 8
10.900111 -5.0180554 0.26545417 8
11.061544 -6.5041442 0.73792541 9
11.046462 -6.1800184 0.72675902 9
11.014578 -5.7539201 0.71191043 9
10.998985 -5.4476933 0.7018916 9
10.963449 -4.9495001 0.68572414 9
11.132481 -6.5427246 1.1954029 10
11.112877 -6.2140689 1.1775365 10
11.081558 -5.7857938 1.1545117 10
11.039586 -5.3668723 1.1319252 10
11.038183 -4.9801469 1.1148931 10
11.151563 -5.7174253 1.5991589 11
11.123092 -5.404356 1.5767738 11
11.099551 -5.0047131 1.5506161 11
11.189114 -6.2534785 1.6378899 11
11.163979 -5.9274955 1.6138374 11
11.166354 -5.0315328 1.9958261 12
11.19719 -5.5362754 2.0378311 12
11.372056 -4.8458161 0.27157182 8
11.323277 -4.8217206 0.70014936 9
11.203642 -6.581377 1.6615312 11
11.289342 -6.5205488 2.131027 12
11.24651 -6.1764669 2.0959952 12
11.232253 -5.8580971 2.0681345 12
11.208591 -5.3432531 2.0248237 12
11.35655 -6.5561051 2.6158283 13
11.323009 -6.1103883 2.5648787 13
11.301311 -5.7876854 2.5296764 13
11.278644 -5.4734015 2.4963415 13
11.239795 -5.0614018 2.4526362 13
11.573499 -4.7200842 2.4842851 13
11.403525 -6.1504712 3.0560439 14
11.365524 -5.7151303 2.9987502 14
11.337762 -5.3981667 2.9584782 14
11.318953 -5.0937023 2.9228799 14
