# .PCD v0.7 - Point Cloud Data file format
VERSION 0.7
FIELDS x y z intensity
SIZE 4 4 4 4
TYPE F F F F
COUNT 1 1 1 1
WIDTH 1363
HEIGHT 1
VIEWPOINT 0 0 0 1 0 0 0
POINTS 1363
DATA ascii
2.0478566 -0.65908539 -0.35413659 0
2.1400716 -0.64651734 -0.35546416 0
2.2431755 -0.6428197 -0.35640872 0
2.3271692 -0.66688991 -0.35704803 0
2.4220233 -0.65676492 -0.3579711 0
2.5434442 -0.64287835 -0.35811418 0
2.6868725 -0.64660245 -0.35941204 0
2.7737651 -0.64648956 -0.35975471 0
2.8661842 -0.64640814 -0.36094895 0
-3.4402347 -0.57143211 -0.30719829 0
-3.329412 -0.5530318 -0.30807722 0
-3.2401781 -0.53821033 -0.30878526 0
-3.1476862 -0.54602629 -0.3094438 0
-3.0566015 -0.5527606 -0.31025314 0
-2.9676275 -0.53667045 -0.31100887 0
-2.8767302 -0.54155064 -0.31207582 0
-2.7850046 -0.54494321 -0.31291986 0
-2.6577029 -0.54758358 -0.31419474 0
-2.5111525 -0.54756093 -0.31559673 0
-2.4659023 -0.53771454 -0.31589684 0
-2.3771293 -0.55413502 -0.31661817 0
-2.2530608 -0.54196388 -0.31779307 0
-2.1206098 -0.55872673 -0.31905133 0
-2.0336723 -0.55139041 -0.31964791 0
-1.9412509 -0.54134387 -0.32064253 0
-1.8609833 -0.51893079 -0.32020575 0
-1.2404097 -0.58928001 -0.32650295 0
-1.1448674 -0.55951989 -0.32782155 0
-1.0846355 -0.56384385 -0.32759252 0
1.1711407 -0.55655611 -0.34748268 0
1.2431947 -0.5463931 -0.34881425 0
1.3500261 -0.56065881 -0.35022604 0
1.4343297 -0.54966438 -0.35004687 0
1.5590029 -0.54094732 -0.3500118 0
1.650665 -0.55063039 -0.35114104 0
1.7293595 -0.55991393 -0.35164809 0
1.8505698 -0.559089 -0.3530705 0
1.9630562 -0.54450428 -0.35380226 0
2.0593421 -0.55843586 -0.35478315 0
2.1606576 -0.55284244 -0.3546018 0
2.26142 -0.54421711 -0.35536972 0
2.3465102 -0.56469417 -0.35617819 0
2.4388812 -0.55004263 -0.35686997 0
2.5407593 -0.53491867 -0.35865298 0
2.626322 -0.5529359 -0.3593497 0
2.743515 -0.56412542 -0.36049935 0
2.8564963 -0.53347337 -0.36061665 0
-3.4593892 -0.45810923 -0.30654144 0
-3.3490024 -0.4581719 -0.30755335 0
-3.2595046 -0.44592693 -0.3084054 0
-3.1700068 -0.43368196 -0.30925745 0
-3.0683622 -0.46460983 -0.30999416 0
-2.9789579 -0.45107138 -0.31073415 0
-2.8616455 -0.426474 -0.31177527 0
-2.749392 -0.4566921 -0.31267932 0
-2.6130707 -0.45329335 -0.3138237 0
-2.523968 -0.43783787 -0.31455365 0
-2.4550884 -0.44992602 -0.31538251 0
-2.3454804 -0.44155008 -0.31638485 0
-2.2239156 -0.45164135 -0.31742036 0
-2.1389844 -0.45039281 -0.31819302 0
-2.0520446 -0.44747555 -0.31869385 0
-1.9544648 -0.44483188 -0.31958494 0
-1.8402934 -0.44286448 -0.32088226 0
-1.7575942 -0.44966984 -0.3214215 0
-1.6524636 -0.42554894 -0.32232651 0
-1.5848937 -0.42978725 -0.32192829 0
-1.4994743 -0.41812494 -0.32413405 0
1.1927114 -0.47538969 -0.34403574 0
1.2459852 -0.45341146 -0.34747738 0
1.3522315 -0.4476347 -0.34949556 0
1.4410888 -0.45799106 -0.35005131 0
1.5489206 -0.45599797 -0.35059631 0
1.6529871 -0.43549061 -0.35037902 0
1.746557 -0.46557006 -0.35151514 0
1.8336411 -0.45513815 -0.35211706 0
1.9351612 -0.45399228 -0.35281676 0
2.055645 -0.45757708 -0.35407108 0
2.1739416 -0.46201488 -0.35548627 0
2.2486057 -0.43998784 -0.35639533 0
2.355809 -0.46096331 -0.35719007 0
2.4697719 -0.44665527 -0.35804316 0
2.5549273 -0.44311339 -0.35833678 0
2.648041 -0.43973303 -0.35907924 0
2.7342174 -0.45404863 -0.359696 0
2.852525 -0.44575608 -0.36040184 0
2.9110472 -0.4835138 -0.36232796 0
-3.4630878 -0.36475706 -0.30655649 0
-3.3630648 -0.36236432 -0.3075664 0
-3.2732782 -0.35268837 -0.30845192 0
-3.156327 -0.3326194 -0.30971089 0
-3.0614884 -0.35249749 -0.31055602 0
-2.9516258 -0.36089858 -0.31138963 0
-2.8171253 -0.34445465 -0.31266242 0
-2.7237656 -0.35281649 -0.3134003 0
-2.634171 -0.34121117 -0.31423315 0
-2.5435219 -0.34796718 -0.31522176 0
-2.4541852 -0.35372582 -0.31546751 0
-2.3285844 -0.33562958 -0.31644395 0
-2.2407935 -0.35570827 -0.31704846 0
-2.1573176 -0.34245551 -0.31776944 0
-2.0702949 -0.3591187 -0.31868029 0
-1.9667253 -0.34690347 -0.3195281 0
-1.8597199 -0.35011551 -0.3202714 0
-1.7560301 -0.34361017 -0.32132456 0
-1.6375694 -0.34986362 -0.32236525 0
-1.5580381 -0.33968955 -0.32315162 0
-1.4471849 -0.3624239 -0.32288176 0
-1.3484714 -0.33623889 -0.32409176 0
-1.2518177 -0.32985958 -0.32368168 0
-1.1738181 -0.31832063 -0.32589146 0
1.2496399 -0.34863755 -0.34773025 0
1.3452607 -0.35453838 -0.34802437 0
1.4626677 -0.35062516 -0.34932801 0
1.550301 -0.34965959 -0.35033673 0
1.6415743 -0.36050802 -0.35150746 0
1.7633455 -0.35520035 -0.35299191 0
1.8631053 -0.35077614 -0.35334021 0
1.9444004 -0.35167465 -0.35381162 0
2.0274353 -0.35169962 -0.35469207 0
2.1612098 -0.36705509 -0.3550173 0
2.2246716 -0.33691096 -0.3563948 0
2.3444114 -0.35505044 -0.35718638 0
2.4644592 -0.34600863 -0.35775065 0
2.5713375 -0.35187033 -0.35828236 0
2.6559339 -0.34403598 -0.35886556 0
2.7427313 -0.35527927 -0.35966459 0
2.8378627 -0.346881 -0.36077246 0
2.9203455 -0.3676526 -0.36156559 0
-3.4742305 -0.25896388 -0.30622882 0
-3.3598361 -0.26505309 -0.3070713 0
-3.2697301 -0.25794566 -0.30783486 0
-3.1796241 -0.25083822 -0.30859843 0
-3.0596952 -0.24857791 -0.30959091 0
-2.9349535 -0.24194705 -0.31109792 0
-2.8236802 -0.24319096 -0.31223097 0
-2.7364802 -0.25538138 -0.3134746 0
-2.6465967 -0.24699524 -0.31438565 0
-2.5533707 -0.25670043 -0.3151159 0
-2.2431555 -0.29056096 -0.31688392 0
-2.1589251 -0.27965042 -0.31721991 0
-2.0769172 -0.28418535 -0.31808439 0
-1.9929559 -0.27269953 -0.31860214 0
-1.8574251 -0.29487336 -0.31977493 0
-1.7285819 -0.28277776 -0.31994426 0
-1.626429 -0.27416429 -0.32061279 0
-1.5514832 -0.27663454 -0.32292089 0
-1.4548463 -0.27384973 -0.32445869 0
-1.3624219 -0.25816342 -0.32546595 0
-1.2555606 -0.2550368 -0.32552627 0
-1.1890899 -0.25040969 -0.32570067 0
1.2746803 -0.24941194 -0.348097 0
1.3469063 -0.24353774 -0.34884411 0
1.467865 -0.25051662 -0.34884152 0
1.5648196 -0.24852154 -0.34933063 0
1.6432638 -0.24882972 -0.35064402 0
1.7643059 -0.26079312 -0.35139868 0
1.8500601 -0.23532633 -0.35259163 0
1.9532392 -0.25309452 -0.35303172 0
2.033262 -0.24862325 -0.35347369 0
2.1443667 -0.26220647 -0.35495782 0
2.2276325 -0.24003679 -0.35571414 0
2.3400936 -0.26083174 -0.35651806 0
2.4415586 -0.23946373 -0.35782036 0
2.5674756 -0.24866492 -0.3590683 0
2.6745577 -0.24961053 -0.35962734 0
2.7616107 -0.25773138 -0.36030594 0
2.8457308 -0.24497938 -0.36078173 0
2.9340973 -0.24552886 -0.36163402 0
-3.5001009 -0.15038714 -0.30650124 0
-3.4624014 -0.17358784 -0.30683035 0
-3.3721311 -0.16906172 -0.30761671 0
-3.2818611 -0.16453561 -0.30840304 0
-3.1624086 -0.15112965 -0.30947635 0
-3.0402329 -0.15983711 -0.31047514 0
-2.9207804 -0.14643115 -0.31154847 0
-2.8305101 -0.14190504 -0.31233484 0
-2.7361877 -0.15677576 -0.31282994 0
-2.6459305 -0.15160219 -0.31358141 0
-2.5556734 -0.14642864 -0.31433287 0
1.2922964 -0.14863852 -0.34865639 0
1.3593813 -0.14644799 -0.34841111 0
1.4583268 -0.15233473 -0.34889734 0
1.5350991 -0.14997989 -0.3496922 0
1.6558754 -0.14248307 -0.35016602 0
1.7470193 -0.16321357 -0.34977278 0
1.8286813 -0.14424627 -0.35211316 0
1.966884 -0.1551469 -0.35329139 0
2.0477719 -0.14681482 -0.35374886 0
2.1288233 -0.15262493 -0.35442281 0
2.2292013 -0.14379263 -0.35521886 0
2.3258188 -0.15002526 -0.35610834 0
2.4473484 -0.15786688 -0.3571648 0
2.5608406 -0.15278274 -0.35839987 0
2.6764467 -0.15342067 -0.35935003 0
2.763855 -0.1584298 -0.36016452 0
2.8531294 -0.14304785 -0.36103559 0
2.942085 -0.13905653 -0.36185712 0
-3.5085526 -0.050228842 -0.30698958 0
-3.4702511 -0.082826823 -0.30601999 0
-3.3713493 -0.072369523 -0.30719256 0
-3.2809906 -0.070429534 -0.30796868 0
-3.1619661 -0.06047513 -0.30924371 0
-3.0385807 -0.07262399 -0.30979821 0
-2.9195559 -0.06266959 -0.31107318 0
-2.8291974 -0.060729604 -0.31184936 0
-2.7388387 -0.058789618 -0.31262547 0
-2.6484799 -0.056849629 -0.31340158 0
-2.5581212 -0.054909647 -0.31417772 0
1.29329 -0.064881988 -0.346995 0
1.3470117 -0.04021449 -0.34865955 0
1.4524344 -0.055052154 -0.3496435 0
1.5334481 -0.050966099 -0.35085386 0
1.6662198 -0.047709659 -0.35106188 0
1.7405542 -0.049833328 -0.3513217 0
1.8347925 -0.052474115 -0.35179582 0
1.9701424 -0.056351863 -0.35290584 0
2.0526831 -0.044022802 -0.35373244 0
2.13392 -0.045769181 -0.35439888 0
2.2335 -0.047942568 -0.35522839 0
2.3301899 -0.05003484 -0.35611486 0
2.4177084 -0.0519136 -0.3569198 0
2.5489862 -0.054731742 -0.35812727 0
2.6802638 -0.05754989 -0.35933471 0
2.7677824 -0.059428651 -0.3601397 0
2.8545208 -0.040828317 -0.36084259 0
2.9457989 -0.03509843 -0.36198702 0
-3.5018852 0.050133388 -0.3064062 0
-3.4759336 0.03719759 -0.3066535 0
-3.3593552 0.036226254 -0.30784607 0
-3.2579861 0.047003735 -0.30886179 0
-3.1521699 0.056515403 -0.30989966 0
-3.0363131 0.043413818 -0.31055385 0
-2.9266346 0.041824054 -0.31176391 0
-2.8362837 0.040529117 -0.31257895 0
-2.7459326 0.039234173 -0.31339395 0
-2.6555817 0.037939232 -0.31420895 0
-2.5652311 0.036644291 -0.31502399 0
1.2974031 0.055726685 -0.34796703 0
1.3440636 0.045746919 -0.34907109 0
1.4359343 0.051366072 -0.34871575 0
1.5236044 0.052128114 -0.34883258 0
1.6601075 0.047558624 -0.35003141 0
1.756209 0.046009619 -0.35029888 0
1.8357848 0.056161109 -0.3517063 0
1.9680099 0.056414679 -0.35289645 0
2.048981 0.044047486 -0.35402274 0
2.1307039 0.045802232 -0.3551203 0
2.2386556 0.048119921 -0.35657367 0
2.3390467 0.05027483 -0.35729048 0
2.4263229 0.052148256 -0.35782933 0
2.5326459 0.054418251 -0.35817781 0
2.6554599 0.057076614 -0.35949045 0
2.775429 0.059641983 -0.35998479 0
2.8579655 0.040866051 -0.36015481 0
2.9374049 0.04201787 -0.36071357 0
-3.509613 0.1256323 -0.30725542 0
-3.4717147 0.18237276 -0.30639067 0
-3.3730898 0.16906315 -0.3075451 0
-3.2558239 0.15554871 -0.30889514 0
-3.1474471 0.15807357 -0.30958241 0
-3.0391161 0.15973741 -0.31023571 0
-2.9218388 0.14643824 -0.31159422 0
-2.8315885 0.14191326 -0.31240404 0
-2.7414944 0.15710993 -0.31337488 0
-2.6512787 0.15193917 -0.31418547 0
-2.5610635 0.14676841 -0.31499609 0
1.2849956 0.14780416 -0.34668663 0
1.35466 0.14601174 -0.34766939 0
1.4539046 0.15190978 -0.34883225 0
1.5333642 0.14975873 -0.34935632 0
1.6540625 0.14242271 -0.35015872 0
1.7512285 0.16375256 -0.35097262 0
1.8275572 0.14157858 -0.35189301 0
1.9659534 0.1550809 -0.35344431 0
2.0482039 0.1468247 -0.35405865 0
2.1293766 0.15264362 -0.35483152 0
2.2347476 0.14420313 -0.35636216 0
2.3332398 0.1505826 -0.35715201 0
2.4393647 0.14843991 -0.35764587 0
2.5369122 0.16329439 -0.3587983 0
2.6548207 0.15843742 -0.35981533 0
2.7680857 0.15872031 -0.360542 0
2.8610332 0.14342226 -0.36128819 0
2.9413705 0.14747623 -0.36199319 0
-3.47103 0.2653985 -0.30722418 0
-3.3670595 0.26558036 -0.3081353 0
-3.2769046 0.25846815 -0.30887341 0
-3.1586297 0.24170478 -0.30989048 0
-3.03456 0.24678254 -0.3108089 0
-2.9128315 0.25072038 -0.31158057 0
-2.8227532 0.24296559 -0.31233284 0
-2.7281094 0.25453961 -0.31277925 0
-2.6380649 0.24613863 -0.31350163 0
-2.5456522 0.25589821 -0.31416303 0
-2.2583907 0.29253444 -0.3178398 0
-2.1747451 0.28169963 -0.31876162 0
-2.059242 0.27684346 -0.31963885 0
-1.9954662 0.28757241 -0.3193154 0
-1.8768007 0.29794931 -0.32132927 0
-1.7612903 0.27961159 -0.32262108 0
-1.6420038 0.27877301 -0.31991082 0
-1.542725 0.27512673 -0.32113609 0
-1.45539 0.27409065 -0.3241922 0
-1.3648711 0.26035771 -0.3256928 0
-1.2487197 0.25072047 -0.32650977 0
-1.186767 0.25543168 -0.32537276 0
1.2721279 0.24891877 -0.34740061 0
1.3515129 0.24785107 -0.34826899 0
1.4689939 0.25697398 -0.35064596 0
1.5456576 0.23427036 -0.35255292 0
1.6512245 0.25004527 -0.35205644 0
1.7741511 0.25877997 -0.35254079 0
1.8746008 0.24284999 -0.352265 0
1.9550439 0.2532692 -0.35282227 0
2.0368855 0.24905665 -0.35321781 0
2.1366718 0.26124838 -0.35359135 0
2.2186036 0.23506224 -0.35434961 0
2.3301048 0.25972056 -0.35522965 0
2.4466307 0.24596754 -0.35689506 0
2.5842571 0.24105076 -0.35853937 0
2.6713264 0.24917547 -0.35924783 0
2.7583952 0.25730014 -0.35995629 0
2.8485508 0.24515933 -0.36079451 0
2.9307013 0.25934741 -0.361637 0
-3.4662449 0.34827116 -0.30667457 0
-3.3525758 0.36127245 -0.30742317 0
-3.2626863 0.35158569 -0.30816802 0
-3.1727967 0.34189886 -0.30891287 0
-3.0818017 0.35444352 -0.30972034 0
-2.9553425 0.3483189 -0.3108272 0
-2.810616 0.34365195 -0.31209722 0
-2.7195847 0.35230526 -0.31298506 0
-2.6299484 0.34069479 -0.31376174 0
-2.533874 0.3430213 -0.31484455 0
-2.4492464 0.36026841 -0.31571484 0
-2.3338575 0.33632359 -0.31679893 0
-2.2412546 0.35578313 -0.31720856 0
-2.1577342 0.3425236 -0.31789365 0
-2.0747468 0.35994864 -0.31924132 0
-1.9697266 0.34741431 -0.32020363 0
-1.8537197 0.34899989 -0.3203021 0
-1.7520181 0.35134527 -0.32138726 0
-1.6379273 0.34493598 -0.32225686 0
-1.5581993 0.34481913 -0.3238003 0
-1.4508535 0.35593435 -0.324375 0
-1.3532635 0.32833004 -0.32540253 0
-1.2433548 0.31809133 -0.32585365 0
-1.1764933 0.30998549 -0.32599881 0
1.2525808 0.3492094 -0.34853074 0
1.3497319 0.35138926 -0.34865198 0
1.4615839 0.34484226 -0.34852749 0
1.5468223 0.34880704 -0.34944659 0
1.6453108 0.35867608 -0.34979597 0
1.7641227 0.34991243 -0.35228112 0
1.8647044 0.35089833 -0.35342628 0
1.9500498 0.35259649 -0.35414538 0
2.0299296 0.35211676 -0.35418871 0
2.1602547 0.34966609 -0.35475999 0
2.2221675 0.35463622 -0.3549684 0
2.3557613 0.34997582 -0.35640317 0
2.4778626 0.33906794 -0.35749683 0
2.5647943 0.35096133 -0.35851398 0
2.6514978 0.34348184 -0.35904944 0
2.7384944 0.35475013 -0.36005864 0
2.8300905 0.34599748 -0.36084697 0
2.9189339 0.35687029 -0.36182255 0
-3.4582355 0.45795733 -0.30654526 0
-3.3457589 0.45775586 -0.30749243 0
-3.2562313 0.44550711 -0.30830294 0
-3.1667037 0.43325832 -0.30911347 0
-3.0717893 0.46514964 -0.30978245 0
-2.982491 0.45162794 -0.31064188 0
-2.8549829 0.44501576 -0.31184599 0
-2.7354925 0.46120581 -0.3128427 0
-2.6182928 0.43488345 -0.3139658 0
-2.5317395 0.44457057 -0.31397104 0
-2.4613006 0.45109415 -0.31430355 0
-2.3484013 0.44210911 -0.31627172 0
-2.2294681 0.45273408 -0.31755117 0
-2.1431258 0.45119816 -0.31838581 0
-2.0538819 0.44786218 -0.31885591 0
-1.9543766 0.44475791 -0.31930307 0
-1.843208 0.44355053 -0.3202678 0
-1.764255 0.45137173 -0.32185125 0
-1.6382742 0.42857918 -0.32314831 0
-1.5642709 0.41215813 -0.32230493 0
1.1958495 0.47664052 -0.34494096 0
1.2457736 0.44734859 -0.34604779 0
1.3547283 0.45178723 -0.3478106 0
1.4408059 0.45072335 -0.34948972 0
1.5467377 0.45522031 -0.35028267 0
1.6572095 0.43668222 -0.35095015 0
1.7477014 0.46048769 -0.35152945 0
1.8300478 0.45432827 -0.35149205 0
1.9414392 0.45255676 -0.35255277 0
2.0665965 0.44759423 -0.35374296 0
2.184279 0.45996061 -0.35509771 0
2.2821703 0.44652048 -0.35533595 0
2.368124 0.46333727 -0.35620627 0
2.4613826 0.44510332 -0.3568671 0
2.5474374 0.46066698 -0.35760999 0
2.6425426 0.43889341 -0.35911861 0
2.7289164 0.45323956 -0.35995111 0
2.8394623 0.4578025 -0.35972247 0
2.9222176 0.42824745 -0.36327589 0
-3.4358807 0.57071036 -0.30625463 0
-3.3311772 0.55329651 -0.30724013 0
-3.2420666 0.53849488 -0.30808085 0
-3.1448662 0.54544592 -0.30904171 0
-3.0492654 0.55139434 -0.30989012 0
-2.960216 0.53528976 -0.31054425 0
-2.8670263 0.56103897 -0.31148005 0
-2.7782497 0.5436697 -0.31218073 0
-2.6673849 0.54181254 -0.3134591 0
-2.5292916 0.53645575 -0.31508869 0
-2.4767122 0.5550403 -0.31479031 0
-2.3733714 0.55317777 -0.31541613 0
-2.2714114 0.54322124 -0.3163951 0
-2.1441176 0.55830753 -0.31723648 0
-2.0266981 0.54962027 -0.31858009 0
-1.9342635 0.5395034 -0.31992683 0
-1.8349226 0.51166385 -0.32273847 0
-1.2385206 0.58837348 -0.32603613 0
-1.1452538 0.55968714 -0.32796574 0
-1.0880826 0.56575447 -0.32864824 0
1.1650156 0.55392259 -0.34575644 0
1.2495679 0.552194 -0.34640092 0
1.3681508 0.55585438 -0.34719342 0
1.4457639 0.5463773 -0.34865323 0
1.5575556 0.54043293 -0.35029674 0
1.6472727 0.54956132 -0.35119146 0
1.7358804 0.5616287 -0.35206544 0
1.8601246 0.55632019 -0.35264742 0
1.9620663 0.54424214 -0.35257003 0
2.0568428 0.55771565 -0.35288343 0
2.1578569 0.5520581 -0.35391489 0
2.2636561 0.54463828 -0.35571024 0
2.3487349 0.56511289 -0.35649738 0
2.4436712 0.55118316 -0.35759941 0
2.5356472 0.55294657 -0.35849863 0
2.6224058 0.55225545 -0.35887313 0
2.7501373 0.55855596 -0.35960191 0
2.8609531 0.53160667 -0.36160603 0
2.9078958 0.52586257 -0.36283541 0
-3.4299724 0.67953682 -0.30693069 0
-3.3391984 0.64499974 -0.30787551 0
-3.2221315 0.63051575 -0.30867729 0
-3.1315527 0.65938359 -0.3093628 0
-3.0431535 0.64076972 -0.31021106 0
-2.9473407 0.6426183 -0.31108817 0
-2.852283 0.64333194 -0.31174332 0
-2.7575023 0.64270377 -0.31224206 0
-2.6622653 0.64066362 -0.31271541 0
-2.5726471 0.6386562 -0.31367674 0
-2.4641957 0.64932114 -0.31459096 0
-2.3512309 0.65567279 -0.3163462 0
-2.2646565 0.66653234 -0.31736979 0
-2.1835606 0.64266056 -0.31811824 0
-2.0574205 0.64404023 -0.31884965 0
-1.9353261 0.66118002 -0.32035789 0
-1.5109406 0.69181037 -0.32301858 0
-1.4308666 0.66333699 -0.32438859 0
-1.3428153 0.66202587 -0.32582536 0
-1.2478025 0.64877063 -0.32671207 0
-1.1446656 0.64821786 -0.32715619 0
-1.0483832 0.65700936 -0.32771531 0
1.0965731 0.68477273 -0.34641868 0
1.1501951 0.6512996 -0.34549198 0
1.2590156 0.64324802 -0.34743074 0
1.3544189 0.65562004 -0.34830174 0
1.4442056 0.64881766 -0.34917259 0
1.5500512 0.65677088 -0.35030225 0
1.6686797 0.65761322 -0.35160914 0
1.7469031 0.6485768 -0.3520796 0
1.8612771 0.65073955 -0.35268664 0
1.9447006 0.64884621 -0.35325304 0
2.0353482 0.64684182 -0.35364461 0
2.1315253 0.64405996 -0.35360023 0
2.2443223 0.65205979 -0.35417968 0
2.3423686 0.65929824 -0.35548189 0
2.441061 0.64955521 -0.35671201 0
2.5460217 0.65169179 -0.35773653 0
2.6529527 0.65195304 -0.35923824 0
2.7585917 0.63615853 -0.360847 0
2.8701668 0.64741075 -0.36163419 0
-3.4244235 0.77246559 -0.3071335 0
-3.3550205 0.74847704 -0.3075062 0
-3.2493367 0.73322618 -0.30859363 0
-3.163147 0.75336939 -0.3092314 0
-3.0325906 0.75281519 -0.30987006 0
-2.9194372 0.74695623 -0.31069684 0
-2.8263552 0.74471802 -0.31152368 0
-2.7361712 0.74189299 -0.31249115 0
-2.6483581 0.73854834 -0.31378672 0
-2.5520296 0.75120121 -0.31477755 0
-2.439779 0.75614768 -0.31542286 0
-2.3233502 0.75673604 -0.31569213 0
-2.2345753 0.76341397 -0.31621811 0
-2.1549981 0.73623055 -0.31735167 0
-2.0682867 0.73984718 -0.31906998 0
-1.9594769 0.72189349 -0.32108769 0
-1.8539969 0.78550166 -0.31891191 0
-1.7233757 0.78907752 -0.3203409 0
-1.6535211 0.77151072 -0.32279068 0
-1.5403051 0.74566108 -0.32465172 0
-1.4618621 0.75276083 -0.32425368 0
-1.3640779 0.74680316 -0.3247321 0
-1.2465558 0.73484826 -0.32465488 0
-1.162014 0.76072884 -0.32662827 0
-1.0423281 0.74662954 -0.32827044 0
-0.96168 0.75493622 -0.32769275 0
1.0583419 0.74999607 -0.34517702 0
1.1503152 0.75661498 -0.34618169 0
1.2518837 0.75569284 -0.34660274 0
1.3350266 0.74523932 -0.34820765 0
1.4620749 0.7443856 -0.34909743 0
1.5509697 0.74632961 -0.3506082 0
1.6440578 0.75751656 -0.35206401 0
1.7302573 0.76246524 -0.35225183 0
1.8397396 0.75174123 -0.35265723 0
1.9456356 0.74991453 -0.35333928 0
2.0699492 0.76111865 -0.35398397 0
2.1356463 0.73721915 -0.35450023 0
2.2488046 0.75059861 -0.35586867 0
2.3634427 0.75116992 -0.35699508 0
2.4730966 0.74729306 -0.35762802 0
2.5558188 0.75225967 -0.35816729 0
2.6481817 0.75885385 -0.35930231 0
2.7451117 0.74430728 -0.35993955 0
2.8373077 0.75483781 -0.36069205 0
-3.4019539 0.84447706 -0.30666488 0
-3.367274 0.87014341 -0.30673447 0
-3.2697597 0.8365823 -0.30764082 0
-3.1724396 0.86018968 -0.30864817 0
-3.085186 0.83653033 -0.30941677 0
-2.948287 0.84497201 -0.31114218 0
-2.8361275 0.86438769 -0.31247425 0
-2.7241173 0.82300359 -0.31363487 0
-2.6392701 0.84584218 -0.31308863 0
-2.5374978 0.85352188 -0.31310484 0
-2.4261186 0.85223114 -0.31341273 0
-2.3658247 0.84625793 -0.31470299 0
-2.2593246 0.84478396 -0.31759694 0
-2.1408076 0.8004694 -0.31903681 0
-2.0498729 0.86849046 -0.3183178 0
-1.934351 0.85240328 -0.31766236 0
-1.8265213 0.8590731 -0.31972697 0
-1.7610615 0.85252398 -0.32134596 0
-1.6411701 0.85331815 -0.32240808 0
-1.5365379 0.85860378 -0.32318878 0
-1.4358926 0.83795619 -0.32379535 0
-1.3571186 0.83965462 -0.32414547 0
-1.2457067 0.8505016 -0.32605961 0
-1.1407939 0.85438514 -0.32778892 0
-1.0540659 0.8397119 -0.32786316 0
-0.9529326 0.84454942 -0.32925618 0
-0.86677945 0.86987126 -0.32910848 0
0.95511156 0.85453099 -0.34350181 0
1.0454438 0.84236926 -0.34603256 0
1.1498059 0.86144412 -0.34652638 0
1.2367227 0.84730911 -0.34684563 0
1.3415543 0.85107726 -0.34735239 0
1.4454683 0.85558271 -0.34860501 0
1.5585901 0.85481048 -0.35017726 0
1.633232 0.84087151 -0.35055336 0
1.7563224 0.85019553 -0.3526279 0
1.8538616 0.84572905 -0.3531644 0
1.958672 0.84643728 -0.35336718 0
2.0574694 0.85440785 -0.35398772 0
2.1573246 0.8598271 -0.35478213 0
2.2515466 0.86029416 -0.35563684 0
2.3472037 0.85853553 -0.35660276 0
2.4409249 0.85340482 -0.35741571 0
2.5405934 0.84761125 -0.35864151 0
2.6306713 0.8567903 -0.35959253 0
2.7222209 0.84383672 -0.36065763 0
2.8155332 0.84188098 -0.36169761 0
-3.3574352 0.9621948 -0.30738026 0
-3.2524228 0.93212807 -0.3083427 0
-3.1566961 0.95370024 -0.30948055 0
-3.0577939 0.94767278 -0.31039938 0
-2.9601398 0.94072908 -0.31103933 0
-2.8543861 0.95236486 -0.31111771 0
-2.7599785 0.94284075 -0.31148478 0
-2.665885 0.95361167 -0.31236693 0
-2.5753534 0.94207823 -0.31317651 0
-2.4392567 0.92808694 -0.31567892 0
-2.3540037 0.97734237 -0.31674814 0
-2.2332983 0.96506554 -0.31688738 0
-2.1500242 0.94743919 -0.31711468 0
-2.0654471 0.94587737 -0.31790629 0
-1.9616859 0.94630098 -0.31971377 0
-1.8470833 0.94366997 -0.32019806 0
-1.7640117 0.96582443 -0.32114032 0
-1.6487372 0.94927001 -0.322427 0
-1.5518609 0.95359915 -0.32268405 0
-1.4637156 0.9433471 -0.32281193 0
-1.3624794 0.94396031 -0.32493305 0
-1.2498904 0.95460284 -0.32599816 0
-1.1344025 0.94096178 -0.32723337 0
-1.0481937 0.94984543 -0.32855257 0
-0.94153386 0.94492602 -0.32805738 0
-0.84656984 0.95299983 -0.33004302 0
-0.75714999 0.97145462 -0.3301217 0
0.84944385 0.9562462 -0.34282145 0
0.9408558 0.94423509 -0.3442052 0
1.0497795 0.94112951 -0.3453725 0
1.1567967 0.95131099 -0.34657767 0
1.2599598 0.94603705 -0.34720889 0
1.3556544 0.94401675 -0.34795487 0
1.4619973 0.97218198 -0.34778017 0
1.5443115 0.93514448 -0.34968045 0
1.6339651 0.94075459 -0.35131499 0
1.7475048 0.95683593 -0.35159135 0
1.8436823 0.94759959 -0.35196266 0
1.9454944 0.94880104 -0.3538022 0
2.0228558 0.93941218 -0.35400221 0
2.1380877 0.96049643 -0.35474366 0
2.2449825 0.9576478 -0.35594082 0
2.3359487 0.95712894 -0.35658279 0
2.450171 0.95631206 -0.35747474 0
2.5599656 0.95039845 -0.35868049 0
2.6580281 0.9437049 -0.35959658 0
2.7606199 0.93213528 -0.36034745 0
-3.3450603 1.0544531 -0.30819556 0
-3.2433059 1.0394086 -0.3092317 0
-3.138428 1.0556109 -0.30904505 0
-3.0195365 1.0315336 -0.30947298 0
-2.940913 1.0519652 -0.31020063 0
-2.8303638 1.0353522 -0.31121039 0
-2.7422607 1.0478042 -0.31267995 0
-2.6440368 1.0538561 -0.31374902 0
-2.5554259 1.0398413 -0.31495026 0
-2.4554932 1.040332 -0.31562638 0
-2.3573987 1.0387669 -0.3163282 0
-2.2655101 1.0451437 -0.31661931 0
-2.137357 1.0536032 -0.31808192 0
-2.0217957 1.0513306 -0.31914771 0
-1.9265088 1.0548073 -0.32002494 0
-1.8322809 1.054935 -0.32084933 0
-1.7273202 1.0558927 -0.32161859 0
-1.6572225 1.0481503 -0.32142526 0
-1.5527771 1.0451939 -0.32262409 0
-1.4507612 1.0518557 -0.32464725 0
-1.3377284 1.0452485 -0.32489216 0
-1.2595041 1.0638168 -0.32372567 0
-1.1506212 1.0466163 -0.32689589 0
-1.0330653 1.0480918 -0.32702425 0
-0.94372761 1.0471045 -0.32748577 0
-0.84389573 1.0515978 -0.32925409 0
-0.75144243 1.0546731 -0.32941896 0
-0.65176165 1.0520134 -0.3317351 0
-0.58969992 1.0862511 -0.33118379 0
0.67063135 1.0825629 -0.34126446 0
0.75941461 1.0476087 -0.34429863 0
0.84611362 1.0412385 -0.34427515 0
0.94304061 1.046322 -0.34471434 0
1.0531474 1.0561162 -0.34632227 0
1.1443102 1.0387825 -0.34656671 0
1.2582029 1.0472556 -0.34715235 0
1.3537414 1.0441123 -0.34759322 0
1.4501318 1.0503112 -0.34955391 0
1.5552628 1.0503998 -0.34968379 0
1.6492689 1.0462552 -0.34980765 0
1.7471454 1.0563842 -0.35151118 0
1.8511243 1.0482588 -0.3526457 0
1.9618284 1.0427591 -0.3527019 0
2.0635231 1.0540974 -0.35386837 0
2.1702659 1.0506104 -0.3552815 0
2.2627153 1.0556979 -0.35558298 0
2.3579204 1.0592452 -0.35639247 0
2.451947 1.0595864 -0.35762337 0
2.5489228 1.0584887 -0.3587127 0
2.6449046 1.0541753 -0.35951391 0
2.7448075 1.0374802 -0.36054352 0
-3.3169827 1.1597413 -0.30743235 0
-3.2657425 1.1417841 -0.30777729 0
-3.170378 1.1597178 -0.30858886 0
-3.0614595 1.1448002 -0.30946106 0
-2.9471829 1.1503221 -0.31048864 0
-2.8369148 1.1387411 -0.311968 0
-2.7426195 1.1467832 -0.31352392 0
-2.6385098 1.1478137 -0.3139393 0
-2.5366261 1.1469963 -0.31445134 0
-2.4399822 1.1456429 -0.31516337 0
-2.3255181 1.1464325 -0.31667629 0
-2.2530963 1.1511117 -0.31742632 0
-2.1674788 1.1467773 -0.31842718 0
-2.0684381 1.1518724 -0.31909308 0
-1.9524004 1.1428185 -0.31965569 0
-1.8641857 1.1640435 -0.31993854 0
-1.7662255 1.1562746 -0.32039386 0
-1.6562718 1.1582422 -0.32242304 0
-1.5474374 1.1481655 -0.32400608 0
-1.4597731 1.1631979 -0.32414034 0
-1.3498032 1.1528842 -0.32355684 0
-1.2297398 1.1455406 -0.32586589 0
-1.1535329 1.1576946 -0.32556534 0
-1.0456055 1.160159 -0.32679546 0
-0.93525195 1.1372316 -0.3286404 0
-0.85184675 1.1509293 -0.32958311 0
-0.75938135 1.1571388 -0.33035713 0
-0.6540519 1.1455396 -0.33113506 0
-0.5502367 1.1518651 -0.33295399 0
-0.45490631 1.1535052 -0.3323468 0
-0.35458544 1.1886886 -0.33247572 0
0.47395158 1.1768397 -0.33998829 0
0.55315197 1.1534131 -0.34282884 0
0.63793617 1.1552408 -0.34254399 0
0.75157553 1.1450572 -0.34298855 0
0.86197639 1.1545618 -0.34401613 0
0.95880401 1.143532 -0.34530112 0
1.0582439 1.1574726 -0.34522608 0
1.1492487 1.153331 -0.34705234 0
1.2486197 1.1498703 -0.347222 0
1.3563366 1.1453321 -0.34767315 0
1.4455832 1.1348023 -0.34817219 0
1.5546757 1.1500179 -0.34932831 0
1.6684484 1.1477151 -0.35108534 0
1.7769934 1.1452692 -0.35120636 0
1.8797551 1.1658089 -0.35200194 0
1.9391479 1.1351666 -0.35413301 0
2.0458467 1.1519445 -0.35424986 0
2.1426351 1.1402855 -0.35387012 0
2.2406235 1.1515478 -0.35525146 0
2.3423197 1.1617738 -0.35677746 0
2.4141486 1.1474297 -0.35643926 0
2.535898 1.153649 -0.35745978 0
2.6573682 1.1635576 -0.3592051 0
2.7121243 1.1262411 -0.36105335 0
-3.2646704 1.2473909 -0.30742258 0
-3.1478655 1.2546774 -0.30885881 0
-3.0501211 1.2666477 -0.31057775 0
-2.9554069 1.2521375 -0.31128222 0
-2.854471 1.2578151 -0.31224987 0
-2.751219 1.2597136 -0.31256461 0
-2.6611338 1.2415662 -0.31331199 0
-2.5573997 1.2607503 -0.31456199 0
-2.4612792 1.2574493 -0.31572369 0
-2.3657739 1.2516699 -0.31681457 0
-2.2567124 1.2407868 -0.31788409 0
-2.1479728 1.2437491 -0.31829765 0
-2.0440795 1.2493002 -0.31787097 0
-1.947909 1.2424556 -0.31942317 0
-1.84466 1.2572674 -0.31992033 0
-1.7468599 1.2604003 -0.32220712 0
-1.6373345 1.2440691 -0.32286572 0
-1.5654562 1.2654887 -0.32367852 0
-1.4307575 1.2620389 -0.32380319 0
-1.3476455 1.2411035 -0.32460472 0
-1.2461125 1.2505802 -0.32504079 0
-1.1346091 1.2410349 -0.32638508 0
-1.060089 1.2726976 -0.3267017 0
-0.94776863 1.2529417 -0.32826218 0
-0.85124087 1.2508446 -0.32963181 0
-0.7503944 1.2417157 -0.33101302 0
-0.65717334 1.255659 -0.33112204 0
-0.55595732 1.2610965 -0.33122313 0
-0.45120892 1.2508302 -0.33231986 0
-0.3469938 1.2621667 -0.33322707 0
-0.25963286 1.25526 -0.33621383 0
-0.14811771 1.2478505 -0.33680788 0
-0.049426131 1.2548745 -0.33657187 0
0.049296353 1.2557037 -0.33682373 0
0.14848015 1.2512506 -0.33769298 0
0.24976873 1.2457429 -0.33803388 0
0.35272083 1.2483307 -0.33876646 0
0.44762391 1.2453626 -0.34160519 0
0.55925852 1.2524618 -0.34250164 0
0.64573723 1.2528422 -0.34160024 0
0.75272489 1.265123 -0.3436698 0
0.84903413 1.2335373 -0.34384492 0
0.95289826 1.2411786 -0.34435615 0
1.0514452 1.2515078 -0.34584984 0
1.1497282 1.2540162 -0.34570497 0
1.249923 1.2543796 -0.34623414 0
1.3469254 1.2404442 -0.34833968 0
1.4490857 1.2419467 -0.34853959 0
1.5481057 1.244056 -0.34938985 0
1.6581284 1.2450527 -0.35069966 0
1.76973 1.2628546 -0.35021201 0
1.8393021 1.2421659 -0.35295588 0
1.9432235 1.2524776 -0.35299146 0
2.0559897 1.2431486 -0.35394698 0
2.1616046 1.2445855 -0.35486054 0
2.2529526 1.2546537 -0.35563338 0
2.3437154 1.2615346 -0.35597387 0
2.4632933 1.2362289 -0.3572993 0
2.5625362 1.2405151 -0.35771593 0
2.6300688 1.2500837 -0.35756207 0
-3.2377977 1.3445756 -0.30886918 0
-3.129113 1.325743 -0.31013986 0
-3.0573664 1.3472773 -0.31019378 0
-2.9575222 1.3541529 -0.31151038 0
-2.8384845 1.3656145 -0.3114804 0
-2.7121873 1.3612386 -0.3135035 0
-2.6224968 1.3398123 -0.31429216 0
-2.5170484 1.3548373 -0.3154268 0
-2.4204021 1.347831 -0.3164019 0
-2.3430741 1.3566604 -0.31672692 0
-2.2287707 1.3304688 -0.31637603 0
-2.1556962 1.3603014 -0.31705731 0
-2.0498719 1.341975 -0.31807458 0
-1.9465315 1.3556545 -0.31929034 0
-1.8546629 1.3514851 -0.32081234 0
-1.7480773 1.3521819 -0.32180133 0
-1.6433408 1.3479745 -0.32261258 0
-1.5297577 1.3493493 -0.32311809 0
-1.4631041 1.3474323 -0.32353449 0
-1.3479782 1.3528082 -0.3241666 0
-1.2381761 1.3543116 -0.32484248 0
-1.1393989 1.3393877 -0.32596093 0
-1.0389502 1.3479778 -0.32688883 0
-0.96411258 1.3533249 -0.32844433 0
-0.85039902 1.346729 -0.32923988 0
-0.75120503 1.3605524 -0.33024105 0
-0.64132339 1.3429826 -0.33092761 0
-0.53865331 1.3413581 -0.33291396 0
-0.43769115 1.3560848 -0.33251187 0
-0.35697791 1.3546636 -0.33337519 0
-0.24051419 1.348307 -0.3344802 0
-0.14995384 1.3460246 -0.33576545 0
-0.053320147 1.3538448 -0.33572397 0
0.048704896 1.3541884 -0.33699989 0
0.15013978 1.3495853 -0.33733603 0
0.24474052 1.3451877 -0.33820593 0
0.35121831 1.3528662 -0.33882058 0
0.46802592 1.3604777 -0.34016588 0
0.54864478 1.3641855 -0.34119698 0
0.65404904 1.3318206 -0.34183696 0
0.74356371 1.3464012 -0.3430143 0
0.84982461 1.350214 -0.3432914 0
0.94942129 1.332629 -0.34354553 0
1.0516413 1.34954 -0.34450322 0
1.1479304 1.3495406 -0.34543779 0
1.2451847 1.3423505 -0.34672743 0
1.3394046 1.3442354 -0.34628245 0
1.4422926 1.3473978 -0.34894678 0
1.5416766 1.3442091 -0.34971675 0
1.6351001 1.3412907 -0.35004231 0
1.7486172 1.3525256 -0.35135379 0
1.8596355 1.3552358 -0.35128611 0
1.9506657 1.3582692 -0.35326907 0
2.0631452 1.3507252 -0.35423753 0
2.1588225 1.341046 -0.35439762 0
2.2577982 1.358091 -0.35426149 0
2.3551874 1.356024 -0.3570033 0
2.4499962 1.3414404 -0.35703349 0
2.556936 1.3451166 -0.35782969 0
2.6147389 1.3123024 -0.35921508 0
-3.2241211 1.4484372 -0.30923909 0
-3.1627328 1.4481283 -0.30914584 0
-3.0712461 1.4329009 -0.30981016 0
-2.9715171 1.4385262 -0.31037706 0
-2.8740082 1.4424553 -0.31209111 0
-2.7750947 1.44288 -0.31309104 0
-2.6666946 1.4601021 -0.31396413 0
-2.5670061 1.453611 -0.31488401 0
-2.463176 1.4416832 -0.3150976 0
-2.3487315 1.4433864 -0.31505597 0
-2.2483318 1.4490856 -0.31669083 0
-2.1441801 1.4480364 -0.31772548 0
-2.0637789 1.4592204 -0.3185499 0
-1.9777098 1.4630085 -0.31866491 0
-1.8658967 1.4433088 -0.32072571 0
-1.7598615 1.4436063 -0.32149419 0
-1.6654167 1.4478608 -0.32163635 0
-1.5536045 1.4514258 -0.32267678 0
-1.4483403 1.4352165 -0.32414901 0
-1.3659924 1.4656028 -0.32280394 0
-1.2515199 1.4500252 -0.32456687 0
-1.1401522 1.4418004 -0.32591093 0
-1.0465254 1.4469657 -0.32720464 0
-0.94692016 1.4350563 -0.32892513 0
-0.84532416 1.4494656 -0.32856247 0
-0.73984402 1.4610411 -0.32970178 0
-0.65673047 1.4480234 -0.33055261 0
-0.54331952 1.4550147 -0.33192477 0
-0.4423123 1.4454697 -0.3322379 0
-0.34054661 1.434136 -0.33512661 0
-0.24795438 1.4417744 -0.33307725 0
-0.15262184 1.4446564 -0.3357015 0
-0.055491466 1.450262 -0.33524817 0
0.048657075 1.459048 -0.33738759 0
0.15287118 1.4523603 -0.33785328 0
0.26006559 1.4375758 -0.33774337 0
0.36361164 1.431291 -0.33910602 0
0.44651386 1.4287844 -0.34010518 0
0.54757845 1.4484816 -0.34075713 0
0.65385538 1.4416786 -0.34297499 0
0.74547499 1.4462998 -0.34236223 0
0.84666675 1.4583926 -0.34333369 0
0.95840192 1.4549493 -0.34401035 0
1.0514483 1.4319452 -0.34404245 0
1.151792 1.4563876 -0.34595728 0
1.2496984 1.448017 -0.34655562 0
1.3578603 1.4556429 -0.34691334 0
1.4514314 1.4358861 -0.34763539 0
1.5451914 1.4435135 -0.34911612 0
1.6549186 1.4596115 -0.35094821 0
1.7417958 1.4497626 -0.35098594 0
1.8399636 1.4303447 -0.35147667 0
1.9437078 1.4520973 -0.35319996 0
2.0423596 1.4514346 -0.35316268 0
2.1360588 1.4425398 -0.35504511 0
2.2272234 1.458148 -0.35547271 0
2.341218 1.4386936 -0.35541573 0
2.4498549 1.45754 -0.35547274 0
2.5374131 1.4368619 -0.35804802 0
-3.1451056 1.5503057 -0.30922353 0
-3.0255401 1.5457197 -0.31071332 0
-2.925873 1.5479962 -0.31175575 0
-2.8254404 1.5470184 -0.31244454 0
-2.7245567 1.5428294 -0.31343928 0
-2.622201 1.5348587 -0.31431472 0
-2.5503306 1.5422153 -0.31326932 0
-2.4503078 1.5545796 -0.31495187 0
-2.3367417 1.5379381 -0.31613854 0
-2.239645 1.5359317 -0.31584659 0
-2.1780181 1.5634073 -0.31736708 0
-2.0607042 1.5531325 -0.3183713 0
-1.9460331 1.5503011 -0.31961548 0
-1.8467393 1.5447448 -0.32040793 0
-1.7508163 1.5442395 -0.32085678 0
-1.6469294 1.5385568 -0.32150549 0
-1.5520008 1.5575943 -0.32351676 0
-1.4448268 1.5576824 -0.32263818 0
-1.3402275 1.5330126 -0.32327878 0
-1.262763 1.5657493 -0.32443359 0
-1.1475085 1.5397431 -0.32590833 0
-1.0525122 1.5466633 -0.32750466 0
-0.94636577 1.5524516 -0.32736638 0
-0.85683048 1.551827 -0.32888186 0
-0.76192325 1.5317844 -0.32944176 0
-0.65404159 1.5592164 -0.33104059 0
-0.55242842 1.5618728 -0.33097538 0
-0.45060638 1.5513829 -0.33289036 0
-0.34569213 1.5582739 -0.3343235 0
-0.23860709 1.5629617 -0.3342725 0
-0.14504401 1.548797 -0.33456784 0
-0.049771834 1.5453186 -0.3350035 0
0.049764801 1.5430387 -0.33700952 0
0.14266437 1.5507733 -0.33737361 0
0.25045127 1.5415244 -0.33769518 0
0.34147602 1.5542818 -0.33812878 0
0.44151267 1.5441668 -0.34037629 0
0.56146252 1.5421255 -0.340633 0
0.64964008 1.5486273 -0.34265471 0
0.76103485 1.5578609 -0.34302455 0
0.84855843 1.5413594 -0.34323227 0
0.94499409 1.550163 -0.34386396 0
1.0415698 1.5306065 -0.34504807 0
1.1434047 1.5571953 -0.34568724 0
1.253406 1.5619103 -0.34795976 0
1.3572134 1.5496049 -0.34729448 0
1.4654286 1.5533251 -0.34659052 0
1.5499114 1.5555071 -0.34864011 0
1.6389573 1.5423288 -0.34994087 0
1.7454071 1.5540642 -0.35200515 0
1.8364916 1.5285726 -0.3519381 0
1.9379058 1.5437317 -0.35269737 0
2.0416744 1.5559406 -0.35344496 0
2.1571009 1.5483757 -0.3545779 0
2.2529676 1.5687585 -0.35519943 0
2.3551097 1.5418577 -0.35665935 0
2.4599943 1.5607195 -0.35773429 0
-3.1421232 1.6336925 -0.30984443 0
-3.0749421 1.655128 -0.31024104 0
-2.9737978 1.6559943 -0.31099606 0
-2.870096 1.6524844 -0.31202787 0
-2.7614198 1.642939 -0.31244773 0
-2.6498554 1.6547502 -0.31293759 0
-2.5529573 1.6454207 -0.3141453 0
-2.4399092 1.647707 -0.31473535 0
-2.3340092 1.6502824 -0.31560588 0
-2.2388344 1.6314611 -0.31657517 0
-2.1238031 1.6428256 -0.31792459 0
-2.0264976 1.6431412 -0.31803459 0
-1.9634113 1.6581419 -0.31926152 0
-1.8520517 1.657274 -0.31952435 0
-1.7428474 1.6517205 -0.32063907 0
-1.6416496 1.6475658 -0.32232288 0
-1.5403017 1.6529351 -0.32100523 0
-1.467186 1.6515185 -0.32230327 0
-1.3565916 1.641876 -0.32356158 0
-1.2445297 1.6423496 -0.32487994 0
-1.159299 1.6522666 -0.32557932 0
-1.0480251 1.638903 -0.32738698 0
-0.94551277 1.66131 -0.32783699 0
-0.84861219 1.64649 -0.32846057 0
-0.75157797 1.6443278 -0.32937935 0
-0.65439379 1.6589131 -0.33100647 0
-0.55134231 1.633016 -0.33152086 0
-0.44008636 1.6515909 -0.33315447 0
-0.3483057 1.661345 -0.33370829 0
-0.25784311 1.661727 -0.33396578 0
-0.14898714 1.6610565 -0.33411419 0
-0.053070068 1.6482605 -0.33550063 0
0.046951998 1.6425395 -0.33694509 0
0.15838206 1.6549051 -0.3376115 0
0.24867849 1.6489899 -0.33841237 0
0.35805336 1.6710002 -0.33732939 0
0.44169959 1.6689719 -0.33927608 0
0.54507458 1.6534307 -0.34104079 0
0.66191095 1.639488 -0.34204197 0
0.74867916 1.6371065 -0.34336939 0
0.85774446 1.6355251 -0.34355655 0
0.94407201 1.6532624 -0.34350634 0
1.0405281 1.6271995 -0.34552917 0
1.1439744 1.6555297 -0.34669638 0
1.2505902 1.6530404 -0.34676081 0
1.3524535 1.6367314 -0.3489075 0
1.4436877 1.6487306 -0.34800562 0
1.5515057 1.6726389 -0.34819952 0
1.6470304 1.6529061 -0.34979582 0
1.7390791 1.6245896 -0.3507686 0
1.8456444 1.6514323 -0.35229576 0
1.9703871 1.64002 -0.35300076 0
2.0597284 1.6651163 -0.35341755 0
2.1508338 1.655592 -0.35452214 0
2.2569418 1.6528378 -0.35497847 0
2.3680246 1.6490271 -0.35641977 0
-3.1082301 1.7018278 -0.31002697 0
-3.0498233 1.7559998 -0.31040505 0
-2.9350531 1.717981 -0.31182441 0
-2.8505764 1.7517835 -0.3111895 0
-2.7407932 1.7482166 -0.31230018 0
-2.6422114 1.7569432 -0.31386146 0
-2.5385969 1.7409506 -0.31342107 0
-2.4533017 1.7523483 -0.31483498 0
-2.370182 1.7533479 -0.31511444 0
-2.2508748 1.741104 -0.31699035 0
-2.1464169 1.7607692 -0.31749305 0
-2.0308707 1.7655557 -0.31867722 0
-1.9497006 1.7196612 -0.31921369 0
-1.8730026 1.7666086 -0.3190887 0
-1.7452502 1.7515488 -0.32102659 0
-1.6430786 1.7461503 -0.32084724 0
-1.5542769 1.7666384 -0.32183686 0
-1.4639257 1.746111 -0.32301238 0
-1.3522273 1.7612562 -0.32418868 0
-1.2418572 1.7431668 -0.32527062 0
-1.1403383 1.7284268 -0.32603267 0
-1.0490565 1.7489264 -0.32604063 0
-0.94623232 1.7731462 -0.32813135 0
-0.86038482 1.7297202 -0.32822186 0
-0.75359285 1.7541964 -0.32996833 0
-0.65770125 1.7401574 -0.33070642 0
-0.54791892 1.7533395 -0.33200419 0
-0.43816653 1.7387056 -0.33291718 0
-0.33844489 1.7632971 -0.33340737 0
-0.24325429 1.7312769 -0.33460483 0
-0.15585907 1.738041 -0.33410692 0
-0.060108654 1.7334021 -0.33549464 0
0.042209204 1.7401085 -0.33670688 0
0.14767793 1.738109 -0.33744738 0
0.2446989 1.731576 -0.33828205 0
0.33554572 1.7467233 -0.33821151 0
0.45846838 1.7656368 -0.33942145 0
0.54892111 1.7490196 -0.34096718 0
0.64638025 1.7476984 -0.34216359 0
0.74143022 1.7605683 -0.34344915 0
0.84539092 1.7304538 -0.34390014 0
0.94754589 1.7512556 -0.34383887 0
1.0566158 1.7332649 -0.3456471 0
1.154019 1.7490165 -0.34752822 0
1.258718 1.7668458 -0.34841514 0
1.3413635 1.7398738 -0.34891587 0
1.4329616 1.7513274 -0.34948239 0
1.5515779 1.7547213 -0.34864128 0
1.6351339 1.7461624 -0.3485764 0
1.7381449 1.7444339 -0.3505151 0
1.8538477 1.7568438 -0.35209358 0
1.9612671 1.7466702 -0.35272369 0
2.045459 1.7526889 -0.35332465 0
2.1445611 1.7504495 -0.35437503 0
2.2478075 1.747336 -0.35472015 0
2.3171988 1.739948 -0.35580486 0
-3.0178061 1.8545444 -0.30990124 0
-2.9571469 1.8466293 -0.31030414 0
-2.8468533 1.8637536 -0.3118431 0
-2.7404914 1.8506947 -0.3124997 0
-2.6298194 1.8594345 -0.31289497 0
-2.5316687 1.8448645 -0.31389606 0
-2.4238844 1.8473909 -0.31526691 0
-2.3473356 1.8518987 -0.31603357 0
-2.2470837 1.8433008 -0.31641394 0
-2.1808562 1.8686985 -0.31740004 0
-2.0857248 1.8396342 -0.31799737 0
-1.9431975 1.8681448 -0.3192302 0
-1.834789 1.8414406 -0.31998274 0
-1.7600811 1.8705076 -0.3198716 0
-1.6368465 1.842501 -0.32135451 0
-1.5436252 1.8588384 -0.32259166 0
-1.442776 1.8515183 -0.32313421 0
-1.3535743 1.8714384 -0.32447979 0
-1.2407125 1.8516361 -0.32535511 0
-1.1419919 1.8434 -0.32611772 0
-1.0400765 1.8521359 -0.32797593 0
-0.94593847 1.8354038 -0.32707763 0
-0.85065639 1.8617122 -0.32783771 0
-0.7441532 1.8636802 -0.33037281 0
-0.66016257 1.8252616 -0.33065915 0
-0.54996914 1.8538078 -0.3320891 0
-0.46348405 1.8277756 -0.33210784 0
-0.35338858 1.8411657 -0.33317816 0
-0.24813418 1.8627756 -0.3338902 0
-0.14100522 1.8734454 -0.33464223 0
-0.046298791 1.8473282 -0.33583745 0
0.046354443 1.8528348 -0.33725151 0
0.14761874 1.8573933 -0.33806542 0
0.25003347 1.8444201 -0.33873096 0
0.34472847 1.8684491 -0.33879644 0
0.45196894 1.8486936 -0.33958444 0
0.55904585 1.8266611 -0.34075773 0
0.64596987 1.8690279 -0.34208429 0
0.74795198 1.85706 -0.34350017 0
0.85915679 1.8314178 -0.34419119 0
0.94377643 1.8637106 -0.34457645 0
1.0531224 1.8651052 -0.34440321 0
1.1420151 1.8613322 -0.34705973 0
1.2244023 1.8271428 -0.34903654 0
1.3407218 1.8537483 -0.34877908 0
1.4613336 1.875167 -0.34939173 0
1.5486135 1.8379608 -0.34965888 0
1.632576 1.8376889 -0.3491658 0
1.7434207 1.8527426 -0.35030335 0
1.8738289 1.8538493 -0.35186446 0
1.9644241 1.8529638 -0.35380936 0
2.0573499 1.8499123 -0.35347474 0
2.1565778 1.8587596 -0.35370645 0
2.2374866 1.8354602 -0.3553476 0
-2.9501994 1.9414458 -0.31121826 0
-2.8375487 1.9459696 -0.31099558 0
-2.7477608 1.9427941 -0.31175429 0
-2.6617131 1.9690082 -0.31275073 0
-2.5680251 1.9572443 -0.31394196 0
-2.455323 1.955934 -0.31511435 0
-2.3433118 1.9505155 -0.31598002 0
-2.2361395 1.9440085 -0.31679222 0
-2.1414375 1.9161758 -0.31746152 0
-2.0584562 1.9508451 -0.31872401 0
-1.9535576 1.9417652 -0.31874922 0
-1.8489925 1.9650396 -0.31960782 0
-1.735207 1.9532806 -0.32082176 0
-1.6548499 1.9453948 -0.32176486 0
-1.534584 1.9405566 -0.32293716 0
-1.4399115 1.9510962 -0.32389343 0
-1.3362634 1.9635046 -0.32477787 0
-1.2474524 1.9509296 -0.32500586 0
-1.1393415 1.9462824 -0.32616466 0
-1.0375503 1.9783257 -0.32405353 0
-0.95749491 1.9248614 -0.32497466 0
-0.84008801 1.9550095 -0.32652196 0
-0.73385108 1.9560297 -0.33094299 0
-0.64940059 1.9500722 -0.33022991 0
-0.55193603 1.952045 -0.33145601 0
-0.44635054 1.9462351 -0.33323053 0
-0.35222498 1.9388895 -0.3326984 0
-0.24433239 1.9407024 -0.3336269 0
-0.14700389 1.9531379 -0.33488128 0
-0.049283188 1.966608 -0.33564842 0
0.051797576 1.9577137 -0.3370415 0
0.14859863 1.9732643 -0.33833838 0
0.24693644 1.9611639 -0.33846572 0
0.35928771 1.9473095 -0.33910149 0
0.45669472 1.9279323 -0.33994412 0
0.56286818 1.9377507 -0.34102085 0
0.65001065 1.9714602 -0.34200004 0
0.7481035 1.9370632 -0.34347743 0
0.8510347 1.966669 -0.34320602 0
0.9548226 1.9545425 -0.34516487 0
1.0485184 1.9476775 -0.34370941 0
1.1555972 1.9580616 -0.34674704 0
1.2580171 1.9365816 -0.34873629 0
1.3510551 1.9550413 -0.34923527 0
1.4478954 1.9521832 -0.34870729 0
1.5440159 1.9238895 -0.35028204 0
1.6508952 1.9407412 -0.35007659 0
1.7585737 1.9513172 -0.35002562 0
1.8484777 1.9552094 -0.35147193 0
1.9237726 1.9306397 -0.35252851 0
2.0414734 1.9626249 -0.3541573 0
2.12971 1.9613366 -0.35550129 0
-2.9248786 2.0058596 -0.31028703 0
-2.8617196 2.0542421 -0.31074235 0
-2.7415073 2.0586212 -0.31224275 0
-2.6318078 2.0357227 -0.31363609 0
-2.5610816 2.0402622 -0.31386817 0
-2.456341 2.054338 -0.31510001 0
-2.3395112 2.0537617 -0.31577817 0
-2.2765338 2.0370612 -0.31614068 0
-2.1393456 2.0567226 -0.31739146 0
-2.0311482 2.0385141 -0.31816709 0
-1.9384942 2.0407078 -0.31845737 0
-1.868523 2.0731912 -0.31931031 0
-1.7664248 2.046674 -0.32029614 0
-1.6442631 2.0447354 -0.32221249 0
-1.5460513 2.0437789 -0.32288384 0
-1.4498535 2.0456667 -0.32405749 0
-1.3540245 2.0515463 -0.32471311 0
-1.2341949 2.0575762 -0.32513919 0
-1.1366287 2.0240519 -0.32531443 0
-1.0466027 2.0667427 -0.32097837 0
-0.95886874 2.0362563 -0.31984842 0
-0.84120351 2.0545001 -0.31820178 0
-0.75731349 2.0479448 -0.32041639 0
-0.64189374 2.0342989 -0.32437083 0
-0.54073125 2.0230899 -0.331716 0
-0.43902922 2.0484612 -0.33183432 0
-0.34654033 2.0411446 -0.33303449 0
-0.25862214 2.0542679 -0.333518 0
-0.15700698 2.0458112 -0.33477145 0
-0.05127278 2.046128 -0.33552238 0
0.051426984 2.051584 -0.33698422 0
0.15459673 2.0529571 -0.33842826 0
0.24255283 2.0438769 -0.33889779 0
0.34486616 2.031065 -0.33901271 0
0.46116513 2.0612226 -0.34060889 0
0.5449701 2.0550904 -0.34107503 0
0.64941764 2.0561788 -0.34184527 0
0.75650781 2.033088 -0.34430084 0
0.84769732 2.0409222 -0.34335655 0
0.94934922 2.0537102 -0.34481642 0
1.0402002 2.0418236 -0.34495425 0
1.1505156 2.0485435 -0.34542817 0
1.2556758 2.0381496 -0.34792802 0
1.3397075 2.0623047 -0.34858468 0
1.4395902 2.0516057 -0.34930554 0
1.5479776 2.0463011 -0.34880966 0
1.6410475 2.0448277 -0.35092884 0
1.7527337 2.0403705 -0.35044649 0
1.8661391 2.0506704 -0.35159954 0
1.9646925 2.0388563 -0.35245422 0
2.0326991 2.0399532 -0.35360408 0
-2.8319097 2.1583085 -0.31152129 0
-2.7567101 2.1640091 -0.31222665 0
-2.650445 2.142616 -0.31357169 0
-2.5378401 2.1433547 -0.31443059 0
-2.4257851 2.1395664 -0.31495655 0
-2.2543964 2.157213 -0.31646311 0
-2.1726735 2.1495063 -0.31687701 0
-2.0503612 2.1480594 -0.31787527 0
-1.9292984 2.140625 -0.31876406 0
-1.8599398 2.1549773 -0.32017386 0
-1.7658492 2.1473491 -0.32182115 0
-1.6560382 2.1568675 -0.32213262 0
-1.5388501 2.1405532 -0.32371384 0
-1.4573187 2.1678417 -0.32444245 0
-1.3499515 2.1447072 -0.32409692 0
-1.251017 2.1551683 -0.32527497 0
-1.1574998 2.1320286 -0.32286859 0
-1.0519333 2.1532109 -0.31624761 0
-0.95645863 2.1495934 -0.312675 0
-0.84941792 2.1533475 -0.30902749 0
-0.74587411 2.1408956 -0.30834469 0
-0.66929007 2.1323946 -0.30783659 0
-0.20426905 2.107831 -0.33569819 0
-0.12899218 2.1178918 -0.33620828 0
-0.04544574 2.1183712 -0.33569759 0
0.043070495 2.1276424 -0.33741868 0
0.15279388 2.1312275 -0.3385883 0
0.25227103 2.1258271 -0.33952007 0
0.34302723 2.1117098 -0.33924454 0
0.41470113 2.1059749 -0.34000126 0
0.65725756 2.1475687 -0.34201062 0
0.74947202 2.1427855 -0.34272778 0
0.84640384 2.1451962 -0.34487048 0
0.95252943 2.1406968 -0.34414759 0
1.0513166 2.1388361 -0.34602621 0
1.1442034 2.1441822 -0.34487978 0
1.2491055 2.1515961 -0.34692085 0
1.354272 2.1515369 -0.34850851 0
1.4621531 2.1593251 -0.34967077 0
1.543875 2.1345978 -0.34942403 0
1.6392984 2.1670249 -0.34937742 0
1.7485384 2.1365986 -0.35173595 0
1.8502843 2.1438334 -0.35084635 0
1.9374813 2.1189706 -0.35254925 0
-2.7538888 2.237042 -0.31303874 0
-2.6456354 2.2562268 -0.31323293 0
-2.5618091 2.2595391 -0.31374019 0
-2.4497795 2.2561193 -0.31460917 0
-2.335494 2.2453008 -0.31555271 0
-2.2549968 2.2630889 -0.31649196 0
-2.1606066 2.2528973 -0.31678239 0
-2.0645285 2.2580535 -0.31746295 0
-1.9444141 2.2528977 -0.31870922 0
-1.8453875 2.2334371 -0.32059133 0
-1.7113246 2.2288737 -0.32152554 0
-1.6301007 2.2538095 -0.32388079 0
-1.5528665 2.2471662 -0.32364526 0
-1.417135 2.2161927 -0.32299018 0
-1.3501141 2.2508795 -0.3247101 0
-1.2462101 2.2647245 -0.32160184 0
-1.1487968 2.2527003 -0.31616735 0
-1.0535666 2.2540946 -0.30959114 0
-0.96505541 2.2549477 -0.30442789 0
-0.89335597 2.2182505 -0.30322027 0
0.68246877 2.2299497 -0.34194356 0
0.76004106 2.251025 -0.34264925 0
0.85428578 2.2599456 -0.3447969 0
0.95444506 2.2305353 -0.34413958 0
1.0510004 2.2570529 -0.34550244 0
1.1547261 2.2405369 -0.3455818 0
1.2486932 2.2612951 -0.34588939 0
1.3653899 2.2397759 -0.34799278 0
1.4547418 2.2632363 -0.3486338 0
1.5479823 2.2400057 -0.34973493 0
1.6671327 2.2706275 -0.34941819 0
1.7498276 2.2323031 -0.35044071 0
1.828629 2.2130077 -0.352485 0
-2.7275715 2.3035369 -0.31234667 0
-2.6583092 2.3557754 -0.31273511 0
-2.4662595 2.3710194 -0.31432694 0
-2.3513145 2.3598254 -0.31521097 0
-2.2374296 2.3439491 -0.31602439 0
-2.160907 2.3634079 -0.31690103 0
-2.0562236 2.3593876 -0.3179442 0
-1.9610764 2.3734438 -0.31946057 0
-1.8581669 2.3496263 -0.3207801 0
-1.7382791 2.3325438 -0.3219406 0
-1.643232 2.3418303 -0.32203457 0
-1.5918745 2.3391392 -0.32379344 0
-1.2923297 2.3013484 -0.32407451 0
0.69022727 2.3144383 -0.34152356 0
0.74353194 2.36884 -0.34216881 0
0.85630274 2.3669927 -0.34394622 0
0.95680445 2.3276465 -0.34476161 0
1.0580434 2.3778415 -0.34479007 0
1.1635866 2.3393862 -0.3462337 0
1.2666608 2.3736439 -0.34599781 0
1.3578639 2.3389373 -0.34756497 0
1.4530333 2.3579426 -0.34918952 0
1.5560094 2.3583488 -0.34937337 0
1.6357634 2.3311505 -0.34967473 0
-2.5563505 2.4576533 -0.31348351 0
-2.4472752 2.4560571 -0.31496608 0
-2.362766 2.4752593 -0.314926 0
-2.2483699 2.4591212 -0.31597766 0
-2.1400461 2.4440072 -0.31702745 0
-2.0416534 2.4587481 -0.31836745 0
-1.8771836 2.4448929 -0.31970438 0
-1.7423515 2.4456067 -0.32179129 0
-1.6684959 2.4517288 -0.32280362 0
0.75810254 2.4770927 -0.34174231 0
0.84726691 2.451318 -0.34346876 0
0.9569574 2.4263465 -0.34486878 0
1.0566928 2.4694951 -0.34515691 0
1.1507113 2.4434776 -0.34615695 0
1.2386299 2.4603374 -0.34658781 0
1.3454261 2.4532237 -0.34692174 0
1.4388927 2.4379802 -0.34889445 0
-2.5354359 2.5445344 -0.31426644 0
-2.4470336 2.5511944 -0.31398258 0
-2.344599 2.5643139 -0.31511015 0
-2.2739165 2.5596256 -0.31556475 0
-2.1658015 2.5459309 -0.31685984 0
-2.066412 2.5375514 -0.31934756 0
-1.960113 2.5529027 -0.31879377 0
-1.8430254 2.5482035 -0.3214325 0
-1.7594184 2.5460553 -0.3212553 0
