# .PCD v0.7 - Point Cloud Data file format
VERSION 0.7
FIELDS x y z intensity
SIZE 4 4 4 4
TYPE F F F F
COUNT 1 1 1 1
WIDTH 170
HEIGHT 1
VIEWPOINT 0 0 0 1 0 0 0
POINTS 170
DATA ascii
-45.123322 20.019878 2.5788231 9
-45.057823 19.993065 4.3045783 10
-45.006535 19.972561 6.0378399 11
-44.951965 19.950623 7.7815685 12
-16.488012 -14.871382 1.1239003 9
-16.076691 -14.927689 2.6529927 11
-16.098312 -14.949005 3.4384446 12
-16.113007 -14.963894 4.2328396 13
-14.816382 -14.997152 1.8022254 10
-14.88978 -15.076391 4.8481994 14
-14.785912 -14.963921 0.32516402 8
-14.029761 -15.041513 1.0347494 9
-13.685729 -15.104795 2.4585421 11
-13.695604 -15.11689 3.1863141 12
-13.699693 -15.122604 3.9215074 13
-13.733942 -15.16291 5.4355717 15
-12.629545 -15.212612 4.5176287 14
-12.559743 -15.1215 0.29761949 8
-12.233014 -15.169056 1.6588043 10
-11.889838 -15.184243 0.96411628 9
-11.625079 -15.30129 5.099637 15
-11.570493 -15.224742 2.3005877 11
-10.62181 -15.305604 2.9014809 12
-10.639693 -15.333638 4.2585797 14
-10.285187 -15.280969 0.27207562 8
-10.322881 -15.342409 3.5442746 13
-9.9894295 -15.313639 0.90832037 9
-9.6910782 -15.334877 1.5366838 10
-9.4075241 -15.372482 2.1618285 11
-9.4405632 -15.430753 4.794136 15
-8.8385572 -15.423302 2.7631507 12
-8.2599564 -15.423071 0.86383212 9
-8.0183372 -15.508518 3.9759309 14
-7.7097812 -15.44708 0.24703236 8
-7.189899 -15.508555 1.4404567 10
-6.4277315 -15.597371 3.2220585 13
-6.1613212 -15.58219 2.0003047 11
-6.1846485 -15.643962 4.4487567 15
-5.9154119 -15.614255 2.5868442 12
-5.9253869 -15.641853 3.803113 14
-5.6530766 -15.59433 1.3931856 10
-5.4052615 -15.607758 0.80693007 9
-4.8011017 3.2146254 1.3331059 14
-4.7873783 3.3038945 0.098656185 8
-4.7898769 3.3060298 0.30246443 9
-4.7800579 3.29965 0.50593907 10
-4.7638607 3.2888601 0.70888501 11
-4.7638831 3.2892892 0.91531777 12
-4.6819348 -15.678107 1.9490888 11
-3.9530261 4.2421112 1.1227837 13
-3.7193356 -15.699729 0.21913622 8
-3.7410522 -15.789838 4.2849188 15
-3.5014594 -15.788072 3.6706152 14
-1.6380749 -15.846831 0.76864237 9
-1.7405411 6.9716506 1.6396221 14
-1.4971642 7.3225822 0.36727962 9
-1.496691 7.3226538 0.63014293 10
-1.4939816 7.3118472 0.89322639 11
-1.2154126 7.6228499 1.476034 13
-1.1307864 7.7990131 0.10904974 8
-1.1182427 7.7326312 1.7789308 14
-0.81419301 8.0924196 2.1519639 15
-0.60220003 8.3964252 1.302707 12
-0.60084122 8.3839865 1.6037583 13
-0.48956037 8.5453434 1.0187988 11
-0.37422535 8.7167559 0.42266357 9
-0.25176543 8.8531675 0.73986477 10
-0.24803227 8.7849798 1.9959816 14
-0.28504381 9.341197 1.9283425 13
-0.12746525 9.0372534 0.12008203 8
-0.12289727 8.9301405 2.3590567 15
0.12799022 9.9070044 1.690191 12
0.2834782 10.197908 0.30914107 8
0.28165802 10.171988 0.66203934 9
0.27954134 10.136825 1.0138092 10
0.2726413 10.046324 2.4421959 14
0.43266904 10.319946 1.3961377 11
0.58935225 10.484252 2.169946 13
0.42394218 10.21452 2.8639708 15
1.356076 -16.076567 2.4844878 12
2.5410845 -16.129702 1.9321421 11
3.0293777 -16.20154 3.7318487 14
3.3784704 11.457234 1.1917249 10
3.2766969 -16.233921 4.3634858 15
4.0156298 -16.223576 2.5726354 12
4.2738481 -16.264677 3.1940939 13
4.757607 1.7655855 -0.23928642 6
4.6278081 2.272599 -0.2377079 6
4.6352949 2.357868 -0.057096317 7
4.7233801 1.8281034 0.11653253 8
4.6498451 2.3634439 0.12504095 8
4.7738266 -16.218277 0.21743603 8
4.6756859 1.9654933 0.29581302 9
4.7405114 2.6695397 0.32304224 9
4.6558251 2.1156416 0.47947952 10
4.7434387 2.6694672 0.51445204 10
4.6956301 1.8912866 0.65198451 11
4.7514811 2.6721807 0.70806652 11
4.6667156 2.0366681 0.83896452 12
4.7498765 2.6695993 0.90221006 12
4.6704702 2.0366285 1.02368 13
4.6530142 2.271647 1.2317659 14
4.6612153 2.1912937 1.4166111 15
4.9008789 1.5776508 -0.064643636 7
4.9641333 1.5087248 1.0375319 13
4.8182759 1.6559498 1.3022779 14.5
5.0178919 1.4537587 0.1158742 8
5.0178814 1.4521343 0.2990905 9
5.0273037 1.4531183 0.48391455 10
5.0271449 1.4514329 0.66931921 11
5.0209541 1.4480653 0.85532004 12
5.3294797 1.29634 -0.26503775 6
5.2891598 1.273272 1.2847522 14
5.2938871 1.2725633 1.4888419 15
5.3180108 -16.348928 3.8930755 14
5.5660105 -16.280128 0.8239482 9
5.5684733 -16.292982 1.4293616 10
5.5840054 -16.367577 4.5573368 15
6.3913045 -16.358442 2.0790691 11
6.3990707 -16.389708 3.3431487 13
6.9422598 -16.344048 0.22988854 8
6.9619823 -16.412783 2.7461951 12
7.2409902 -16.397367 1.4895695 10
7.8478355 -16.492094 4.138555 14
8.1557007 -16.527239 4.8598018 15
8.7407341 -16.463118 0.89635026 9
8.7674398 -16.53618 3.5595677 13
9.0645943 -16.499878 1.5671357 10
9.0723677 -16.525431 2.9069886 12
9.3977213 -16.542364 2.2565165 11
10.038187 -16.523312 0.25522229 8
10.090837 -16.651119 5.1375713 15
10.735205 -16.5793 0.95362777 9
11.461585 -16.635353 1.6865513 10
11.466866 -16.648985 2.4019997 11
11.484235 -16.686331 3.8579302 13
11.471413 27.862034 4.0689311 11
11.498263 -16.712908 4.6039066 14
11.471007 27.855833 5.1429081 12
11.831217 27.605513 2.9923737 10
11.852929 -16.695412 3.1630909 12
12.578283 -16.652678 0.28134686 8
12.651865 -16.793928 5.5541534 15
12.882479 26.780989 6.1382222 13
13.825457 -16.751665 1.0563353 9
13.890237 -16.86253 4.9640541 14
14.273046 -16.801153 1.8476369 10
14.284648 -16.821274 2.6292372 11
14.291424 -16.835773 3.4178147 12
14.305427 -16.858879 4.2181754 13
16.540215 -5.2037487 4.0026827 14
16.558157 -5.2149463 4.6523561 15
19.312811 53.206379 3.6711047 9
26.51865 47.803951 1.5906446 8
27.149235 47.30896 3.4895418 9
30.899746 44.428047 7.2465153 11
31.521832 43.971245 5.3259783 10
32.757587 42.991428 9.150363 12
34.030041 42.130913 3.4069192 9
34.466034 26.82564 1.1369833 8
34.453918 26.790092 4.1951518 10
34.563354 26.861692 5.7553797 11
34.680069 26.938728 7.3406711 12
34.641769 41.616318 7.2169819 11
35.26022 41.15361 5.300724 10
35.502308 26.011417 2.6734574 9
38.390354 38.737366 9.1783743 12
39.030277 38.279385 7.2427578 11
39.682426 37.844109 3.3933496 9
39.67981 37.82563 5.3178024 10
