# .PCD v0.7 - Point Cloud Data file format
VERSION 0.7
FIELDS x y z intensity
SIZE 4 4 4 4
TYPE F F F F
COUNT 1 1 1 1
WIDTH 168
HEIGHT 1
VIEWPOINT 0 0 0 1 0 0 0
POINTS 168
DATA ascii
-14.768806 0.21037149 0.25801918 8
-14.769154 0.21038516 0.77430189 9
-14.751092 0.21013655 1.2908913 10
-14.752233 0.21016154 1.8117402 11
-13.95631 2.0016565 3.2570801 14
-11.874073 24.88522 7.3715081 15
-11.702226 -18.090286 1.8526373 10
-11.710478 -18.102156 3.3816593 12
-11.713489 -18.106352 4.1582303 13
-11.301777 -18.026783 4.8780427 14
-11.298697 -18.021358 5.6646705 15
-10.89115 -17.936449 1.0677872 9
-10.893716 -17.939623 2.5445256 11
-10.474903 10.141946 1.275985 10
-10.477346 10.145145 1.7911904 11
-10.476763 10.145423 2.3104458 12
-10.469342 10.139091 2.8336129 13
-10.469774 10.140371 3.3657708 14
-10.113115 -17.777206 0.32538927 8
-10.13197 10.99334 0.26009673 8
-9.3886766 -17.653316 1.7174559 10
-9.0382023 -17.592196 3.1000826 12
-9.0377369 -17.590494 3.8112099 13
-9.0379267 -17.589237 5.2646508 15
-8.681077 -17.507954 0.99272281 9
-8.6925278 -17.526815 4.4833016 14
-8.3503704 -17.459248 2.3444085 11
-7.6832476 -17.316689 0.29966992 8
-7.0571489 -17.204988 3.5824199 13
-6.7444115 -17.13796 0.93435824 9
-6.4451156 -17.085751 1.5666625 10
-6.1511889 -17.029222 4.8184285 15
-5.8586049 -16.975872 2.8129487 12
-5.8616142 -16.981304 4.1150756 14
-5.2859917 -16.86487 0.2783187 8
-5.0079908 -16.806707 2.1226346 11
-4.7334433 -16.757055 0.88251406 9
-4.4676352 -16.712696 3.3315434 13
-4.1995916 -16.663994 1.4735048 10
-3.8863897 1.0783685 0.28312448 9.5
-3.8876259 1.0787909 0.49635872 11
-3.9393518 -16.612009 4.5426917 15
-3.7966933 1.1117983 -0.20657347 6
-3.787492 1.1091594 -0.068087794 7
-3.7804649 1.1071562 0.069603078 8
-3.6736875 -16.55752 0.26663053 8
-3.7781055 1.1066858 0.62458038 12
-3.7893143 1.1100817 0.91276067 14
-3.6765935 -16.558416 2.6561894 12
-3.4842489 1.2962805 0.19575638 9
-3.4390581 1.3356482 0.32376489 10
-3.5233788 1.2542293 0.72813857 13
-3.4425411 1.3372934 0.85389727 14
-3.5855763 1.2191923 1.0160609 15
-3.4246914 -16.525202 3.8651729 14
-3.2534611 2.4283252 -0.21231912 6
-3.3626237 1.4173307 -0.062886409 7
-3.2153039 2.3294194 -0.068744585 7
-3.2245355 1.6387466 0.063979201 8
-3.2121108 2.3275914 0.34786773 10
-3.24474 2.4223316 0.2129122 9
-3.3664405 1.4192904 0.51469165 11.5
-3.211832 2.3275514 0.4879384 11
-3.3043287 1.5055901 0.70704955 13
-3.2109587 2.3271666 0.70055079 12.5
-3.2313824 1.6429167 0.97273022 15
-3.2062616 2.3240154 0.91541916 14
-3.2821839 27.699499 1.4232212 9
-3.2822802 27.714523 2.4028759 10
-3.2808363 27.716646 3.3879075 11
-3.2800269 27.724255 4.382328 12
-3.1753421 1.9095813 -0.12876432 6.5
-3.1620407 1.963809 0.19591723 9
-3.1948495 2.2460296 0.068840913 8
-3.1597157 1.9008545 0.58513868 12
-3.1616192 1.9021223 0.71840388 13
-3.1853657 2.2404602 1.044813 15
-2.9126225 -16.408146 0.84429657 9
-2.4225612 -16.326477 1.9974332 11
-1.937536 -16.232349 1.4016548 10
-1.9429291 -16.243557 4.3530006 15
1.2616105 -15.622808 0.24816427 8
1.2608544 -15.626447 0.79615861 9
1.6971319 -15.551476 3.0152266 13
2.7944088 -15.342565 0.79379857 9
3.8830667 -15.154857 4.169075 15
4.1080222 -15.09765 0.25155768 8
4.9929066 -14.93974 0.80551606 9
5.2120495 -14.913834 4.2129111 15
5.4387894 -14.861576 1.9239423 11
5.4358559 -14.862296 3.056736 13
5.6620846 -14.819009 2.4937878 12
5.8894806 -14.771327 1.3729699 10
6.8121262 -14.60031 0.26463929 8
7.2828774 -14.519059 0.83580464 9
7.5166092 -14.482103 3.1568367 13
7.5210047 -14.494395 3.7551117 14
7.7631664 -14.446444 2.5833251 12
7.9986005 -14.400647 4.4001856 15
8.107172 -2.3271177 -0.12963383 7
8.1026983 -2.3269906 0.16518673 8
8.1047153 -2.3287287 0.46047667 9
8.115139 -2.3328846 0.75784719 10
8.1250715 -2.3369095 1.0578036 11
8.1167955 -2.3357155 1.3580959 12
8.1026297 -2.332839 1.6599885 13
8.0584698 -2.4463346 1.9654344 14
8.2503862 -14.353431 2.019695 11
8.5226927 29.333958 1.7792255 9
8.5513363 50.148815 4.7349606 10
8.9977074 -14.205002 0.86974907 9
8.9960079 -14.205806 1.4597555 10
9.0009041 -14.227791 3.8758082 14
9.2157154 49.834362 8.317173 12
9.7739973 -14.077198 3.3222308 13
9.7794266 -14.092203 4.5872774 15
9.9446821 23.743391 1.5042051 9
10.044409 -14.032228 2.724822 12
10.317127 -13.974307 0.2948606 8
10.281174 23.591686 0.60408264 8
10.567502 49.215225 6.4700284 11
10.863917 -13.873274 0.91682154 9
10.858668 -13.883741 4.0634613 14
11.386462 9.6720839 0.34758598 8
11.38348 9.6692867 0.87021434 9
11.38532 9.6700249 2.4567206 12
11.553337 9.2593412 1.3821235 10
11.549414 9.2558298 1.9051458 11
11.40328 9.6849775 3.0006826 13
11.407936 9.6886396 3.5498204 14
11.409803 9.6899357 4.1075377 15
12.019118 -13.670593 1.5893811 10
12.027605 -13.690473 3.5397871 13
12.017717 -13.686266 4.8782916 15
12.321174 -13.62474 2.9076774 12
12.624923 -13.56368 2.2740896 11
13.263595 -13.449661 0.32968888 8
13.585157 -13.392064 1.0009834 9
13.907347 -13.338027 3.7491412 13
13.868873 47.710239 4.6386619 10
14.259724 -13.287769 3.0913734 12
14.246563 -13.282506 4.501812 14
14.596828 -13.211614 1.727192 10
14.616376 -13.232713 2.4259539 11
14.949276 -13.165584 5.3453736 15
15.14658 47.094585 8.1341639 12
15.308955 -13.075521 0.35777634 8
16.082844 18.173708 0.56974512 8
16.077396 18.168144 1.4183077 9
16.086123 18.178583 2.2717969 10
16.079315 18.171484 3.1288149 11
16.074371 18.1665 3.9933577 12
16.838989 -12.81909 4.8999348 14
17.259022 -12.736762 1.1372795 9
17.255184 -12.737441 1.8899268 10
17.256613 -12.749188 4.1854591 13
17.25251 -12.753523 5.7648554 15
17.687183 -12.66397 0.39390579 8
17.683294 -12.671794 2.6866009 11
17.6709 -12.666502 3.4594691 12
17.721142 45.920177 6.3425083 11
18.735313 32.34103 3.5003476 10
18.729889 32.336224 4.8207159 11
18.721647 32.326599 6.1516299 12
19.224976 32.113445 0.88178217 8
19.222065 32.112751 2.1907868 9
19.63983 45.044807 4.5979347 10
20.265835 44.749668 8.0857563 12
