# .PCD v0.7 - Point Cloud Data file format
VERSION 0.7
FIELDS x y z intensity
SIZE 4 4 4 4
TYPE F F F F
COUNT 1 1 1 1
WIDTH 1363
HEIGHT 1
VIEWPOINT 0 0 0 1 0 0 0
POINTS 1363
DATA ascii
0.85380453 -1.1455907 -0.35985947 0
0.9464106 -1.1454294 -0.36004028 0
1.044446 -1.1472 -0.35943532 0
1.1496255 -1.1537725 -0.36007383 0
1.2511638 -1.1522919 -0.3608917 0
1.3449396 -1.152519 -0.36074877 0
1.4574577 -1.1488615 -0.36139646 0
1.5634643 -1.1394495 -0.36128002 0
1.6493105 -1.1485744 -0.36117578 0
1.7382417 -1.1558694 -0.36158633 0
1.8376442 -1.1475244 -0.36178204 0
1.962502 -1.1537967 -0.36220911 0
2.0697358 -1.1526451 -0.36249876 0
2.1640446 -1.1648088 -0.36353526 0
2.2691596 -1.1389215 -0.36350766 0
2.3540919 -1.1396503 -0.36352229 0
2.4511714 -1.1436468 -0.36453333 0
2.5413404 -1.1416525 -0.36480322 0
2.6320262 -1.1598759 -0.36550972 0
2.7315712 -1.1573362 -0.36559165 0
-2.5607462 -1.0849373 -0.34751141 0
-2.4491794 -1.0516304 -0.34730136 0
-2.3489759 -1.0553391 -0.34822714 0
-2.23176 -1.0607469 -0.34836429 0
-2.1216528 -1.0459849 -0.34825364 0
-2.0339286 -1.0391113 -0.34859061 0
-1.9355934 -1.041907 -0.34880742 0
-1.8406614 -1.056229 -0.34956446 0
-1.7389269 -1.0515858 -0.3498486 0
-1.6539092 -1.0493989 -0.35028577 0
-1.5426987 -1.0366383 -0.35123381 0
-1.4564003 -1.0454955 -0.35091031 0
-1.3550715 -1.0606827 -0.35069579 0
-1.2560502 -1.0455034 -0.35041165 0
-1.1365854 -1.0356256 -0.35120171 0
-1.05643 -1.0573083 -0.35043037 0
-0.94411182 -1.0472921 -0.35174266 0
-0.84906143 -1.042923 -0.35183159 0
-0.76990223 -1.0645665 -0.35210124 0
0.77507335 -1.0879868 -0.35795963 0
0.85082614 -1.0555919 -0.35829911 0
0.95045787 -1.0417782 -0.35776541 0
1.0477253 -1.0515294 -0.35787067 0
1.1354377 -1.045707 -0.35724616 0
1.2461344 -1.0501487 -0.357862 0
1.3510255 -1.0605115 -0.35988274 0
1.4477173 -1.0549853 -0.3593373 0
1.528825 -1.0411998 -0.35840943 0
1.6477112 -1.0521307 -0.35933638 0
1.7454888 -1.0454767 -0.35954851 0
1.8599141 -1.0426006 -0.36021218 0
1.9744915 -1.0569081 -0.36048186 0
2.0402362 -1.0386252 -0.36009008 0
2.1382327 -1.0732125 -0.361866 0
2.2290919 -1.0400224 -0.36105534 0
2.3630455 -1.0479274 -0.36223567 0
2.47767 -1.0497665 -0.36212102 0
2.574609 -1.0475576 -0.36201766 0
2.6609488 -1.060612 -0.3622925 0
2.7552824 -1.043761 -0.36192665 0
-2.3209023 -0.98332024 -0.34609967 0
-2.2338841 -0.96536446 -0.34589744 0
-2.15416 -0.94938207 -0.34634826 0
-2.0639007 -0.94504112 -0.34631863 0
-1.9698347 -0.94317323 -0.34704286 0
-1.8668395 -0.95374984 -0.34717312 0
-1.7552452 -0.94479823 -0.34722939 0
-1.6383337 -0.95259285 -0.34752029 0
-1.531116 -0.94522578 -0.34845722 0
-1.4443977 -0.94562125 -0.34921852 0
-1.3508182 -0.95510674 -0.34918657 0
-1.2386591 -0.93617195 -0.34926361 0
-1.1480725 -0.95105922 -0.34826615 0
-1.042587 -0.95629901 -0.34900597 0
-0.94519871 -0.94860399 -0.34814388 0
-0.87750101 -0.9598217 -0.34848753 0
0.88207197 -0.99286616 -0.35587031 0
0.94539374 -0.94680983 -0.35607725 0
1.0465215 -0.954292 -0.35559282 0
1.1633214 -0.95795959 -0.35514396 0
1.2393637 -0.94144845 -0.35618794 0
1.3562658 -0.95285171 -0.35683376 0
1.4636447 -0.94622648 -0.3564615 0
1.5708232 -0.94989496 -0.35743928 0
1.6680453 -0.94462579 -0.35764757 0
1.7602916 -0.94749075 -0.35851982 0
1.8457414 -0.94296652 -0.35794479 0
1.9469854 -0.95137775 -0.35738811 0
2.0413303 -0.95244205 -0.35858303 0
2.1398633 -0.96128398 -0.35882577 0
2.2440302 -0.93184024 -0.3589232 0
2.3437448 -0.9732548 -0.35998508 0
2.4253731 -0.94669592 -0.35958484 0
2.5429285 -0.96320516 -0.35997471 0
2.6607809 -0.94470078 -0.36062828 0
2.7796466 -0.94962531 -0.36095798 0
-2.0410845 -0.86476696 -0.34445268 0
-1.9877381 -0.87592852 -0.34403855 0
-1.8465897 -0.87107027 -0.34563461 0
-1.7384554 -0.84166807 -0.34528252 0
-1.647162 -0.85650909 -0.34581041 0
-1.5609883 -0.83633763 -0.34551972 0
-1.4446985 -0.8454417 -0.34557867 0
-1.3408215 -0.85351831 -0.34721559 0
-1.2410135 -0.85115415 -0.34723219 0
-1.1522666 -0.84354198 -0.34724909 0
-1.0569565 -0.8527571 -0.34855431 0
-0.97224021 -0.85751772 -0.34746554 0
0.99007767 -0.87331229 -0.35377011 0
1.0462052 -0.84601009 -0.35203844 0
1.1455384 -0.84746939 -0.35370469 0
1.2616391 -0.85672486 -0.35448596 0
1.3411559 -0.83318299 -0.3536481 0
1.4400562 -0.85687035 -0.35463685 0
1.5385622 -0.85678715 -0.3557668 0
1.6245167 -0.85535151 -0.35583231 0
1.7508906 -0.85275573 -0.35602677 0
1.8586614 -0.83501935 -0.35516238 0
1.9638468 -0.84865278 -0.35604325 0
2.0708692 -0.8522414 -0.35645527 0
2.1437156 -0.85444069 -0.3576847 0
2.2651916 -0.84699917 -0.356929 0
2.3521607 -0.86039138 -0.35762271 0
2.4412739 -0.85359162 -0.35766527 0
2.530688 -0.84444064 -0.35749033 0
2.6422281 -0.86774969 -0.3580091 0
2.7578406 -0.84172648 -0.35772288 0
-2.6510668 -0.74740678 -0.33971888 0
-2.5479369 -0.7301569 -0.33950675 0
-2.457015 -0.72318774 -0.33946663 0
-1.6388178 -0.7576409 -0.34340894 0
-1.5599887 -0.7552042 -0.34346026 0
-1.4450978 -0.75139028 -0.3433598 0
-1.3645344 -0.74718225 -0.34290597 0
-1.2685348 -0.74966162 -0.34362727 0
-1.1445568 -0.75766212 -0.34531504 0
-1.0478584 -0.75223374 -0.34573242 0
1.0709281 -0.75705069 -0.35145786 0
1.1493509 -0.74251235 -0.35169968 0
1.2467976 -0.76259893 -0.35173965 0
1.3342618 -0.74478608 -0.35136038 0
1.450861 -0.75432628 -0.35285649 0
1.5544606 -0.73885989 -0.35301745 0
1.6505814 -0.75591052 -0.35313189 0
1.7392212 -0.75156897 -0.35335073 0
1.8232197 -0.75710076 -0.35388562 0
1.9357389 -0.7556141 -0.35439685 0
2.0482681 -0.74268246 -0.35437781 0
2.1381311 -0.74760318 -0.35444346 0
2.2816257 -0.76133895 -0.35495308 0
2.3726912 -0.75406843 -0.35509193 0
2.4632161 -0.74422425 -0.35504475 0
2.5528131 -0.75142348 -0.35566425 0
2.6367931 -0.75574392 -0.35572243 0
2.7467353 -0.75875634 -0.35581782 0
2.8045974 -0.71753085 -0.3556 0
-2.6598122 -0.65218079 -0.33794221 0
-2.5648155 -0.65626615 -0.33799657 0
-2.459656 -0.64813483 -0.33845595 0
-2.3475242 -0.65488207 -0.33888662 0
-2.2407191 -0.64804482 -0.33836427 0
-2.1247315 -0.62538475 -0.33755979 0
-2.0416605 -0.60093397 -0.33708307 0
-1.4468797 -0.67099911 -0.34103927 0
-1.3328356 -0.66042387 -0.34142175 0
-1.2508702 -0.65055317 -0.34168276 0
-1.1545699 -0.64294046 -0.34325522 0
-1.083758 -0.67675799 -0.34238312 0
1.0969529 -0.69592655 -0.348088 0
1.1513469 -0.65453655 -0.34836522 0
1.2537135 -0.64869022 -0.3488467 0
1.3602878 -0.65000546 -0.35095519 0
1.4500924 -0.65153801 -0.35061398 0
1.5471697 -0.65110022 -0.34981176 0
1.6700644 -0.6571967 -0.35126352 0
1.7663854 -0.66045886 -0.35169467 0
1.8511698 -0.6620928 -0.35207763 0
1.9381572 -0.64674562 -0.35178351 0
2.0562999 -0.65361184 -0.35206032 0
2.1252532 -0.63743722 -0.35207632 0
2.2132399 -0.65153325 -0.35235074 0
2.3418605 -0.65285307 -0.35245219 0
2.466351 -0.64988655 -0.35220662 0
2.5570333 -0.65420622 -0.35296795 0
2.6507447 -0.63782835 -0.35337555 0
2.7355978 -0.65825003 -0.35412082 0
2.8107543 -0.65515846 -0.35437703 0
-2.6750591 -0.54340136 -0.33619276 0
-2.5621657 -0.55870527 -0.33698541 0
-2.4519434 -0.54370391 -0.337015 0
-2.3397043 -0.55436438 -0.33686757 0
-2.2319682 -0.55414134 -0.33727992 0
-2.1463084 -0.54923731 -0.3374384 0
-2.0622742 -0.5381819 -0.33783343 0
-1.9439037 -0.5121848 -0.3380928 0
-1.2009597 -0.5814184 -0.33991086 0
-1.1383883 -0.56125259 -0.34011054 0
1.1685339 -0.55531681 -0.34676841 0
1.2435175 -0.54355258 -0.3484098 0
1.3617498 -0.55486131 -0.34629276 0
1.4400496 -0.54744035 -0.34907097 0
1.5568556 -0.55683994 -0.34885806 0
1.6461823 -0.55441695 -0.34888771 0
1.7294847 -0.55927569 -0.3491897 0
1.8677421 -0.5497632 -0.34864971 0
1.9526212 -0.54447335 -0.34884185 0
2.0344708 -0.5516367 -0.34886745 0
2.128499 -0.54457879 -0.34884003 0
2.2434714 -0.54854369 -0.34959459 0
2.3464353 -0.5529682 -0.35105407 0
2.4509134 -0.55313861 -0.35159925 0
2.5612383 -0.53935641 -0.35129511 0
2.6678605 -0.54188854 -0.35115469 0
2.7530434 -0.55918884 -0.35158354 0
2.8087537 -0.54962677 -0.35143593 0
-2.6688361 -0.44332725 -0.3325533 0
-2.5796096 -0.44751409 -0.33350155 0
-2.444674 -0.4528318 -0.33439916 0
-2.3262751 -0.43794975 -0.33444396 0
-2.2449992 -0.45612267 -0.33575538 0
-2.1606309 -0.43898967 -0.33567235 0
-2.0664253 -0.446863 -0.33657154 0
-1.9543475 -0.45557967 -0.33639535 0
-1.8349662 -0.44163215 -0.33637455 0
-1.7564656 -0.43601009 -0.3364068 0
-1.658865 -0.42439732 -0.33629847 0
-1.5484569 -0.40799144 -0.33594123 0
1.1960062 -0.45697692 -0.34306431 0
1.2462208 -0.44225419 -0.34464395 0
1.347049 -0.4494682 -0.34541994 0
1.4307673 -0.45613644 -0.34544587 0
1.5523157 -0.44486538 -0.34582654 0
1.6534727 -0.46114886 -0.34630901 0
1.7232366 -0.45260954 -0.34648773 0
1.8382782 -0.45030347 -0.34640366 0
1.9657779 -0.44339314 -0.34728745 0
2.0465765 -0.4462887 -0.34783298 0
2.1467342 -0.45207378 -0.34887773 0
2.2434375 -0.43900535 -0.34873387 0
2.3287067 -0.45568928 -0.34914103 0
2.4378476 -0.45007506 -0.34929305 0
2.5353727 -0.44613495 -0.34959283 0
2.6579008 -0.44152385 -0.34962904 0
2.7625751 -0.4589287 -0.34982005 0
2.8131826 -0.44665504 -0.34975046 0
-2.674099 -0.36586934 -0.3317202 0
-2.5439928 -0.34807831 -0.33176306 0
-2.4339633 -0.35990545 -0.33189285 0
-2.3290164 -0.33565688 -0.33187759 0
-2.2440536 -0.35629368 -0.33259138 0
-2.1592932 -0.34283742 -0.33265156 0
-2.0623689 -0.35777453 -0.33310482 0
-1.9465007 -0.34723547 -0.33307585 0
-1.8472813 -0.34775317 -0.33430442 0
-1.7666286 -0.34567454 -0.33457229 0
-1.6661028 -0.35087982 -0.33470181 0
-1.5561671 -0.35106763 -0.3350127 0
-1.4345878 -0.34015957 -0.33495697 0
-1.3472573 -0.33445939 -0.33557221 0
-1.2495058 -0.31968355 -0.33661917 0
1.2530835 -0.35669702 -0.34258386 0
1.3495694 -0.34530848 -0.34332034 0
1.442511 -0.34720752 -0.34327662 0
1.5493929 -0.34920886 -0.34311292 0
1.6578003 -0.35314298 -0.34351718 0
1.7305256 -0.35152453 -0.34329325 0
1.8479704 -0.35394725 -0.34458861 0
1.9612173 -0.33740032 -0.34526181 0
2.0582139 -0.34185448 -0.34611735 0
2.1549003 -0.35797012 -0.34723455 0
2.2472179 -0.34041008 -0.34663197 0
2.3330154 -0.35340163 -0.34699985 0
2.4649832 -0.34432063 -0.3461363 0
2.5852735 -0.35374615 -0.34642327 0
2.6713157 -0.34603289 -0.34615648 0
2.7694743 -0.35197139 -0.34617957 0
2.8124709 -0.34381855 -0.34793395 0
-2.2454882 -0.29086313 -0.33148837 0
-2.1603069 -0.27982941 -0.33145064 0
-2.0762689 -0.28408879 -0.33192068 0
-1.8335335 -0.29108047 -0.33064052 0
-1.7545569 -0.27854264 -0.33020929 0
-1.6771125 -0.28475344 -0.33339024 0
-1.5616546 -0.28238565 -0.33330113 0
-1.4330449 -0.26965287 -0.33305085 0
-1.3446507 -0.25725791 -0.33400115 0
-1.2522088 -0.25856856 -0.33456558 0
1.2451366 -0.25293437 -0.3405489 0
1.3462698 -0.25318384 -0.34054002 0
1.4563804 -0.24514121 -0.341564 0
1.5417629 -0.25604847 -0.34145939 0
1.6510099 -0.24631675 -0.34190759 0
1.7411524 -0.25096387 -0.34198666 0
1.8402731 -0.25179017 -0.34224227 0
1.9424506 -0.24213785 -0.34262553 0
2.0613701 -0.25203013 -0.3431561 0
2.1490445 -0.25148323 -0.34327736 0
2.2369759 -0.24113734 -0.3431206 0
2.3232665 -0.25043452 -0.34360978 0
2.4433532 -0.25613993 -0.34423971 0
2.5820265 -0.24093473 -0.34434661 0
2.6683846 -0.2489952 -0.34480274 0
2.7700288 -0.25043243 -0.3448391 0
1.2526509 -0.15320724 -0.3382166 0
1.3516288 -0.15095089 -0.33929193 0
1.4626752 -0.15114893 -0.34042278 0
1.539273 -0.15478936 -0.34017974 0
1.6449715 -0.14813866 -0.33980817 0
1.7400165 -0.14983466 -0.33951962 0
1.8341337 -0.15520468 -0.3397871 0
1.949756 -0.15380184 -0.34059939 0
2.0597105 -0.14768039 -0.34077916 0
2.1465354 -0.14464043 -0.34134305 0
2.2372525 -0.14434636 -0.34167203 0
2.3235729 -0.14991309 -0.3419387 0
2.4530537 -0.15826316 -0.34233871 0
2.5812962 -0.14796492 -0.3426646 0
2.667726 -0.15291908 -0.34300584 0
2.7735569 -0.1590009 -0.34342533 0
1.2498232 -0.05384323 -0.3352994 0
1.3502657 -0.048454985 -0.33568901 0
1.4548637 -0.050681505 -0.33659458 0
1.5488164 -0.055489622 -0.33658695 0
1.6526737 -0.043508444 -0.33767578 0
1.7376239 -0.049826384 -0.33794144 0
1.8499886 -0.05109686 -0.33804959 0
1.964399 -0.059041418 -0.33875686 0
2.0574162 -0.044248473 -0.33833537 0
2.1357653 -0.045847885 -0.33874783 0
2.2234259 -0.047731388 -0.33886099 0
2.3425314 -0.050292473 -0.33899567 0
2.4633839 -0.052893378 -0.3399986 0
2.5690613 -0.055165473 -0.34002185 0
2.6554701 -0.057023991 -0.34031209 0
2.758106 -0.059305623 -0.34067455 0
1.2474343 0.053469002 -0.33465514 0
1.3491992 0.04824217 -0.33476758 0
1.4474901 0.053325571 -0.33466211 0
1.5540538 0.050586827 -0.33490741 0
1.6685234 0.04780142 -0.33533233 0
1.7254573 0.049345948 -0.33557463 0
1.845108 0.052769031 -0.33571693 0
1.9647586 0.056192107 -0.33585924 0
2.0460937 0.043876301 -0.3363674 0
2.1326435 0.045737591 -0.33665901 0
2.2397227 0.048039258 -0.33703816 0
2.3531041 0.050465334 -0.33774298 0
2.469687 0.052980345 -0.3375307 0
2.5559635 0.054833975 -0.33776322 0
2.64224 0.056687605 -0.3379958 0
2.7416136 0.058847208 -0.33828247 0
1.260982 0.15424761 -0.33173323 0
1.3528767 0.13953419 -0.33225766 0
1.4367607 0.15810396 -0.33282566 0
1.553447 0.14484489 -0.33308625 0
1.6656345 0.15530358 -0.33268982 0
1.740397 0.14841156 -0.334465 0
1.8567966 0.14640181 -0.3348251 0
1.9529734 0.15397005 -0.33433458 0
2.0466762 0.1557157 -0.33441535 0
2.1295297 0.14833832 -0.33446345 0
2.2787635 0.14694487 -0.33472884 0
2.3647213 0.15248753 -0.3348895 0
2.4506786 0.15803021 -0.3350502 0
2.5366361 0.16357289 -0.33521089 0
2.6259503 0.15050092 -0.33594546 0
2.7228417 0.15604657 -0.33618391 0
-2.949527 0.29650599 -0.31709513 0
-2.859262 0.28743196 -0.31767762 0
-2.768997 0.27835789 -0.31826013 0
-2.6787319 0.26928386 -0.31884262 0
-2.5804176 0.27802324 -0.31867683 0
-2.2557187 0.29218832 -0.31905225 0
-2.1713154 0.28125536 -0.31930664 0
-2.0336454 0.27319905 -0.32042006 0
-1.8607661 0.29540375 -0.32049677 0
-1.7304125 0.28306368 -0.32032928 0
-1.6268258 0.2742179 -0.32069057 0
-1.5542002 0.28105688 -0.32216495 0
-1.446229 0.27223331 -0.32262775 0
-1.3570249 0.26406938 -0.32333317 0
-1.2445707 0.25276569 -0.3228209 0
-1.1779399 0.24802841 -0.32264483 0
1.1825986 0.26674208 -0.32483646 0
1.2376217 0.24388894 -0.32931361 0
1.3524513 0.26220879 -0.32978073 0
1.4302952 0.24962918 -0.3318955 0
1.5465412 0.23804878 -0.33254179 0
1.6699389 0.24859029 -0.33123821 0
1.7651676 0.25436914 -0.33140555 0
1.8503449 0.23962365 -0.3319841 0
1.9293265 0.24985483 -0.3320989 0
2.0634036 0.25532168 -0.33283773 0
2.1749938 0.25009596 -0.33315152 0
2.260891 0.24354012 -0.33300087 0
2.3463154 0.25274327 -0.33301771 0
2.43174 0.26194641 -0.33303455 0
2.5238743 0.25367051 -0.33420685 0
2.6306658 0.25513262 -0.33416376 0
2.707777 0.24483459 -0.33452478 0
-3.5613415 0.35800964 -0.31314692 0
-3.4556859 0.36416033 -0.31391665 0
-3.347702 0.36103749 -0.31456423 0
-3.2397134 0.35704279 -0.31508756 0
-3.1220288 0.33639073 -0.31574091 0
-3.0273304 0.34810498 -0.31571451 0
-2.9310479 0.35835856 -0.31585595 0
-2.8409963 0.34734961 -0.31639642 0
-2.7436934 0.35533103 -0.3163977 0
-2.6537223 0.34367749 -0.31691837 0
-2.5373344 0.35496536 -0.31720242 0
-2.4239919 0.34934518 -0.31781256 0
-2.3401258 0.3372612 -0.31841192 0
-2.2476625 0.35671663 -0.31814361 0
-2.164135 0.34345546 -0.31885776 0
-2.0739131 0.34430021 -0.31892002 0
-1.9632701 0.35495892 -0.31862918 0
-1.8477489 0.36145043 -0.31861478 0
-1.7582777 0.34142584 -0.31967574 0
-1.6351705 0.34036562 -0.31947333 0
-1.5655744 0.35819215 -0.31888786 0
-1.4564153 0.35063949 -0.31984481 0
-1.3549615 0.33634886 -0.32027537 0
-1.2679319 0.31849319 -0.32113227 0
-1.1674975 0.30761525 -0.32350612 0
1.175331 0.34587738 -0.32837987 0
1.2463237 0.34748414 -0.32880735 0
1.3578168 0.35334101 -0.32827637 0
1.451992 0.34939164 -0.32815087 0
1.5421791 0.34773648 -0.32887492 0
1.6464341 0.34845689 -0.329202 0
1.7380344 0.35292447 -0.32918498 0
1.8347874 0.35368976 -0.32924116 0
1.954434 0.34502077 -0.33045322 0
2.0586121 0.34184632 -0.33053902 0
2.1432345 0.35590482 -0.33051309 0
2.2355034 0.35471851 -0.33121732 0
2.3288414 0.35259148 -0.33172682 0
2.4323502 0.36827737 -0.33099836 0
2.5553756 0.34230536 -0.33111188 0
2.6756039 0.34662309 -0.33127618 0
-3.5421546 0.43295926 -0.31221229 0
-3.4576516 0.47301209 -0.3113648 0
-3.3678308 0.46072263 -0.31194776 0
-3.2780099 0.44843316 -0.3125307 0
-3.1615601 0.42497095 -0.31340855 0
-3.0850167 0.46714947 -0.31309974 0
-2.950527 0.44678488 -0.31390288 0
-2.8371971 0.45077524 -0.31381559 0
-2.7382772 0.46163312 -0.31365606 0
-2.6229029 0.43560222 -0.31476155 0
-2.5354362 0.4451851 -0.31442982 0
-2.4746685 0.44750836 -0.31417543 0
-2.3556669 0.43658346 -0.31492376 0
-2.244035 0.46259624 -0.31496584 0
-2.1297238 0.43253884 -0.31604242 0
-2.0491958 0.45462909 -0.315162 0
-1.9410292 0.44837183 -0.31670073 0
-1.8514692 0.45961651 -0.31659344 0
-1.7372847 0.43126753 -0.3169702 0
-1.661111 0.42493945 -0.31789118 0
-1.5634025 0.41192928 -0.31684554 0
1.1488445 0.45783576 -0.32589588 0
1.2512739 0.44425714 -0.32607651 0
1.3415506 0.45891353 -0.32648599 0
1.4527963 0.45526943 -0.32710606 0
1.5560782 0.44260451 -0.32749709 0
1.6327806 0.45668459 -0.32785484 0
1.7521282 0.44824639 -0.32758772 0
1.857878 0.44027388 -0.32745156 0
1.9531705 0.45528647 -0.32664675 0
2.0222394 0.44080991 -0.32785389 0
2.1425133 0.45763725 -0.32791471 0
2.2698636 0.44409338 -0.32884797 0
2.3727522 0.46421334 -0.32862636 0
2.4737799 0.44728529 -0.33007202 0
2.5581675 0.46254417 -0.33003202 0
2.6515565 0.44822302 -0.33067548 0
-3.5097086 0.53141624 -0.31056708 0
-3.4273407 0.56921709 -0.30950513 0
-3.3379588 0.554371 -0.31008917 0
-3.2485769 0.53952491 -0.31067324 0
-3.1499722 0.54628116 -0.31069455 0
-3.050261 0.55158806 -0.31049654 0
-2.9549801 0.55620211 -0.31062403 0
-2.8592496 0.55943835 -0.31082198 0
-2.7630856 0.56113672 -0.31099096 0
-2.674407 0.54312658 -0.31162015 0
-2.5755446 0.56157207 -0.31189597 0
-2.4737041 0.53934193 -0.31267083 0
-2.3580556 0.5496822 -0.31341013 0
-2.2660227 0.56256086 -0.31357893 0
-2.1669316 0.53795123 -0.31489283 0
-2.0533524 0.54122806 -0.31502599 0
-1.9410163 0.52640623 -0.31501415 0
-1.2492232 0.58271062 -0.31419706 0
-1.1531061 0.56842679 -0.31706885 0
-1.0555873 0.56058216 -0.31641197 0
1.0727745 0.54793435 -0.32286927 0
1.151037 0.55980051 -0.32301676 0
1.2599832 0.55926013 -0.32356569 0
1.3443755 0.5433991 -0.32385567 0
1.4401075 0.54636663 -0.32487866 0
1.5638816 0.55023998 -0.32481688 0
1.6623647 0.55451256 -0.32507786 0
1.7534795 0.54343879 -0.32556137 0
1.8389863 0.54118931 -0.32593927 0
1.9617423 0.55110526 -0.32522476 0
2.0681648 0.54489613 -0.32520759 0
2.1552052 0.55136341 -0.32522604 0
2.2506962 0.54151505 -0.32588089 0
2.3339169 0.56154197 -0.32584181 0
2.4318817 0.54848635 -0.32676244 0
2.5477936 0.56204683 -0.32720998 0
2.6145437 0.53100014 -0.32758734 0
-3.4512749 0.64955479 -0.30726922 0
-3.3647029 0.65015167 -0.30758381 0
-3.2421472 0.64253658 -0.30791873 0
-3.1373777 0.66856116 -0.30755234 0
-3.0224347 0.63638759 -0.30859745 0
-2.9220259 0.65910017 -0.30882716 0
-2.8338304 0.63920718 -0.30952084 0
-2.7396543 0.65930688 -0.31032142 0
-2.6410592 0.65551382 -0.31046683 0
-2.5466647 0.65147245 -0.31092411 0
-2.4438241 0.63913506 -0.31113094 0
-2.3502171 0.64337486 -0.31043687 0
-2.2342601 0.62301826 -0.31096557 0
-2.1530907 0.60038429 -0.3117207 0
-1.4463047 0.68008471 -0.31345803 0
-1.3549216 0.65594232 -0.31303018 0
-1.2496493 0.64074969 -0.31404978 0
-1.1576682 0.65954924 -0.31211135 0
-1.0438414 0.64919305 -0.31352508 0
-0.96255815 0.65997845 -0.31284729 0
0.99228865 0.67014927 -0.32086039 0
1.0472554 0.64373577 -0.32063052 0
1.145202 0.64844179 -0.32134062 0
1.2388123 0.65611148 -0.321401 0
1.3446102 0.6471228 -0.32183594 0
1.4513448 0.64474857 -0.32362047 0
1.5344244 0.64583021 -0.32471737 0
1.6358683 0.66278565 -0.323728 0
1.7406467 0.64244479 -0.32308072 0
1.8568414 0.63429171 -0.32380787 0
1.9394945 0.64701664 -0.32384983 0
2.0475056 0.65890372 -0.32334995 0
2.1310847 0.64387935 -0.32485101 0
2.2394681 0.65069282 -0.32490528 0
2.3588357 0.64671338 -0.32502815 0
2.479589 0.65334934 -0.32497615 0
2.5494919 0.64276016 -0.32526916 0
-3.4081271 0.74314332 -0.30517817 0
-3.3734944 0.76945132 -0.30521873 0
-3.2748075 0.73867232 -0.30605233 0
-3.1786768 0.76495463 -0.30630368 0
-3.0628872 0.72951204 -0.30745295 0
-2.9600384 0.74987251 -0.30762765 0
-2.8553917 0.75264049 -0.30737382 0
-2.7582195 0.74094707 -0.30753049 0
-2.6821723 0.76865566 -0.30705982 0
-2.5529687 0.74358213 -0.30760098 0
-2.444335 0.73874927 -0.30767411 0
-2.3794639 0.75623786 -0.30656934 0
-1.8465071 0.78232837 -0.3105824 0
-1.7953179 0.79113543 -0.31073439 0
-1.6532331 0.7666046 -0.31104997 0
-1.5476184 0.74935937 -0.31053787 0
-1.4297961 0.74229622 -0.31059715 0
-1.3617837 0.755431 -0.31145245 0
-1.255374 0.75212985 -0.31105039 0
-1.1348661 0.75257009 -0.31161454 0
-1.058737 0.75325805 -0.31151766 0
-0.94932431 0.7488457 -0.31210673 0
-0.87515754 0.77179623 -0.31269979 0
0.88963366 0.77343082 -0.31587452 0
0.95443469 0.74194938 -0.31805456 0
1.0483769 0.7527346 -0.3185381 0
1.1506578 0.74370331 -0.319038 0
1.2465223 0.75373459 -0.31916705 0
1.3467494 0.75425905 -0.31924364 0
1.4469401 0.74410248 -0.31906128 0
1.5397195 0.73768586 -0.32066292 0
1.6583103 0.74478912 -0.32135743 0
1.7445532 0.75376302 -0.3210555 0
1.8605541 0.75698918 -0.32044026 0
1.9507504 0.73281991 -0.32177767 0
2.0556719 0.7437377 -0.32200772 0
2.1640263 0.75663024 -0.32143572 0
2.2476628 0.7411384 -0.3223004 0
2.3578181 0.74922442 -0.32214978 0
2.4649019 0.75447249 -0.32258523 0
2.5302145 0.75125951 -0.32408321 0
2.6108427 0.78880292 -0.32321033 0
3.6692462 0.71792281 -0.32710394 0
3.7530084 0.7343117 -0.31372881 0
3.8367708 0.75070059 -0.30035368 0
-3.3497233 0.85696954 -0.30402845 0
-3.2338877 0.85192269 -0.3040686 0
-3.1326499 0.84937704 -0.30427292 0
-3.0383894 0.84720582 -0.30468154 0
-2.9288874 0.86196846 -0.30404735 0
-2.8332882 0.85592628 -0.304452 0
-2.7370899 0.84825677 -0.30459177 0
-2.6331856 0.85769796 -0.30453065 0
-2.5427969 0.8484205 -0.30535424 0
-2.449851 0.83690953 -0.30598167 0
-2.3400989 0.85577464 -0.30597711 0
-2.1176443 0.89720374 -0.30793354 0
-2.0327213 0.87842405 -0.30813405 0
-1.9466029 0.85774642 -0.30824915 0
-1.8435311 0.85997856 -0.30781621 0
-1.7458385 0.84091109 -0.3083263 0
-1.6478761 0.85683709 -0.30836728 0
-1.5326209 0.85333353 -0.30910668 0
-1.4493371 0.85309249 -0.30839938 0
-1.3376306 0.84593123 -0.30884472 0
-1.2463337 0.85090023 -0.30904847 0
-1.1457375 0.84930503 -0.30952182 0
-1.042677 0.8437674 -0.31015643 0
-0.95381123 0.86020285 -0.31049097 0
-0.8422693 0.85198343 -0.31125009 0
-0.75721109 0.87735403 -0.31059742 0
0.76958787 0.8787756 -0.3130613 0
0.85777408 0.8463127 -0.31586727 0
0.95537961 0.84824532 -0.31640473 0
1.051693 0.86022055 -0.31640849 0
1.1449119 0.8342886 -0.3169499 0
1.2592112 0.85030001 -0.31636024 0
1.3560044 0.85797548 -0.31632856 0
1.4381784 0.8374173 -0.31821319 0
1.5523566 0.84997559 -0.31773427 0
1.6572052 0.84366482 -0.31784734 0
1.7731476 0.87101287 -0.31756169 0
1.8199241 0.84465879 -0.31857279 0
1.9343922 0.85577029 -0.31841674 0
2.0375793 0.85485679 -0.31907719 0
2.1384215 0.85233331 -0.3200238 0
2.2447126 0.84553212 -0.32004881 0
2.3446732 0.84507638 -0.32005894 0
2.4449682 0.84837455 -0.32042325 0
2.5558085 0.89358222 -0.32073236 0
2.6978619 0.81509364 -0.32270008 0
2.7848809 0.84138429 -0.32218987 0
2.8719001 0.86767501 -0.32167962 0
2.958919 0.89396572 -0.32116941 0
-3.3129208 0.94941056 -0.30151743 0
-3.2895241 0.9427079 -0.301723 0
-3.1562474 0.94545174 -0.30219281 0
-3.0672965 0.9748379 -0.30077744 0
-2.9813173 0.94751287 -0.30150139 0
-2.8575757 0.94602436 -0.30224177 0
-2.7597916 0.95765239 -0.30301428 0
-2.6560049 0.96447134 -0.30292711 0
-2.5427499 0.95101547 -0.30332384 0
-2.4465909 0.93507326 -0.30367625 0
-2.3821323 0.94948709 -0.30295694 0
-2.2783711 0.97627932 -0.30510637 0
-2.1577654 0.95080149 -0.30537188 0
-2.0470107 0.94920987 -0.30432582 0
-1.9517105 0.95369208 -0.30468872 0
-1.8599137 0.95019609 -0.30551702 0
-1.7522415 0.94666988 -0.30682015 0
-1.6654797 0.95884103 -0.30611131 0
-1.5598406 0.94318426 -0.30629933 0
-1.4459947 0.94375372 -0.30658537 0
-1.3546127 0.95774633 -0.30649275 0
-1.2476581 0.95072818 -0.30654663 0
-1.1393294 0.9483366 -0.30774817 0
-1.0449411 0.94844371 -0.30879089 0
-0.94966567 0.94051129 -0.30959332 0
-0.86104715 0.96916741 -0.30677769 0
-0.74054146 0.95029247 -0.30837268 0
-0.64944565 0.9543348 -0.30943438 0
-0.57943434 0.99793434 -0.30922255 0
0.65152079 0.9724102 -0.31376123 0
0.74461406 0.95559675 -0.31232184 0
0.84376919 0.95348686 -0.31194204 0
0.94945693 0.95268852 -0.31384891 0
1.0492724 0.95245141 -0.31474796 0
1.1481494 0.95175743 -0.31444699 0
1.2627279 0.95456976 -0.31425232 0
1.341455 0.93741578 -0.31541026 0
1.4439958 0.95145738 -0.31456754 0
1.5455673 0.95599955 -0.31482753 0
1.6462479 0.95423353 -0.31619412 0
1.7420901 0.94939423 -0.31624487 0
1.8595314 0.94994396 -0.31673816 0
1.9604992 0.94893903 -0.31688625 0
2.0532582 0.95797443 -0.31685343 0
2.155098 0.94960493 -0.31749853 0
2.2482147 0.9523617 -0.31792229 0
2.3723574 0.96156454 -0.31904632 0
2.4233596 0.94585216 -0.31942007 0
2.5079296 0.97886097 -0.31890374 0
2.6210458 0.9585954 -0.31927919 0
2.727216 0.95351106 -0.31961092 0
2.8129196 0.98347545 -0.31905022 0
3.045938 0.92025644 -0.32065919 0
3.132957 0.94654715 -0.32014894 0
3.2199762 0.97283781 -0.31963873 0
3.3069952 0.99912852 -0.31912851 0
-3.2467182 1.0063372 -0.30000243 0
-3.0510721 1.0423067 -0.30049834 0
-2.9547276 1.0330346 -0.30080545 0
-2.8588612 1.0225639 -0.30114022 0
-2.7583609 1.0313787 -0.30097064 0
-2.632901 1.0494378 -0.30035067 0
-2.5437458 1.0563945 -0.30201206 0
-2.451062 1.0384732 -0.30266145 0
-2.3352761 1.0488439 -0.30231386 0
-2.2216077 1.0403866 -0.30160287 0
-2.1585312 1.0546559 -0.30111617 0
-2.0456488 1.0450845 -0.30250132 0
-1.937762 1.0609401 -0.30315363 0
-1.8282528 1.0352677 -0.30395362 0
-1.7484468 1.0460774 -0.30319342 0
-1.6369931 1.0362709 -0.30309939 0
-1.5695397 1.0582209 -0.3035576 0
-1.4525124 1.042612 -0.3047443 0
-1.3473479 1.0546432 -0.30424795 0
-1.250265 1.0456322 -0.30625084 0
-1.1553684 1.0582722 -0.30662301 0
-1.0580244 1.0489089 -0.30674106 0
-0.95373756 1.0463576 -0.30592817 0
-0.83928597 1.0458359 -0.30621246 0
-0.76016128 1.0597013 -0.30645674 0
-0.65753096 1.0446521 -0.3081277 0
-0.54383987 1.0553868 -0.30734828 0
-0.4491913 1.0598195 -0.30630943 0
-0.34673372 1.0880232 -0.30607334 0
0.29394877 1.0996497 -0.3049953 0
0.37721246 1.0913787 -0.30943963 0
0.44377765 1.0580724 -0.30752814 0
0.55448776 1.0456252 -0.31055954 0
0.65574276 1.0559088 -0.31155077 0
0.76039952 1.0644152 -0.31124502 0
0.85160685 1.0457141 -0.31113383 0
0.93766361 1.0403689 -0.3110967 0
1.0460906 1.0497118 -0.31194112 0
1.1596186 1.0662669 -0.3107022 0
1.2439374 1.0373151 -0.31240156 0
1.3495277 1.0285991 -0.31391618 0
1.4438641 1.0554167 -0.3131038 0
1.5291429 1.0487082 -0.31358534 0
1.6541668 1.0560732 -0.313566 0
1.7395909 1.0435566 -0.31428471 0
1.8401268 1.0420597 -0.3139433 0
1.9444773 1.0468502 -0.3149347 0
2.047461 1.0460604 -0.31489545 0
2.1555758 1.0563254 -0.31480661 0
2.2660282 1.0572317 -0.31531829 0
2.340194 1.0455816 -0.31579524 0
2.4514589 1.059229 -0.31613883 0
2.5609484 1.063356 -0.31696162 0
2.6671059 1.0630097 -0.31731787 0
2.7616396 1.0778878 -0.31735462 0
2.8767276 1.0521152 -0.31756932 0
2.9843271 1.0434042 -0.31792879 0
3.0700307 1.0733687 -0.31736809 0
3.3940144 1.0254192 -0.31861827 0
3.4806359 1.0515898 -0.31811038 0
-2.7094653 1.1479466 -0.30051371 0
-2.6267993 1.1129227 -0.30164891 0
-2.5137215 1.1077114 -0.30072147 0
-2.1780982 1.1127493 -0.30061221 0
-2.0667074 1.1315345 -0.30119964 0
-1.9649963 1.1313403 -0.30133903 0
-1.8552637 1.1339411 -0.30096292 0
-1.75308 1.1514204 -0.3010501 0
-1.6383739 1.1408908 -0.30195451 0
-1.5315554 1.1329175 -0.30240998 0
-1.4625098 1.160373 -0.30304503 0
-1.3546369 1.1505077 -0.3036719 0
-1.2453827 1.1468705 -0.30447021 0
-1.1372148 1.1523176 -0.3040286 0
-1.045331 1.1515319 -0.303404 0
-0.95499575 1.1484014 -0.30359283 0
-0.84671861 1.1456343 -0.30416313 0
-0.73935312 1.1484624 -0.30552256 0
-0.64703619 1.1461672 -0.30542475 0
-0.55001789 1.1712672 -0.30340758 0
-0.45356736 1.141776 -0.30549273 0
-0.34099275 1.1476038 -0.30567929 0
-0.24642323 1.1508977 -0.30642486 0
-0.14878187 1.1559674 -0.30521825 0
-0.053144485 1.1417626 -0.30635652 0
0.045466155 1.1529913 -0.30490708 0
0.15562744 1.1555722 -0.30708891 0
0.25200343 1.1574609 -0.30749318 0
0.34619024 1.141068 -0.30920258 0
0.45218897 1.1467311 -0.30684236 0
0.54933733 1.1529453 -0.3073414 0
0.6471839 1.1467938 -0.30721086 0
0.74656373 1.1364757 -0.30922639 0
0.85679811 1.149503 -0.309562 0
0.96066511 1.1482399 -0.30854702 0
1.056167 1.1716912 -0.30845261 0
1.1399151 1.1342216 -0.31038678 0
1.2508078 1.1518197 -0.30967912 0
1.3543991 1.1473579 -0.31009635 0
1.4420538 1.1488813 -0.31124353 0
1.5673085 1.1593878 -0.31146634 0
1.6419988 1.1379291 -0.31166717 0
1.7393596 1.1478398 -0.3122974 0
1.8454014 1.1523545 -0.31140497 0
1.9386431 1.1347371 -0.31318074 0
2.0267544 1.1476755 -0.31281036 0
2.1305358 1.146619 -0.31336007 0
2.2504163 1.1583451 -0.31300086 0
2.3367949 1.1417063 -0.31326202 0
2.4537661 1.1592247 -0.31317255 0
2.5546415 1.1624711 -0.31326237 0
2.6443586 1.1655674 -0.31386748 0
2.7159104 1.1506132 -0.31478348 0
2.8259439 1.1498368 -0.31581852 0
2.9307795 1.1439055 -0.31632191 0
3.0153494 1.1769145 -0.31580555 0
3.1324091 1.1456348 -0.31585944 0
3.2414382 1.1332974 -0.31624666 0
3.3271418 1.1632619 -0.31568596 0
3.4009225 1.1890576 -0.31520325 0
-2.126694 1.2042923 -0.30044064 0
-1.8944142 1.2209576 -0.30008152 0
-1.7017643 1.2032263 -0.30095679 0
-1.659924 1.2464404 -0.30046803 0
-1.5483971 1.2516638 -0.30087495 0
-1.438524 1.2374288 -0.30136943 0
-1.3600692 1.2524983 -0.30110338 0
-1.251842 1.2493407 -0.30161887 0
-1.1480694 1.2465091 -0.30146614 0
-1.0500865 1.2524562 -0.30166155 0
-0.94732964 1.2337972 -0.30211553 0
-0.85548455 1.2570823 -0.30193806 0
-0.75190163 1.2532871 -0.30263561 0
-0.65440899 1.2401689 -0.30314484 0
-0.54115307 1.2536892 -0.30285627 0
-0.44649416 1.2336816 -0.30387664 0
-0.34847274 1.2542239 -0.30495429 0
-0.25912043 1.2702874 -0.3035191 0
-0.1505063 1.2616751 -0.30389157 0
-0.053276908 1.2328231 -0.30423406 0
0.048939571 1.2417074 -0.30374703 0
0.15749948 1.2604793 -0.3041034 0
0.24819918 1.2721673 -0.30417913 0
0.35186982 1.2568183 -0.30457246 0
0.44423726 1.2326465 -0.3041034 0
0.54284829 1.2362589 -0.30611974 0
0.65244097 1.2472827 -0.3055968 0
0.73927832 1.2469332 -0.30537248 0
0.84757257 1.245452 -0.30804345 0
0.94799966 1.2531848 -0.30702832 0
1.0403913 1.259021 -0.3062675 0
1.1523453 1.249686 -0.30777091 0
1.23543 1.2397807 -0.30812451 0
1.3465408 1.2579248 -0.30796066 0
1.4632771 1.2610232 -0.30802321 0
1.5466393 1.2445112 -0.30960828 0
1.6440418 1.2529193 -0.30953562 0
1.7356797 1.2459208 -0.30975476 0
1.8372318 1.2597551 -0.3099817 0
1.9448408 1.2535126 -0.30956388 0
2.0566666 1.2435087 -0.30976999 0
2.1649849 1.2671682 -0.31030813 0
2.242501 1.2320483 -0.31157851 0
2.3331814 1.2343855 -0.31146029 0
2.4199693 1.2582431 -0.30993721 0
2.5313768 1.2478077 -0.31004995 0
2.6401627 1.2548214 -0.31073838 0
2.7572978 1.2385935 -0.31219456 0
2.8671353 1.2388659 -0.31284168 0
2.9659576 1.2565534 -0.31258613 0
3.0778689 1.2523398 -0.31393677 0
3.1844893 1.2429323 -0.31477281 0
3.2690592 1.2759411 -0.31425646 0
3.3451557 1.2781363 -0.31329811 0
-1.4997934 1.3038605 -0.30007797 0
-1.2503438 1.3288157 -0.30030537 0
-1.0698864 1.3331847 -0.30042943 0
-0.95843911 1.3251568 -0.3011961 0
-0.83436996 1.3253709 -0.30226913 0
-0.74836785 1.3497145 -0.30134833 0
-0.656654 1.3564225 -0.30176157 0
-0.54329228 1.3491751 -0.30148241 0
-0.43814352 1.340632 -0.30239815 0
-0.34765521 1.3386964 -0.30192301 0
-0.24767987 1.3404948 -0.3030999 0
-0.14863263 1.3345722 -0.30422971 0
-0.052470606 1.3308337 -0.30171233 0
0.053971004 1.3202417 -0.30169851 0
0.13949859 1.3393422 -0.30309752 0
0.24357331 1.343792 -0.30305889 0
0.34907314 1.3445703 -0.30335924 0
0.45419264 1.3458632 -0.30260605 0
0.55610174 1.3525742 -0.30368125 0
0.66926157 1.3600283 -0.30407673 0
0.75330347 1.3578676 -0.30310878 0
0.84842038 1.3315105 -0.30552214 0
0.93536925 1.3396039 -0.30672842 0
1.044592 1.3644636 -0.30528584 0
1.1478685 1.3493576 -0.30504477 0
1.2576244 1.3404998 -0.30599576 0
1.3558413 1.3606952 -0.30570355 0
1.4431237 1.3420995 -0.30737916 0
1.5359262 1.3546916 -0.30649823 0
1.638166 1.343647 -0.30682653 0
1.7505889 1.3540082 -0.30735177 0
1.8603384 1.3556228 -0.30738997 0
1.9606224 1.3652649 -0.30741474 0
2.0761721 1.3592114 -0.30802241 0
2.1322794 1.335726 -0.30623397 0
2.2434044 1.3346777 -0.30722633 0
2.3460996 1.3507324 -0.30613336 0
2.4503872 1.3643972 -0.30544141 0
2.559721 1.3308947 -0.30744243 0
2.6688638 1.3634808 -0.30641967 0
2.7520828 1.3486214 -0.30743074 0
2.8617058 1.3519195 -0.30848655 0
2.9493148 1.3507324 -0.30973646 0
3.039849 1.3483253 -0.31090319 0
3.1550725 1.3457264 -0.31080505 0
3.253294 1.3509679 -0.31040156 0
3.3375869 1.3302921 -0.31434038 0
-0.63236254 1.4490601 -0.3017005 0
-0.55633712 1.4405774 -0.3020311 0
-0.42943868 1.4596791 -0.30135006 0
-0.3464565 1.4169291 -0.30066192 0
-0.24860166 1.433454 -0.30071047 0
-0.14741807 1.4497099 -0.30171597 0
-0.015500088 1.4440922 -0.30045137 0
0.057096638 1.4502176 -0.30082557 0
0.15080176 1.4478222 -0.30150965 0
0.26375633 1.4293731 -0.30125985 0
0.34726018 1.4312303 -0.3018899 0
0.44834796 1.4727161 -0.30295905 0
0.54899502 1.4436566 -0.30144939 0
0.64386296 1.426771 -0.30407488 0
0.7505396 1.4563335 -0.30213013 0
0.84894496 1.4463471 -0.30198261 0
0.95182586 1.4424143 -0.30363569 0
1.0499536 1.4558586 -0.30322701 0
1.1610101 1.4607443 -0.30294085 0
1.2465969 1.4442958 -0.30375907 0
1.3399643 1.4445779 -0.30348954 0
1.4386759 1.4369011 -0.30312094 0
1.5407051 1.4393106 -0.3052589 0
1.6456902 1.4514942 -0.30459344 0
1.7550616 1.460718 -0.30402768 0
1.8538604 1.4552779 -0.30497485 0
1.9718606 1.4674449 -0.3051286 0
2.0451257 1.4338193 -0.3055805 0
2.1471043 1.4498903 -0.30386099 0
2.2625279 1.4353662 -0.3015461 0
2.3821483 1.4404454 -0.30161124 0
2.4869385 1.455658 -0.30090317 0
2.5259304 1.4065843 -0.30312946 0
2.6207166 1.4348308 -0.30233407 0
2.7284586 1.4435015 -0.30312601 0
2.8288388 1.4452062 -0.30384833 0
2.9350815 1.446816 -0.30451095 0
3.0474558 1.4484 -0.30586904 0
3.1603119 1.4561638 -0.30743 0
3.2383885 1.4270236 -0.30961794 0
-0.13198632 1.5338233 -0.30118081 0
-0.016471988 1.5346408 -0.30026507 0
0.07144475 1.5347801 -0.30035779 0
0.18186957 1.5330673 -0.30164203 0
0.26844838 1.5152273 -0.30043241 0
0.31362802 1.5163561 -0.30098781 0
0.44068062 1.537341 -0.30229792 0
0.56554526 1.529332 -0.30049497 0
0.65818453 1.5081021 -0.30273893 0
0.7434532 1.5501939 -0.30080006 0
0.81021869 1.5182583 -0.30112979 0
0.95699465 1.5397152 -0.30143821 0
1.0556374 1.5559347 -0.30260456 0
1.1372141 1.5257624 -0.30210486 0
1.2486275 1.5559046 -0.30155823 0
1.3594856 1.5524893 -0.3014971 0
1.4547676 1.5351958 -0.30302897 0
1.5384386 1.5439613 -0.30219364 0
1.6627728 1.5533522 -0.30301651 0
1.7553414 1.5482116 -0.30270991 0
1.8648951 1.5718023 -0.30159089 0
1.9424351 1.5247114 -0.30344579 0
2.0535731 1.5419657 -0.3005026 0
2.2219527 1.5005244 -0.30072099 0
2.8997507 1.5076822 -0.30169091 0
2.9888136 1.5269315 -0.30127701 0
3.0769157 1.5442626 -0.30119646 0
3.1175556 1.5091946 -0.30337763 0
0.95886773 1.6248013 -0.30050853 0
1.0142856 1.611479 -0.30158114 0
1.1429533 1.6289389 -0.30048537 0
1.2648985 1.6474652 -0.30011314 0
1.3140144 1.6135607 -0.30039781 0
1.4311135 1.6343256 -0.30032021 0
1.5628672 1.6371702 -0.30112353 0
1.6744596 1.6566168 -0.30107421 0
1.7687051 1.6728832 -0.30096421 0
1.825581 1.6335117 -0.30110261 0
1.5902815 1.7144992 -0.30067042 0
1.64738 1.7760578 -0.30002707 0
3.9205329 0.76708949 -0.28697857 0
4.0461764 0.79167283 -0.26691586 0
4.1718197 0.81625611 -0.24685319 0
4.2701864 0.83550251 -0.23114604 0
-3.2498267 1.0413198 -0.29899922 0
-3.1412077 1.0480778 -0.2995472 0
-3.0284321 1.0832164 -0.29936531 0
-2.9266434 1.0943012 -0.29878455 0
-2.8247023 1.0792043 -0.29932207 0
-2.7230232 1.0628297 -0.29957733 0
-2.3919637 1.0952022 -0.29938698 0
-3.2181938 1.1165444 -0.29833713 0
-3.1589386 1.1470199 -0.29724959 0
-3.0547497 1.1589241 -0.29687473 0
-2.9746606 1.161047 -0.29714498 0
-2.8836699 1.1493883 -0.29774436 0
-2.7651157 1.1407413 -0.29907489 0
-2.6778452 1.1800351 -0.2983678 0
-2.5757134 1.1570095 -0.29870236 0
-2.4572427 1.1678748 -0.29822519 0
-2.3586845 1.1626811 -0.29881698 0
-2.2568891 1.1529988 -0.29915312 0
-2.1469805 1.159577 -0.29972419 0
-2.0250018 1.1852989 -0.29861313 0
-1.9177088 1.1784385 -0.29854751 0
-1.8338804 1.1451304 -0.29944691 0
-1.5882139 1.1925589 -0.29989788 0
-3.1366332 1.2415237 -0.29527357 0
-3.0416431 1.2631501 -0.29582617 0
-2.9471171 1.2486342 -0.29618388 0
-2.8393095 1.2509713 -0.29660904 0
-2.7290478 1.2494485 -0.29644263 0
-2.632165 1.2280731 -0.29696733 0
-2.5512583 1.2426835 -0.2964296 0
-2.4594796 1.2565018 -0.29677391 0
-2.3575211 1.247278 -0.29732263 0
-2.2516513 1.2538849 -0.29807389 0
-2.1532726 1.2811105 -0.29573613 0
-2.0566843 1.2436529 -0.29655689 0
-1.9595181 1.262915 -0.29845706 0
-1.8543463 1.2717303 -0.29872397 0
-1.7555355 1.2600503 -0.29885975 0
-1.6402161 1.2688119 -0.29909784 0
-1.3652841 1.2939104 -0.29980469 0
-1.1453559 1.2708238 -0.29972494 0
-0.96827859 1.2991906 -0.29909718 0
-0.86424756 1.2699466 -0.29938778 0
-0.6745913 1.2861919 -0.29991969 0
-0.45770124 1.2942318 -0.2997826 0
-0.19901714 1.28329 -0.29981199 0
-3.1055009 1.315739 -0.29507518 0
-3.0408978 1.3662285 -0.29326326 0
-2.9648418 1.3575044 -0.2940428 0
-2.8629601 1.3607044 -0.29363206 0
-2.7610693 1.3610392 -0.29368231 0
-2.6562693 1.3570318 -0.29398653 0
-2.5558329 1.352149 -0.29451203 0
-2.4568105 1.3451734 -0.29517949 0
-2.3532388 1.3324817 -0.29561654 0
-2.2512679 1.3468691 -0.29434982 0
-2.1443892 1.3531747 -0.29509333 0
-2.0382502 1.3374747 -0.29801697 0
-1.9551268 1.3614773 -0.29594496 0
-1.8476003 1.360087 -0.2966032 0
-1.7568597 1.3589906 -0.29752776 0
-1.6666857 1.3671441 -0.29762843 0
-1.559261 1.3554589 -0.29809457 0
-1.4440523 1.3490336 -0.29843718 0
-1.3425361 1.3345613 -0.29929009 0
-1.255564 1.3775077 -0.29717171 0
-1.1574059 1.3605399 -0.29896379 0
-1.0081773 1.3732076 -0.29858503 0
-0.94235009 1.3635828 -0.29805952 0
-0.85883284 1.3715467 -0.2982589 0
-0.7374413 1.3411989 -0.29809195 0
-0.64176887 1.3884645 -0.29848695 0
-0.57135493 1.3355966 -0.29971686 0
-0.46210808 1.3688314 -0.2986761 0
-0.36288866 1.397578 -0.29917958 0
-0.20968182 1.3520575 -0.29893163 0
-0.15213117 1.3659049 -0.29995087 0
0.014721407 1.3722104 -0.29961333 0
-3.0134411 1.4322758 -0.29190561 0
-2.949053 1.4363946 -0.2915802 0
-2.8586802 1.4604459 -0.29133189 0
-2.7538395 1.4569557 -0.29205549 0
-2.6503825 1.4511456 -0.29195207 0
-2.555825 1.4635247 -0.29248312 0
-2.4617391 1.4646429 -0.29214799 0
-2.372649 1.4347067 -0.2925339 0
-2.2613039 1.4575199 -0.29341194 0
-2.1512234 1.4525838 -0.29403633 0
-2.0405703 1.4428295 -0.29454884 0
-1.9294366 1.4487776 -0.29511309 0
-1.8512082 1.4640969 -0.29506308 0
-1.7501607 1.4567511 -0.29515994 0
-1.6571075 1.4547027 -0.29551518 0
-1.5649083 1.4619396 -0.29544735 0
-1.4508703 1.4560719 -0.29627135 0
-1.3473653 1.4317805 -0.29681823 0
-1.2387482 1.4408704 -0.29722983 0
-1.1514024 1.468281 -0.29787832 0
-1.0530345 1.4341701 -0.29756203 0
-0.95737565 1.4506435 -0.29693028 0
-0.84533757 1.4561018 -0.29724428 0
-0.7564593 1.4423858 -0.29773584 0
-0.65831184 1.4700588 -0.29710028 0
-0.55408382 1.4297117 -0.29749051 0
-0.45370659 1.4639503 -0.29859391 0
-0.34980381 1.4803426 -0.29805839 0
-0.2563161 1.4750786 -0.2985912 0
-0.15975255 1.4343333 -0.29850394 0
-0.0672874 1.4452248 -0.29853019 0
0.0395738 1.4413656 -0.29852292 0
0.149666 1.4369042 -0.29943341 0
0.23258632 1.4747113 -0.29815051 0
0.36318132 1.4825259 -0.29877144 0
0.47005269 1.4608802 -0.29975984 0
0.84528875 1.4803454 -0.29933667 0
2.3253472 1.4752418 -0.29744929 0
2.5761857 1.483266 -0.29931977 0
2.6814413 1.4931817 -0.29905474 0
-2.9398837 1.5285444 -0.28990176 0
-2.8701837 1.5538152 -0.28929117 0
-2.742768 1.5530668 -0.28983143 0
-2.6350546 1.5421977 -0.29050469 0
-2.5119481 1.5436575 -0.29001114 0
-2.4198279 1.5352536 -0.29059279 0
-2.3515954 1.5477476 -0.29186881 0
-2.247364 1.5572089 -0.29053745 0
-2.1570463 1.5717715 -0.29108107 0
-2.0652525 1.5507492 -0.29259416 0
-1.9461981 1.5502666 -0.29310238 0
-1.8466927 1.5416927 -0.2928881 0
-1.7677245 1.5591046 -0.29246649 0
-1.6555622 1.5466595 -0.29332972 0
-1.5521288 1.5576841 -0.29330567 0
-1.4474148 1.5602877 -0.29354668 0
-1.3434156 1.534255 -0.29395029 0
-1.2521167 1.5376273 -0.29557693 0
-1.1549203 1.5727261 -0.29434907 0
-1.0446764 1.5350541 -0.29449674 0
-0.945557 1.5615566 -0.2939876 0
-0.84438211 1.5552464 -0.29488274 0
-0.75277174 1.5523775 -0.29576153 0
-0.65420407 1.5596986 -0.29614025 0
-0.55039829 1.5466821 -0.29590067 0
-0.44942135 1.5474154 -0.29678148 0
-0.33271858 1.5512103 -0.29739374 0
-0.24442568 1.5376308 -0.29746673 0
-0.15164593 1.5296415 -0.29690817 0
-0.0579441 1.529199 -0.29668188 0
0.043651666 1.5236303 -0.29747361 0
0.13677126 1.5244489 -0.29868215 0
0.23403382 1.5413966 -0.29756606 0
0.35000235 1.5783619 -0.29814139 0
0.4500078 1.549077 -0.29770541 0
0.54441971 1.5277257 -0.29917076 0
0.6327045 1.5646349 -0.29904106 0
0.75675887 1.5578164 -0.29888943 0
0.85266185 1.5707477 -0.29892382 0
1.0503206 1.5672923 -0.29946128 0
1.5973054 1.5802486 -0.29955941 0
2.0130894 1.5802851 -0.29937062 0
2.1611712 1.5512816 -0.29762986 0
2.2613761 1.5745879 -0.29512838 0
2.3694801 1.5513018 -0.29516664 0
2.4575164 1.5348122 -0.29491705 0
2.5527477 1.5521058 -0.29521221 0
2.6399376 1.5452107 -0.29620841 0
2.7613585 1.5375546 -0.29721716 0
2.8551702 1.5631964 -0.29643685 0
2.9519358 1.588892 -0.29599959 0
3.0347435 1.5778697 -0.2992484 0
-2.8439324 1.6285092 -0.28794274 0
-2.770206 1.648175 -0.28855982 0
-2.6646326 1.637484 -0.28801268 0
-2.5614462 1.6509562 -0.28800395 0
-2.4468567 1.6522331 -0.28840655 0
-2.3318822 1.6488014 -0.28904966 0
-2.2515373 1.6658177 -0.28910404 0
-2.1681664 1.6605735 -0.29033458 0
-2.0483541 1.6480088 -0.28963062 0
-1.9589828 1.6543876 -0.29009441 0
-1.8376528 1.6442919 -0.29044983 0
-1.7449024 1.6349599 -0.29108039 0
-1.6537006 1.6595955 -0.29055583 0
-1.5476508 1.6606789 -0.29131281 0
-1.4522452 1.6585186 -0.29103363 0
-1.3545719 1.6393054 -0.29227442 0
-1.2589133 1.649533 -0.2928229 0
-1.1501479 1.6642408 -0.29137206 0
-1.0435584 1.6319441 -0.2922028 0
-0.92785031 1.6523094 -0.29315564 0
-0.85037643 1.638381 -0.2928434 0
-0.753088 1.6718446 -0.29367581 0
-0.65415108 1.6513296 -0.29313272 0
-0.5487988 1.6570482 -0.29355279 0
-0.46091494 1.6394507 -0.29430965 0
-0.35300127 1.6475601 -0.29461533 0
-0.24596778 1.6645722 -0.29430738 0
-0.14855267 1.6560179 -0.29557335 0
-0.054667473 1.6491393 -0.29489985 0
0.047585052 1.6413782 -0.29581174 0
0.14718468 1.6429298 -0.29601288 0
0.2467519 1.670356 -0.29539749 0
0.35490328 1.6562696 -0.29676086 0
0.45026973 1.6368467 -0.297189 0
0.54859698 1.6416271 -0.29653215 0
0.64025795 1.657851 -0.29735252 0
0.74724138 1.6411291 -0.29794559 0
0.85267419 1.6641084 -0.29686892 0
0.9453373 1.6313977 -0.29750836 0
1.0524468 1.6720644 -0.29842818 0
1.1596643 1.6526209 -0.29814631 0
1.2257619 1.6694627 -0.29905817 0
1.3772964 1.6668154 -0.29895982 0
1.4679768 1.6528947 -0.29920286 0
1.5057561 1.6707057 -0.29815677 0
1.6379212 1.6676332 -0.29874492 0
1.7162957 1.6979682 -0.29791281 0
1.9416592 1.6397653 -0.29676461 0
2.0485752 1.6559505 -0.29334769 0
2.1456883 1.6516763 -0.29247484 0
2.2597215 1.654827 -0.29048544 0
2.333127 1.6247021 -0.29147685 0
2.4363611 1.6452221 -0.28963825 0
2.5328171 1.6582459 -0.28780258 0
2.6446924 1.6513158 -0.28821531 0
2.7411823 1.6488056 -0.29020786 0
2.8399725 1.6533035 -0.29058686 0
2.9372342 1.6171805 -0.29371178 0
-2.8122895 1.7006252 -0.28753126 0
-2.7359169 1.7357386 -0.28519982 0
-2.6495609 1.7438364 -0.28600356 0
-2.5370879 1.7399158 -0.28503093 0
-2.4661436 1.7703278 -0.28658107 0
-2.3593729 1.7451931 -0.28716615 0
-2.2410922 1.7591716 -0.28763762 0
-2.1549139 1.750734 -0.28707886 0
-2.062989 1.7593737 -0.28747138 0
-1.9533882 1.7478648 -0.28789157 0
-1.8500042 1.7532438 -0.28799054 0
-1.7462299 1.7524594 -0.28813258 0
-1.6360731 1.7387534 -0.28890887 0
-1.5577458 1.7534087 -0.28939494 0
-1.4723983 1.7731609 -0.28786042 0
-1.3570322 1.7413876 -0.2901181 0
-1.2470477 1.7504286 -0.28942019 0
-1.1591458 1.7568364 -0.2894797 0
-1.0595018 1.7322382 -0.28950936 0
-0.94886768 1.7779065 -0.28985661 0
-0.85954833 1.7280467 -0.29110524 0
-0.74403852 1.7498512 -0.2913374 0
-0.64803571 1.7293613 -0.29126921 0
-0.55188382 1.7534285 -0.29146445 0
-0.44592571 1.7623777 -0.29107085 0
-0.36530927 1.7448916 -0.29161766 0
-0.25695413 1.7389011 -0.29251057 0
-0.15716991 1.7517982 -0.29255289 0
-0.056461856 1.7553804 -0.29217362 0
0.04415882 1.759583 -0.2935074 0
0.14471786 1.7538888 -0.29304156 0
0.24545048 1.747736 -0.29354882 0
0.35614046 1.7457457 -0.29453999 0
0.447148 1.7443821 -0.29510382 0
0.54310966 1.7620021 -0.2936396 0
0.64852464 1.7427996 -0.29516456 0
0.74932939 1.7260146 -0.29576075 0
0.85880071 1.7579615 -0.29542804 0
0.95330638 1.7457566 -0.29552996 0
1.033174 1.7506291 -0.29657289 0
1.1355684 1.7481246 -0.29726556 0
1.2344916 1.7593098 -0.29668257 0
1.3408322 1.7463576 -0.29821169 0
1.4440255 1.747568 -0.29703087 0
1.5363044 1.7544079 -0.29699185 0
1.6484351 1.7770854 -0.29763934 0
1.7299099 1.7310622 -0.2975857 0
1.8513297 1.7295485 -0.295086 0
1.9542799 1.7486353 -0.29051569 0
2.0589507 1.7642514 -0.28667811 0
2.1479239 1.7535458 -0.28504351 0
2.2494893 1.7487267 -0.28514084 0
2.3431141 1.733276 -0.2841627 0
2.4434295 1.7538894 -0.28222522 0
2.565599 1.7593998 -0.28172553 0
2.6610665 1.7421567 -0.2821033 0
2.755636 1.7205349 -0.28422749 0
-2.7094622 1.8016617 -0.28466958 0
-2.6355608 1.8521723 -0.28331727 0
-2.5386257 1.8223577 -0.28522599 0
-2.428324 1.8415116 -0.28511307 0
-2.3459063 1.8418553 -0.28535968 0
-2.2601516 1.8539809 -0.28428081 0
-2.1328547 1.8541487 -0.28516239 0
-2.0215366 1.8350992 -0.28569663 0
-1.9477746 1.8459496 -0.28526765 0
-1.8559257 1.8625364 -0.28541198 0
-1.7380241 1.8471009 -0.28627554 0
-1.6532702 1.8434104 -0.28732848 0
-1.5635977 1.8649586 -0.28631511 0
-1.4443305 1.8503301 -0.28685719 0
-1.3549209 1.8546257 -0.28704658 0
-1.2397476 1.8500104 -0.28742668 0
-1.1494989 1.8556503 -0.28670204 0
-1.0522264 1.8364122 -0.28809613 0
-0.94582075 1.8678011 -0.28784657 0
-0.8549841 1.8427184 -0.2894617 0
-0.75031632 1.863113 -0.28862104 0
-0.65861523 1.8485111 -0.28884962 0
-0.54854244 1.8390721 -0.28943309 0
-0.45538056 1.8629144 -0.28902239 0
-0.34108117 1.8352512 -0.2908524 0
-0.246929 1.8307555 -0.29084933 0
-0.14678188 1.824845 -0.29032633 0
-0.058893465 1.8311355 -0.29047793 0
0.040794484 1.8404911 -0.29226685 0
0.14987785 1.8314602 -0.2914201 0
0.25595826 1.8222271 -0.2918452 0
0.34481412 1.8356363 -0.29222703 0
0.44271338 1.8269191 -0.29374462 0
0.53960502 1.8579994 -0.29182404 0
0.64722824 1.8299733 -0.29309955 0
0.75585479 1.8535678 -0.29345062 0
0.85487491 1.8495516 -0.29383919 0
0.95327908 1.8495177 -0.29338309 0
1.0569905 1.8509418 -0.29377794 0
1.1502261 1.8566852 -0.29492962 0
1.2536368 1.8420837 -0.29469585 0
1.3375275 1.8635415 -0.29469609 0
1.4424845 1.8511517 -0.29632315 0
1.5451972 1.8428988 -0.29533139 0
1.6595975 1.8681366 -0.29453933 0
1.7543707 1.8379672 -0.29510516 0
1.8542871 1.834444 -0.29032999 0
1.9440922 1.8689097 -0.28428224 0
2.0549409 1.8473954 -0.28190044 0
2.1561799 1.8475618 -0.27900308 0
2.2483504 1.8534693 -0.2767494 0
2.3502445 1.8448237 -0.27692798 0
2.4692104 1.8633171 -0.27411455 0
2.530134 1.8346745 -0.27574256 0
2.6026201 1.8123671 -0.27746841 0
-2.6199155 1.9092236 -0.28361794 0
-2.5469961 1.9584802 -0.28232157 0
-2.4666512 1.9459553 -0.28204802 0
-2.364862 1.9590302 -0.28178751 0
-2.2507534 1.9566631 -0.28285259 0
-2.1383765 1.9692417 -0.28214094 0
-2.0433652 1.9364938 -0.28322712 0
-1.9493332 1.937929 -0.2832112 0
-1.8734802 1.9627095 -0.28288212 0
-1.7552371 1.9474611 -0.28426519 0
-1.6446859 1.9428855 -0.28370038 0
-1.558998 1.9712127 -0.28337893 0
-1.4477104 1.9424981 -0.28490388 0
-1.3399262 1.9389106 -0.28518263 0
-1.245792 1.9481226 -0.28486639 0
-1.1618416 1.9688355 -0.28423908 0
