# .PCD v0.7 - Point Cloud Data file format
VERSION 0.7
FIELDS x y z intensity
SIZE 4 4 4 4
TYPE F F F F
COUNT 1 1 1 1
WIDTH 167
HEIGHT 1
VIEWPOINT 0 0 0 1 0 0 0
POINTS 167
DATA ascii
-22.416653 -0.32222909 0.39116868 8
-22.405703 -0.32206938 1.9602745 10
-22.396997 -0.3219454 1.1737339 9
-22.092014 -0.63518918 3.5001345 12
-22.088995 -0.63509953 5.1013718 14
-21.498661 -1.2372024 4.1851597 13
-21.488005 -1.2365848 5.7664733 15
-21.220722 -1.5274341 2.6115811 11
-20.425673 -2.3585815 1.0765765 9
-20.418646 -2.3577559 3.2543006 12
-19.905096 -2.8801551 5.3873944 15
-19.673647 -3.1359258 0.34649876 8
-19.666334 -3.134743 1.7409053 10
-19.190088 -3.6269789 4.506794 14
-18.951645 -3.8647032 3.7576067 13
-18.735849 -4.101913 3.035717 12
-18.503826 -4.3305936 2.3313522 11
-18.505913 -4.3310199 5.0900812 15
-18.073778 -4.7815828 0.32448152 8
-18.078842 -4.7829046 0.97809666 9
-17.655321 -5.2178845 1.6084107 10
-17.438801 -5.4273696 3.5473034 13
-17.234999 -5.6367426 2.869276 12
-17.022179 -5.8389907 4.8185482 15
-16.846102 -6.0505672 0.93563747 9
-16.629602 -6.2437158 4.0975122 14
-16.447355 -6.4463992 2.1661172 11
-16.263464 -6.6454458 0.30417633 8
-15.890845 -7.0322304 1.5173419 10
-15.88159 -7.0279036 4.6494641 15
-15.705321 -7.2216392 0.9030742 9
-15.690509 -7.2146325 3.3532252 13
-15.51119 -7.4037819 3.9640851 14
-15.152556 -7.7746139 2.693727 12
-14.804124 -8.1412363 1.474773 10
-14.970701 -7.9549699 2.078054 11
-14.629731 -8.3212709 0.29080537 8
-14.450576 -8.495842 3.8656015 14
-14.101895 -8.84519 4.4555159 15
-13.942343 -9.0269489 2.0355392 11
-13.939861 -9.0252571 2.6261065 12
-13.590931 -9.3637447 3.2036486 13
-13.267691 -9.7147703 0.85827124 9
-12.926572 -10.046886 4.3815546 15
-12.773149 -10.225991 0.28222397 8
-11.782278 -11.226139 0.84913093 9
-11.616081 -11.38952 3.7506068 14
-11.459419 -11.564275 0.28063616 8
-10.467461 -12.560637 3.1732578 13
-10.143962 -12.90968 0.856619 9
-9.808794 -13.248859 1.438152 10
-9.8026638 -13.239414 3.797977 14
-8.612359 -14.473371 0.29052889 8
-8.6069994 -14.461931 3.8803663 14
-8.6094742 -14.465677 4.5053144 15
-8.0792561 -15.010906 3.3090341 13
-7.7171783 -15.382805 0.89843434 9
-7.7161708 -15.379758 2.1087744 11
-7.7187037 -15.384296 2.7219138 12
-7.1588969 -15.945315 4.6786094 15
-6.9728026 -16.152063 0.30397072 8
-6.9730268 -16.151299 1.5356072 10
-6.9684467 -16.138706 3.4128025 13
-6.3862262 -16.738176 2.1961844 11
-6.3828211 -16.726862 4.1291442 14
-5.7770095 -17.350323 2.892904 12
-5.5673265 -17.561028 0.96264869 9
-5.1399117 -17.989119 2.2942183 11
-5.1434984 -17.999367 3.6354728 13
-4.9238062 -18.214502 5.0522132 15
-4.6999259 -18.44031 1.6622959 10
-4.4756866 -18.680637 0.3330569 8
-4.4759459 -18.675884 3.0389752 12
-4.0112319 -19.144983 4.5131884 14
-3.7741756 -19.400095 3.8392313 13
-3.5272691 -19.640039 1.0438579 9
-3.5286806 -19.643715 2.4484611 11
-3.5282323 -19.6325 5.3422489 15
-2.282366 4.1313386 0.49792144 10.5
-2.2841117 4.1346645 0.75023174 12
-2.392318 4.1862779 0.93964571 13
-2.3881161 4.1790891 1.1139485 14
-2.2808945 4.1292539 1.2669675 15
-2.0194082 4.0617785 -0.2373385 6
-2.1959229 4.1138892 -0.080703929 7
-2.1948709 4.1120591 0.082318492 8
-1.8426028 4.0687389 0.31337696 9.5
-1.8068544 4.0682898 0.5481689 11
-1.6768835 4.0895605 -0.076601818 7
-1.6179179 4.1149983 0.86147344 13
-1.6499827 4.1094594 1.1069314 14.5
-1.5545166 4.1265082 -0.23081338 6
-1.4402415 4.1857805 0.077969536 8
-1.496575 4.1545782 0.7010693 12
-1.275629 4.3035769 -0.077920415 7
-1.2774605 4.3103204 0.31544229 9.5
-1.3307042 4.2646136 1.0333681 14
-1.2777706 4.3128085 1.2074251 15
-1.1710702 4.4131737 -0.2390864 6
-1.0172596 4.6316042 0.083289742 8
-1.1731784 4.4224944 0.56298041 11
-1.1704898 4.412807 0.72447652 12
-1.0159096 4.6275058 0.92233986 13
-1.0178859 4.6367555 1.0975844 14
-1.0714613 14.332516 3.8524413 15
-0.97090697 4.7448893 0.25448614 9
-0.96946603 4.7405949 1.2982638 15
-0.29599705 14.531399 1.2715353 10
-0.040258285 14.50207 1.7807734 11
-0.039621934 14.499171 2.8186023 13
1.2618349 -7.5683742 0.13500215 8
1.2613695 -7.5666909 0.40327421 9
1.2622938 -7.5732012 0.67313856 10
1.2635387 -7.5816088 0.94535589 11
1.2596725 -7.5599036 1.2156746 12
1.2598984 -7.5623269 1.4922143 13
1.2615712 -7.5732937 1.7747082 14
1.2585375 -7.5565319 2.0550382 15
1.8608166 14.957625 0.26723546 8
1.8609509 14.965896 0.79470128 9
1.8617443 14.979334 1.3251427 10
1.8584708 14.961136 1.8558611 11
1.8573533 14.959795 2.3925602 12
1.8588384 14.978833 2.9391346 13
1.8557004 14.961912 3.4861512 14
1.8576243 14.984624 4.0515761 15
12.492908 24.56291 7.4130692 15
12.976555 -3.3618 0.24929525 8
12.952005 -3.3555937 0.71783459 9
12.960917 -3.3580356 1.1894166 10
12.946972 -3.3545716 1.6616473 11
12.9517 -3.3559344 2.1400506 12
12.92079 -3.3480866 2.616961 13
12.943819 -3.3541834 3.1111104 14
12.943727 -3.3543067 3.6085839 15
13.068846 -5.2670603 0.26063892 8
13.065434 -5.2659054 0.75419044 9
13.064191 -5.2656198 1.2495407 10
13.064981 -5.2661529 1.7481446 11
13.063384 -5.2657294 2.2507334 12
19.482424 19.967226 1.4941559 9
22.790163 -1.5090491 3.6519163 12
22.74102 -2.4960237 4.4825892 13
22.835157 -1.511744 0.42746538 8
22.810966 -1.5102137 1.2275649 9
22.809683 -1.5101987 2.0310044 10
22.804623 -1.5099347 2.8388767 11
23.731882 5.7136531 1.3128299 9
23.892014 5.389173 0.45955077 8
27.417513 10.500079 1.578446 9
35.792656 3.8291368 0.67415166 8
35.78548 3.8285258 1.933563 9
35.791908 3.829524 4.470777 11
35.798862 3.8304245 5.755331 12
35.801479 3.830389 3.1992657 10
35.803898 3.8311217 7.0544038 13
44.722939 20.914791 4.3858304 10
44.721748 20.915333 6.1302996 11
44.995117 19.486895 7.8365054 12
45.535042 16.679325 4.3085976 10
45.796883 15.29662 5.996285 11
45.795738 15.296983 7.7171836 12
46.043262 13.921146 9.4220877 13
46.804806 9.8415222 4.2494044 10
46.814697 9.844038 5.9407892 11
46.826191 9.8468952 7.647872 12
46.832695 9.8487082 9.37393 13
