# .PCD v0.7 - Point Cloud Data file format
VERSION 0.7
FIELDS x y z intensity
SIZE 4 4 4 4
TYPE F F F F
COUNT 1 1 1 1
WIDTH 1381
HEIGHT 1
VIEWPOINT 0 0 0 1 0 0 0
POINTS 1381
DATA ascii
-23.345779 0.6712721 3.6994205 12
-23.357811 0.67161953 4.5424747 13
-23.33518 0.6709699 5.3898926 14
-23.322992 0.67062098 6.2522926 15
-23.052584 0.33137622 0.40252358 8
-23.043324 0.33124423 1.2078775 9
-23.052059 0.33137089 2.0171118 10
-23.032846 0.33109578 2.8284857 11
-23.02721 0.33101591 3.6476505 12
-23.028051 0.33102915 4.4767909 13
-23.020666 0.33092415 5.3154259 14
-23.012409 0.33080652 6.1669369 15
-22.739801 6.3080079e-05 0.39689419 8
-22.705544 6.405868e-05 1.1899153 9
-22.716593 6.5101434e-05 1.9874114 10
-22.402943 -0.32202861 2.7508378 11
-22.724106 6.6168577e-05 2.7901347 11
-22.401529 -0.32200715 3.5482292 12
-22.707397 6.7285902e-05 3.5964622 12
-22.703058 6.8406523e-05 4.4129901 13
-22.690836 6.9293026e-05 5.2385526 14
-22.690565 7.054759e-05 6.0798774 15
-22.119776 -0.63599277 0.38598379 8
-22.105644 -0.63558507 1.1586934 9
-22.10421 -0.63554257 1.9343585 10
-22.09487 -0.63527262 2.7137053 11
-22.100039 -0.63541859 4.297226 13
-22.389526 -0.32183343 4.3523321 13
-22.392199 -0.32187065 5.1699681 14
-22.07929 -0.63481921 5.9181714 15
-22.378744 -0.32167608 5.9967628 15
-21.822304 -0.94144732 0.38086745 8
-21.808788 -0.94086236 1.1435947 9
-21.80958 -0.94089496 1.9094239 10
-21.806629 -0.94076604 2.6795423 11
-21.795954 -0.9403038 3.4548597 12
-21.792536 -0.94015461 4.2394609 13
-21.800753 -0.94050729 5.0372348 14
-21.789511 -0.94002062 5.8433361 15
-21.382494 -1.3837667 0.37345496 8
-21.378965 -1.3835793 1.1221962 9
-21.384552 -1.3838768 1.8742329 10
-21.51424 -1.2381034 2.6453841 11
-21.368004 -1.3828518 3.3908198 12
-21.228884 -1.5280162 4.1363306 13
-21.363512 -1.3825411 4.9418135 14
-21.215506 -1.5270475 5.6984696 15
-20.980394 -1.8135202 0.36684504 8
-20.963972 -1.8120973 1.1019952 9
-20.968107 -1.8124518 1.8404909 10
-20.957809 -1.8115578 2.5820227 11
-20.95887 -1.8116463 3.3310201 12
-20.947308 -1.8106436 4.0859585 13
-20.957716 -1.8115399 4.8554888 14
-20.943602 -1.8103163 5.6316676 15
-20.569046 -2.224679 0.36024451 8
-20.694841 -2.0888135 1.0891916 9
-20.573948 -2.225255 1.809531 10
-20.56424 -2.2240992 2.5387034 11
-20.688131 -2.0881238 3.2922745 12
-20.439535 -2.3601627 3.9981894 13
-20.693371 -2.088649 4.0417099 13
-20.546814 -2.2222359 4.7701445 14
-20.544605 -2.2221091 5.5358424 15
-20.188145 -2.6256125 0.35430652 8
-20.180565 -2.6246204 1.0654167 9
-20.169964 -2.6232355 1.7783303 10
-20.174263 -2.6237888 2.4967065 11
-20.171524 -2.6234272 3.2204473 12
-20.166267 -2.6227369 3.9515479 13
-20.154011 -2.6211374 4.6906376 14
-20.154699 -2.6212201 5.4443641 15
-19.927311 -2.8834193 0.35030982 8
-19.807858 -3.0108042 1.0487698 9
-19.925354 -2.8831217 1.7601097 10
-19.807621 -3.0107026 2.4586456 11
-19.793907 -3.0086811 3.1696343 12
-19.797087 -3.0091271 3.8908722 13
-19.78364 -3.0070529 4.6183105 14
-19.674946 -3.1360753 5.3365836 15
-19.21648 -3.6320331 0.3399353 8
-19.440516 -3.3858538 0.34310788 8
-19.200933 -3.6290824 1.0225778 9
-19.432909 -3.3845191 1.0323485 9
-19.202539 -3.6293759 1.7081393 10
-19.443495 -3.3863542 1.7251873 10
-19.441322 -3.3859665 2.4214332 11
-19.429354 -3.3838727 3.121943 12
-19.43078 -3.3841112 3.8320291 13
-19.412531 -3.3809235 4.5473108 14
-19.421152 -3.3824148 5.2802167 15
-18.969957 -3.8684993 0.3364206 8
-18.97994 -3.8705223 1.0135559 9
-18.96665 -3.8678005 1.6918077 10
-19.081318 -3.7479317 2.3859599 11
-19.082874 -3.7482822 3.0783975 12
-19.192568 -3.6274583 3.7947931 13
-18.943813 -3.8630943 4.4613805 14
-18.947964 -3.8639274 5.1793008 15
-19.179613 -3.6249883 5.2280068 15
-18.638811 -4.220614 0.33194047 8
-18.63945 -4.2207937 0.99985832 9
-18.630924 -4.2188249 1.6694453 10
-18.740562 -4.1029577 2.3536325 11
-18.515221 -4.3332467 3.0096166 12
-18.626379 -4.2177753 3.710144 13
-18.498367 -4.3292699 4.3836746 14
-18.721792 -4.0988069 4.4223576 14
-18.723701 -4.0992103 5.1334128 15
-18.301144 -4.5614738 0.32744917 8
-18.298775 -4.5608659 0.98645169 9
-18.196732 -4.6739225 1.6416758 10
-18.193039 -4.6729836 2.3042161 11
-18.185555 -4.6710362 2.9715707 12
-18.184542 -4.6707187 3.6470964 13
-18.173521 -4.6679316 4.3293986 14
-18.166378 -4.6659451 5.0230446 15
-17.611858 5.2073331 -0.31874096 7
-17.659899 -5.2192826 0.319428 8
-17.880501 -5.0063553 0.32217625 8
-17.661814 -5.2198243 0.96305478 9
-17.870533 -5.0035415 0.97051513 9
-17.87063 -5.0035491 1.621416 10
-17.658501 -5.218801 2.2584786 11
-17.879278 -5.0059505 2.2773967 11
-17.651291 -5.2166471 2.9126587 12
-17.861551 -5.0009656 2.9353175 12
-17.657278 -5.2183943 3.5762548 13
-17.859903 -5.0004816 3.6025012 13
-17.642012 -5.2138577 4.2442408 14
-17.861004 -5.0007696 4.2793393 14
-17.644838 -5.2146697 4.927011 15
-17.849537 -4.9975362 4.963757 15
-17.301704 1.2454693 -0.30235228 7
-17.485022 2.5305321 -0.30748621 7
-17.58429 3.8510537 -0.31284532 7
-17.532135 6.5864916 -0.32462105 7
-17.364635 7.990262 -0.33092493 7
-17.258453 -5.6445222 0.3147946 8
-17.463762 -5.4352632 0.31717074 8
-17.242697 -5.6393409 0.94845676 9
-17.452673 -5.4317865 0.95571107 9
-17.253386 -5.6428118 1.5857081 10
-17.468292 -5.4366255 1.5982194 10
-17.253059 -5.6426778 2.2262256 11
-17.454178 -5.4322066 2.2419853 11
-17.447943 -5.4302406 2.8915594 12
-17.240273 -5.6384401 3.5229082 13
-17.234556 -5.6365423 4.1831908 14
-17.436359 -5.4265838 4.2129507 14
-17.2293 -5.6347942 4.8539057 15
-17.437307 -5.4268537 4.890183 15
-17.041845 4.4428249e-05 -0.29748869 7
-17.123566 9.4249029 -0.33803472 7
-16.860733 -6.0558577 0.31041747 8
-17.043747 -5.8465981 0.31229243 8
-17.053068 -5.8497667 0.94245899 9
-16.853886 -6.0533338 1.5641372 10
-17.05302 -5.8497224 1.5747541 10
-16.8584 -6.0549235 2.196636 11
-17.060307 -5.8521919 2.2118669 11
-16.844172 -6.0497789 2.8317595 12
-17.039757 -5.8451128 2.8503439 12
-16.844189 -6.0497541 3.4758203 13
-17.035357 -5.8435736 3.4977067 13
-16.840567 -6.0484209 4.1277871 14
-17.03154 -5.8422337 4.1537256 14
-16.83639 -6.0468864 4.7899146 15
-16.702702 -1.2022157 -0.29276016 7
-16.763046 10.8645 -0.34515959 7
-16.467295 -6.4543247 0.30630103 8
-16.660318 -6.2554569 0.30826843 8
-16.470549 -6.4555655 0.92452663 9
-16.650764 -6.2518358 0.92959225 9
-16.462172 -6.4522462 1.5441657 10
-16.659184 -6.2549653 1.5541509 10
-16.651329 -6.2519808 2.1810291 11
-16.455795 -6.4496708 2.7962542 12
-16.649134 -6.2511215 2.8136673 12
-16.442728 -6.4445109 3.4295433 13
-16.648544 -6.2508659 3.4535048 13
-16.462257 -6.4521303 4.0785737 14
-16.449036 -6.4469085 4.7302022 15
-16.651775 -6.2520084 4.7623196 15
-16.31225 -2.360266 -0.28857112 7
-16.301331 12.314225 -0.3527436 7
-16.095137 -6.848031 0.30276126 8
-16.088341 -6.8450971 0.91357082 9
-16.275751 -6.6504292 0.91877574 9
-16.095325 -6.8480287 1.5274042 10
-16.278955 -6.6516995 1.5356933 10
-16.081707 -6.8421898 2.1427782 11
-16.258402 -6.643259 2.1534801 11
-16.078428 -6.8407526 2.7641845 12
-16.269941 -6.6479363 2.7805088 12
-16.075563 -6.839489 3.3923328 13
-16.26827 -6.6472149 3.4126089 13
-16.075603 -6.8394632 4.0295677 14
-16.259779 -6.6437016 4.0515132 14
-16.081606 -6.8419738 4.6788931 15
-16.257065 -6.6425509 4.7018213 15
-15.867732 -3.4739215 -0.28479704 7
-15.723803 13.759171 -0.36056209 7
-15.708683 -7.2232332 0.29912761 8
-15.897781 -7.0353904 0.30084512 8
-15.895618 -7.0343881 0.90819114 9
-15.713877 -7.2255263 1.5101142 10
-15.705615 -7.2216787 2.1192572 11
-15.889804 -7.0317245 2.130353 11
-15.70295 -7.2204037 2.7339745 12
-15.88517 -7.0296268 2.7479346 12
-15.893382 -7.033217 3.3747511 13
-15.691553 -7.2150631 3.9833937 14
-15.884291 -7.0291457 4.006391 14
-15.711766 -7.2243109 4.6295285 15
-15.373102 -4.5432749 -0.28143695 7
-15.436502 -7.5046139 0.29685676 8
-15.443376 -7.5079355 0.89700943 9
-15.353434 -7.6012988 1.4956865 10
-15.538371 -7.4169688 1.5032494 10
-15.443063 -7.5076952 2.1050749 11
-15.427508 -7.5001197 2.7134337 12
-15.430833 -7.5016479 3.331408 13
-15.336802 -7.5928397 3.9468756 14
-15.430665 -7.5014677 4.5931673 15
-14.829761 -5.5679398 -0.27845135 7
-15.016171 15.178265 -0.3683272 7
-14.834785 -8.1582346 0.29258147 8
-15.082979 -7.8761725 0.29415914 8
-14.811234 -8.1452122 0.88272107 9
-15.081483 -7.8753648 0.8886261 9
-15.073351 -7.8710208 1.4844904 10
-14.81505 -8.1471825 2.0724001 11
-15.172117 -7.7847142 2.090359 11
-14.824105 -8.1520967 2.6757014 12
-14.984035 -7.9619961 2.6837349 12
-14.816669 -8.1479416 3.2827742 13
-15.077273 -7.8729863 3.3023691 13
-14.805725 -8.1418524 3.8966146 14
-15.078753 -7.8735662 3.9231286 14
-14.805176 -8.1414824 4.5227184 15
-15.07025 -7.8691301 4.5510907 15
-14.465002 -8.5047684 0.28987241 8
-14.467902 -8.506403 0.87633705 9
-14.6367 -8.3251677 0.87929028 9
-14.479124 -8.5129299 1.4660207 10
-14.638 -8.325839 1.469915 10
-14.463739 -8.503808 2.0564363 11
-14.643974 -8.3291693 2.0649145 11
-14.460979 -8.5021105 2.652992 12
-14.630265 -8.3213015 2.6619282 12
-14.471323 -8.5081186 3.2588997 13
-14.630236 -8.3212118 3.2675202 13
-14.636173 -8.3245211 3.882962 14
-14.45437 -8.4979992 4.4880848 15
-14.638165 -8.3255816 4.5076613 15
-14.202404 -6.5303674 -0.27509275 7
-14.206921 16.591623 -0.37677053 7
-14.123786 -8.8595047 0.28790995 8
-14.295379 -8.6836395 0.28888822 8
-14.129389 -8.8629398 0.87078053 9
-14.312904 -8.6942158 0.87436277 9
-14.123633 -8.8592482 1.4550698 10
-14.298029 -8.6850967 1.4600984 10
-14.134031 -8.8656912 2.0447917 11
-14.29685 -8.6843042 2.0501595 11
-14.132848 -8.8648663 2.6382797 12
-14.29395 -8.6824636 2.644876 12
-14.104494 -8.8469915 3.2320313 13
-14.288435 -8.6790323 3.2453654 13
-14.116846 -8.8546591 3.8426185 14
-14.291976 -8.6811085 3.8560424 14
-14.279075 -8.6731844 4.4717741 15
-13.624774 -9.3875542 0.28557917 8
-13.877153 -9.1268635 0.28675583 8
-13.694425 -9.2909975 0.86386818 9
-13.961337 -9.0394268 0.86827999 9
-13.702275 -9.2962437 1.4450125 10
-13.942489 -9.0271292 1.4495538 10
-13.697957 -9.2932863 2.028573 11
-13.697036 -9.2924671 2.6174195 12
-13.777817 -9.2036476 3.2162871 13
-13.945017 -9.0285091 3.2247915 13
-13.607207 -9.3748684 3.810122 14
-13.858977 -9.1143236 3.8249345 14
-13.605607 -9.3736658 4.4220185 15
-13.853746 -9.1107502 4.4380422 15
-13.53842 -7.445015 -0.27217227 7
-13.268015 17.961798 -0.38522753 7
-13.279941 -9.7238522 0.28400543 8
-13.457304 -9.5599823 0.28487408 8
-13.450289 -9.5548944 0.86116368 9
-13.279633 -9.7234192 1.4361861 10
-13.445471 -9.5513725 1.4391881 10
-13.288009 -9.7294493 2.018126 11
-13.440065 -9.5474281 2.0202405 11
-13.273317 -9.7185793 2.60127 12
-13.441421 -9.5482931 2.6071324 12
-13.263155 -9.7110271 3.1906984 13
-13.442873 -9.5492239 3.2006786 13
-13.263849 -9.7114286 3.7903891 14
-13.440548 -9.5474682 3.801383 14
-13.268805 -9.7149467 4.4012895 15
-13.444448 -9.5501337 4.413682 15
-12.859563 -8.325799 -0.27009326 7
-12.942492 -10.060092 0.28277808 8
-13.108752 -9.8907166 0.28331432 8
-12.937216 -10.055873 0.85514557 9
-13.120429 -9.8994226 0.85781139 9
-12.948303 -10.064379 1.4309404 10
-13.103456 -9.8864985 1.4322925 10
-12.95363 -10.06841 2.0103409 11
-13.11271 -9.8933725 2.0128207 11
-12.938297 -10.056366 2.5910516 12
-13.106425 -9.8885164 2.5960691 12
-12.934127 -10.053005 3.1795897 13
-13.111712 -9.892396 3.1880543 13
-12.939586 -10.057131 3.7785997 14
-13.104939 -9.8871689 3.7850974 14
-13.096226 -9.880476 4.390584 15
-12.468215 -10.583353 0.28202787 8
-12.614634 -10.399759 0.28196099 8
-12.451627 -10.569126 0.85226744 9
-12.697603 -10.31573 0.85376304 9
-12.531597 -10.482856 1.425506 10
-12.786794 -10.23668 1.4291494 10
-12.538535 -10.488631 2.0030272 11
-12.778214 -10.229685 2.0056632 11
-12.450792 -10.568013 2.5821121 12
-12.695862 -10.313902 2.5863779 12
-12.440306 -10.558972 3.1669872 13
-12.688997 -10.308203 3.1731699 13
-12.44763 -10.565055 3.7642632 14
-12.693129 -10.311399 3.7706087 14
-12.437155 -10.556016 4.3656559 15
-12.692419 -10.310776 4.3764672 15
-12.126904 -9.1494741 -0.26801324 7
-12.131764 -10.912245 0.28134167 8
-12.289675 -10.73913 0.28142214 8
-12.118233 -10.899916 0.85047215 9
-12.292644 -10.741587 0.85182649 9
-12.118524 -10.90003 1.4220233 10
-12.283279 -10.733258 1.4231539 10
-12.132917 -10.912841 1.9994164 11
-12.285726 -10.735253 1.9990194 11
-12.119316 -10.900447 2.5771666 12
-12.279369 -10.729555 2.5782084 12
-12.108052 -10.89016 3.1606524 13
-12.293643 -10.741895 3.1685522 13
-12.115919 -10.897088 3.7569687 14
-12.276611 -10.726854 3.7586904 14
-12.115823 -10.896845 4.3608384 15
-12.27932 -10.729075 4.3638325 15
-11.712748 -11.321579 0.2808314 8
-11.968411 -11.080248 0.28119293 8
-11.633159 -11.40714 0.85008383 9
-11.965725 -11.077604 0.85082197 9
-11.715086 -11.323523 1.4214622 10
-11.954254 -11.066819 1.4212221 10
-11.713111 -11.321403 1.9959295 11
-11.959496 -11.071524 1.9968003 11
-11.631435 -11.404938 2.5754743 12
-11.871684 -11.14934 2.5749965 12
-11.627971 -11.401363 3.1605828 13
-11.870784 -11.148335 3.1606965 13
-11.868703 -11.14617 3.7539165 14
-11.619163 -11.392365 4.3546462 15
-11.872813 -11.149918 4.358851 15
-11.357473 -9.9239922 -0.26622224 7
-11.310333 -11.746418 0.28107646 8
-11.312819 -11.748817 0.85095853 9
-11.469068 -11.573843 0.85013443 9
-11.307202 -11.742793 1.422143 10
-11.479193 -11.583893 1.4227225 10
-11.301591 -11.736772 1.9962435 11
-11.467713 -11.572122 1.9960467 11
-11.301517 -11.736506 2.5759656 12
-11.471045 -11.575306 2.5764761 12
-11.295474 -11.730038 3.160439 13
-11.466561 -11.570595 3.1615193 13
-11.303567 -11.738256 3.7569709 14
-11.46932 -11.573199 3.7564671 14
-11.298466 -11.732757 4.3589063 15
-11.467567 -11.571241 4.3596258 15
-10.892728 -12.157291 0.28136015 8
-11.137222 -11.90403 0.28098515 8
-10.899013 -12.16405 0.85214627 9
-11.15012 -11.917635 0.85149533 9
-10.898361 -12.163197 1.424764 10
-11.146004 -11.913035 1.4232261 10
-11.144532 -11.911266 1.9984946 11
-10.902984 -12.168035 2.0017583 11
-10.888713 -12.151968 2.5797257 12
-11.141717 -11.908056 2.5782361 12
-10.890094 -12.153318 3.16715 13
-11.131418 -11.89684 3.1619897 13
-10.887998 -12.150758 3.7615228 14
-11.142304 -11.908284 3.7597973 14
-10.893751 -12.156908 4.3684549 15
-11.139506 -11.905083 4.3630586 15
-10.552268 -10.648094 -0.26468784 7
-10.568207 -12.499357 0.28213617 8
-10.568749 -12.499659 0.85404313 9
-10.568253 -12.498842 1.4279462 10
-10.57187 -12.50303 2.0060856 11
-10.565878 -12.495575 2.5871964 12
-10.650869 -12.413979 3.1745009 13
-10.560773 -12.489158 3.7708442 14
-10.562017 -12.490339 4.3774762 15
-10.153489 -12.922075 0.28327715 8
-10.320713 -12.753672 0.28279534 8
-10.317251 -12.749143 0.85569656 9
-10.152901 -12.920811 1.4335705 10
-10.319317 -12.751452 1.4310586 10
-10.157705 -12.926673 2.0142291 11
-10.321383 -12.75376 2.0101552 11
-10.155203 -12.923221 2.5985386 12
-10.316722 -12.747746 2.5927546 12
-10.153176 -12.920377 3.189189 13
-10.309455 -12.738506 3.1804857 13
-10.149672 -12.915646 3.7871048 14
-10.317058 -12.747655 3.7808692 14
-10.146263 -12.91103 4.3943577 15
-10.309831 -12.738456 4.3855233 15
-9.6992483 -11.304803 -0.26301995 7
-9.7322865 -13.345606 0.28475842 8
-9.9831085 -13.087721 0.28374887 8
-9.7368956 -13.351613 0.86224568 9
-9.9940939 -13.101874 0.85977519 9
-9.6490793 -13.43218 1.4428865 10
-9.9836588 -13.087904 1.4360733 10
-9.7357178 -13.349475 2.0244222 11
-9.9845428 -13.088792 2.0169628 11
-9.7362795 -13.350047 2.6124818 12
-9.9794903 -13.081887 2.6013842 12
-9.8069897 -13.245558 3.1986604 13
-9.9795609 -13.081707 3.1933372 13
-9.6515436 -13.43471 3.2105744 13
-9.6396646 -13.417843 3.8091013 14
-9.976676 -13.077637 3.7922387 14
-9.7248545 -13.333378 4.4165726 15
-9.9733047 -13.072927 4.4002995 15
-9.3908863 -13.686232 0.28619483 8
-9.2712793 12.941536 0.28133109 8
-9.3933353 -13.689414 0.86632776 9
-9.2857695 12.96202 0.83937871 9
-9.3989038 -13.697332 1.4493551 10
-9.283082 12.958554 1.3986515 10
-9.280982 12.955914 1.9611781 11
-9.3947392 -13.690997 2.0345094 11
-9.3114653 -13.779972 2.6295295 12
-9.4759817 -13.59844 2.6205454 12
-9.2820635 12.957707 2.529187 12
-9.2895365 12.968418 3.1058054 13
-9.3983145 -13.695547 3.2238984 13
-9.3933039 -13.687762 3.8275471 14
-9.293108 12.973691 3.6896851 14
-9.2836447 12.960795 4.2775178 15
-9.3068523 -13.772119 4.4483681 15
-9.4704933 -13.589585 4.4328256 15
-8.8255472 -11.919775 -0.26185241 7
-8.9662352 -14.128507 0.28858793 8
-9.1432114 -13.960238 0.28777263 8
-9.0314503 12.997897 0.27968365 8
-8.9709044 -14.135518 0.87366754 9
-9.1400919 -13.955129 0.87050658 9
-9.0361433 13.004935 0.83363181 9
-8.974618 -14.141017 1.4613173 10
-9.1325216 -13.943208 1.4542402 10
-9.0319929 12.999264 1.3888534 10
-9.0342464 13.002799 1.9483738 11
-8.9665947 -14.127992 2.0503371 11
-9.1420708 -13.957463 2.0443876 11
-8.9625044 -14.121172 2.6445096 12
-9.1352673 -13.946715 2.6360865 12
-9.0291758 12.995807 2.5109816 12
-9.0430059 13.015991 3.0856905 13
-8.967844 -14.129231 3.2481453 13
-9.1358709 -13.947284 3.2360909 13
-8.9740248 -14.138608 3.8610618 14
-9.1298199 -13.937677 3.8415401 14
-9.0391369 13.010733 3.6628227 14
-9.0369854 13.007953 4.2496939 15
-8.9669685 -14.127093 4.4781013 15
-9.1353273 -13.945734 4.4616733 15
-8.443655 -14.665028 0.29195166 8
-8.7883654 -14.29793 0.28947425 8
-8.6596508 13.054871 0.27680084 8
-8.5272474 -14.567437 0.88098204 9
-8.7898998 -14.300053 0.87598252 9
-8.6601067 13.055857 0.82472044 9
-8.5289831 -14.569947 1.4731764 10
-8.7974758 -14.312018 1.4658239 10
-8.6648273 13.063213 1.3754046 10
-8.6637611 13.06192 1.9288044 11
-8.5304098 -14.571998 2.0691376 11
-8.7888041 -14.297509 2.0564563 11
-8.5290108 -14.569196 2.6695092 12
-8.7891226 -14.297644 2.6536994 12
-8.668314 13.069026 2.4884646 12
-8.6731415 13.07678 3.0550857 13
-8.529645 -14.569915 3.2771201 13
-8.7876863 -14.294912 3.2569439 13
-8.4407291 -14.657394 3.8999572 14
-8.7898369 -14.298029 3.8697908 14
-8.6704702 13.072972 3.6269174 14
-8.6658077 13.066324 4.2067976 15
-8.4353037 -14.647511 4.5238314 15
-8.7878962 -14.294463 4.4907584 15
-8.2977114 13.115665 -0.26790178 7
-8.1775608 -14.938555 0.29389265 8
-8.297821 13.11617 0.27418855 8
-8.1755104 -14.934249 0.88869131 9
-8.2986279 13.117769 0.81705034 9
-8.1735821 -14.930334 1.4853647 10
-8.300559 13.121147 1.36222 10
-8.3084946 13.134006 1.9123914 11
-8.1757383 -14.933693 2.0864038 11
-8.1759472 -14.933655 2.6922712 12
-8.3076878 13.133066 2.4657791 12
-8.3048553 13.128935 3.0245082 13
-8.2698193 -14.850079 3.2993469 13
-8.3038177 13.127644 3.5913076 14
-8.1722422 -14.926067 3.9238691 14
-8.3047152 13.12941 4.1681828 15
-8.1720638 -14.925245 4.554379 15
-7.9295583 -12.492759 -0.2611447 7
-7.8150973 -15.303974 0.29664257 8
-7.90377 -15.205975 0.89458561 9
-7.8156805 -15.304174 1.4997207 10
-7.8986373 -15.195099 2.0987227 11
-7.9028459 -15.202714 2.7095125 12
-7.8138309 -15.298922 3.3348224 13
-7.8129535 -15.296673 3.9608345 14
-7.8114657 -15.29332 4.5965066 15
-7.4513888 -15.688442 0.29993519 8
-7.359643 -15.785567 0.9093619 9
-7.5411305 -15.586396 0.90396857 9
-7.3520975 -15.768775 1.5185397 10
-7.5372653 -15.577847 1.5103505 10
-7.3558383 -15.776237 2.1334338 11
-7.5388737 -15.58063 2.1213269 11
-7.35642 -15.776903 2.7530148 12
-7.5446444 -15.592027 2.7392952 12
-7.3537254 -15.770523 3.3780301 13
-7.5339937 -15.569416 3.3576927 13
-7.5387449 -15.578688 3.9909441 14
-7.3505492 -15.763098 4.010828 14
-7.3490148 -15.759194 4.6543751 15
-7.5335259 -15.567309 4.6290736 15
-7.0034361 -13.010839 -0.26061729 7
-7.1720252 -15.978968 0.30255345 8
-6.9745331 -16.155436 0.91889012 9
-7.1701446 -15.974163 0.91426939 9
-7.1672673 -15.967134 1.527647 10
-6.9770741 -16.160046 2.1575089 11
-7.1630149 -15.957026 2.1438317 11
-6.9769688 -16.159147 2.7837729 12
-7.1641164 -15.958868 2.7666171 12
-7.1654801 -15.96129 3.3965955 13
-6.9717684 -16.145746 4.0557675 14
-7.1636662 -15.956609 4.0335751 14
-6.9706473 -16.142466 4.7067146 15
-6.5889549 -16.554003 0.30799127 8
-6.7826838 -16.353186 0.30596158 8
-6.5876422 -16.549974 0.93034047 9
-6.7839289 -16.355507 0.92470968 9
-6.5908318 -16.557283 1.5557332 10
-6.7813811 -16.348671 1.5450367 10
-6.5899825 -16.554413 2.1841681 11
-6.7834411 -16.352959 2.1701243 11
-6.7790117 -16.341566 2.7982354 12
-6.5872416 -16.54678 2.8169866 12
-6.5829034 -16.53511 3.455425 13
-6.7777319 -16.337776 3.4340649 13
-6.5876575 -16.546329 4.107389 14
-6.7880659 -16.362034 4.0853 14
-6.5847187 -16.538164 4.7652144 15
-6.7786884 -16.338659 4.7351656 15
-6.0459933 -13.465226 -0.26011813 7
-6.0011678 -0.86808383 -0.31800944 6
-6.078454 -0.43743268 -0.3195017 6
-6.1460385 1.5749712e-05 -0.32210788 6
-6.1409469 0.44206622 -0.32256055 6
-6.1551347 0.89091128 -0.32571822 6
-6.0980477 1.3358017 -0.32683188 6
-6.0259442 1.7822915 -0.32889107 6
-6.1918716 -16.958544 0.31224021 8
-6.3899856 -16.750368 0.30998355 8
-6.1943593 -16.96456 0.94342655 9
-6.390707 -16.751495 0.93649745 9
-6.1921673 -16.957716 1.5761805 10
-6.3904343 -16.75001 1.5651486 10
-6.1882782 -16.946215 2.2116942 11
-6.1905684 -16.951672 2.8546786 12
-6.3892312 -16.745295 2.8349745 12
-6.187171 -16.941504 3.5019929 13
-6.3884954 -16.742571 3.4793603 13
-6.1877761 -16.942316 4.16009 14
-6.3868856 -16.736727 4.7956343 15
-6.1892352 -16.945461 4.8296108 15
-5.7464924 -1.6974462 -0.31445295 6
-5.8833876 -1.287555 -0.31596363 6
-5.9248843 2.2268579 -0.33117548 6
-5.7939463 2.6675758 -0.33364731 6
-5.6355042 3.1039939 -0.33645529 6
-5.7850885 -17.378408 0.31695643 8
-5.990068 -17.167294 0.31455335 8
-5.7805433 -17.363787 0.95618826 9
-5.989151 -17.163786 0.94971752 9
-5.7846317 -17.37517 1.5990794 10
-5.9866405 -17.155699 1.5865273 10
-5.7801189 -17.360634 2.2434027 11
-5.9873233 -17.156782 2.2278311 11
-5.989325 -17.161652 2.8753724 12
-5.7834473 -17.368759 3.5547507 13
-5.9836774 -17.14452 3.5259557 13
-5.7791452 -17.354832 4.2191424 14
-5.9841108 -17.144859 4.1884217 14
-5.778945 -17.353243 4.8967814 15
-5.9830108 -17.140781 4.8604298 15
-5.3996859 -2.4809926 -0.3120248 6
-5.5883965 -2.0969257 -0.31333235 6
-5.4342399 3.5250618 -0.33866754 6
-5.3610468 -17.794806 0.32180175 8
-5.57514 -17.586752 0.31935695 8
-5.3624854 -17.798527 0.97145098 9
-5.3578639 -17.782072 1.6219137 10
-5.5750422 -17.584444 1.6109128 10
-5.3595862 -17.786728 2.2778637 11
-5.5719795 -17.57375 2.260484 11
-5.3580666 -17.780582 2.9380193 12
-5.5759349 -17.585251 2.9185457 12
-5.5717764 -17.571075 3.5795434 13
-5.3609157 -17.788969 3.6080141 13
-5.3597579 -17.784004 4.2845659 14
-5.5705104 -17.566023 4.2507405 14
-5.3583145 -17.77807 4.9714794 15
-5.5719199 -17.569435 4.9348488 15
-5.0743909 -13.890384 -0.26032427 7
-4.9567008 -3.2058852 -0.31009474 6
-5.1819949 -2.8471851 -0.31053546 6
-5.1987667 3.9312477 -0.34072384 6
-4.9266629 4.3163929 -0.34237045 6
-5.034328 -18.11681 0.32574922 8
-5.0368209 -18.124762 0.98328876 9
-4.9236555 -18.220324 1.6485447 10
-5.1423345 -17.998781 1.6348928 10
-4.928256 -18.236158 2.3165884 11
-5.0360618 -18.118147 2.9754329 12
-4.9279647 -18.232542 3.6680441 13
-5.0358973 -18.115164 4.3375082 14
-5.1443253 -17.999859 5.0124855 15
-4.4104528 -3.8483932 -0.30756462 6
-4.6943541 -3.5375416 -0.30882502 6
-4.6381092 4.6950159 -0.34493884 6
-4.7041278 -18.459538 0.33017111 8
-4.5922756 -18.57855 1.0005745 9
-4.4788032 -18.69079 1.6790351 10
-4.5896783 -18.565125 2.3455176 11
-4.7057085 -18.460373 3.0144453 12
-4.5922122 -18.572626 3.7159905 13
-4.7045341 -18.452976 4.3932705 14
-4.4788342 -18.684977 4.4329019 14
-4.588975 -18.556555 5.1188278 15
-4.0696554 -14.234181 -0.2602596 7
-4.1148744 -4.1454601 -0.30693209 6
-4.3161678 5.0494132 -0.34718701 6
-4.1303639 -19.044765 0.33807224 8
-4.1300478 -19.041399 1.0189478 9
-4.1281176 -19.030851 1.7014363 10
-4.2470984 -18.917673 2.3781185 11
-4.0164857 -19.175522 2.4031825 11
-4.1298833 -19.035675 3.0826161 12
-4.1313138 -19.040754 3.7846713 13
-4.2491698 -18.922062 4.4743824 14
-4.2460146 -18.906275 5.1890416 15
-4.0136962 -19.154966 5.2411265 15
-3.8045797 -4.4259148 -0.30669618 6
-3.6432693 -0.66094512 -0.32419413 5
-3.6950724 -0.26586571 -0.32413036 5
-3.7364664 0.13457283 -0.32731926 5
-3.7381887 0.5411396 -0.33043432 5
-3.6647015 0.94256186 -0.33122662 5
-3.9712656 5.3873143 -0.34982145 6
-3.7762151 -19.420244 0.34339887 8
-3.7717986 -19.395521 1.0334933 9
-3.7725937 -19.397728 1.7267536 10
-3.7726464 -19.396078 2.4239385 11
-3.775733 -19.410091 3.1295357 12
-3.7737126 -19.395723 4.5592337 14
-3.7733755 -19.391968 5.2907963 15
-3.4703615 -4.6765385 -0.3060075 6
-3.2007327 -1.7570646 -0.31953117 5
-3.3887753 -1.4109952 -0.32143098 5
-3.5241835 -1.0404848 -0.32153824 5
-3.5131204 1.4677818 -0.33325738 5
-3.3457921 1.8441585 -0.33416432 5
-3.2242551 2.0933089 -0.33624065 5
-3.5893934 5.6849203 -0.35144889 6
-3.4048176 -19.780365 0.34859934 8
-3.2772238 -19.886063 1.0544708 9
-3.4045839 -19.774731 1.7536396 10
-3.2778087 -19.884932 2.4725697 11
-3.405021 -19.772366 3.1757004 12
-3.4047775 -19.768606 3.8970878 13
-3.4040289 -19.762182 4.6274414 14
-3.2799194 -19.888119 5.3986392 15
-3.0450819 -14.52174 -0.26042458 7
-3.1272552 -4.9137564 -0.30603042 6
-2.9093113 -2.1897485 -0.31867027 5
-3.0699179 -1.9835227 -0.31986111 5
-3.0863616 2.3362784 -0.33857208 5
-2.9213109 2.5625844 -0.33989236 5
-3.0271511 -20.173952 0.35451061 8
-3.02493 -20.156435 1.0665462 9
-3.0253274 -20.156473 1.781505 10
-3.0241089 -20.145657 2.4995019 11
-3.0260873 -20.156252 3.2263422 12
-3.0277045 -20.164394 3.9615383 13
-3.0269933 -20.156897 4.7037129 14
-3.0257883 -20.146038 5.4565086 15
-2.7620366 -5.1147451 -0.30537319 6
-2.5636554 -2.5785208 -0.31822038 5
-2.7499144 -2.3961499 -0.31921035 5
-2.4397898 -1.0152014 -0.32443729 4
-2.5669408 -0.65805811 -0.32542196 4
-2.6476078 -0.28564829 -0.32711324 4
-2.6691909 0.24114674 -0.32971755 4
-2.6186614 0.67351013 -0.33238283 4
-2.4995472 1.0450232 -0.33312708 4
-2.7326264 2.7702191 -0.34035295 5
-2.5406642 2.9774547 -0.34236291 5
-2.5186715 4.2620802 -0.085628949 7
-2.6982167 4.418117 -0.089521118 7
-2.6335292 -20.569149 0.36060846 8
-2.5160973 4.2579179 0.17383973 8.5
-2.7124798 4.4415317 0.18297595 8.5
-2.497915 14.088732 0.25110495 8
-2.5172677 4.26018 0.60985899 11
-2.7171652 4.4493999 0.54998684 10.5
-2.5017724 14.111832 0.75261092 9
-2.6340837 -20.569727 1.0854218 9
-2.5161715 4.2586293 1.0541764 13.5
-2.7259138 4.4638934 0.92506683 12.5
-2.5194275 4.2642961 1.3302112 15
-2.7363737 4.481185 1.3127774 14.5
-2.5016658 14.112739 1.2556233 10
-2.6328726 -20.557156 1.8117746 10
-2.5017908 14.114948 1.7619463 11
-2.499419 14.103191 2.2705393 12
-2.6336102 -20.559456 2.5435326 11
-2.4997633 14.106665 2.7869589 13
-2.6321838 -20.54534 3.2791333 12
-2.5029531 14.126102 3.3144312 14
-2.763752 -20.398336 3.9994872 13
-2.4999743 14.111003 3.8424642 15
-2.5011063 -20.690636 4.049542 13
-2.7650175 -20.40465 4.7519803 14
-2.499855 -20.676659 4.8066874 14
-2.63326 -20.543526 5.5479603 15
-2.3908737 -5.3038092 -0.30556837 6
-2.160166 -2.904413 -0.31677952 5
-2.3575513 -2.7372773 -0.31616005 5
-2.2093618 -1.4255165 -0.32307944 4
-2.0297818 -0.44369426 -0.32879388 3
-2.0560141 -0.29715529 -0.32883257 3
-2.0557039 0.29765651 -0.32918793 3
-2.0369725 0.52422726 -0.33369514 3
-2.3330328 1.398896 -0.33456689 4
-2.1279726 1.7369794 -0.33789471 4
-2.3309207 3.168637 -0.34408125 5
-2.0940852 3.3250186 -0.3437387 5
-2.2311385 4.1223021 -0.1219021 6.75
-2.2271121 -20.966263 0.36687377 8
-2.2069871 4.1191497 0.19831561 8.7142859
-2.195153 14.151686 0.25117946 8
-2.2194021 4.1218781 0.577007 11
-2.195545 14.155885 0.75211382 9
-2.2282567 -20.973179 1.1041497 9
-2.1509399 4.0994163 0.98680669 13.5
-2.2168326 4.1255002 1.2581162 15
-2.1962016 14.161621 1.2553191 10
-2.2287982 -20.974348 1.8441107 10
-2.1945243 14.152669 1.7601887 11
-2.1946454 14.155277 2.2706249 12
-2.2277365 -20.960279 2.5868092 11
-2.1948979 14.158456 2.7870381 13
-2.2290428 -20.968651 3.3384836 12
-2.1941209 14.155061 3.3092 14
-2.1958904 14.168258 3.8441076 15
-2.2280419 -20.95508 4.0948238 13
-2.2278872 -20.949497 4.8623958 14
-2.2289078 -20.954988 5.6450329 15
-1.8023623 -5.512979 -0.30470398 6
-1.8391196 -3.1223822 -0.31733534 5
-1.8439711 -1.8512567 -0.32101515 4
-1.6481481 -1.2375094 -0.32575423 3
-1.8034338 -0.98810542 -0.32567236 3
-1.9759333 -0.58278936 -0.32591435 3
-1.6529279 -0.36117095 -0.32846364 2
-1.6722096 0.36663383 -0.33319452 2
-1.9546002 0.73563653 -0.33125964 3
-1.851369 1.0217421 -0.33613798 3
-1.6841372 1.2775302 -0.33556712 3
-1.942319 1.9719007 -0.34028181 4
-1.7132976 2.1658268 -0.33975524 4
-1.8664471 3.5003076 -0.34702051 5
-1.6139164 3.636601 -0.34807852 5
-1.78141 4.0875492 -0.1553077 6.5
-1.8895942 14.19608 -0.24906471 7
-1.9491324 -21.253353 0.37153417 8
-1.7878468 4.0890493 0.23533216 9
-1.7894553 14.227607 0.25129887 8
-1.7894619 4.0865002 0.62903911 11.5
-1.7882341 14.220279 0.75226241 9
-1.9499593 -21.257769 1.1177169 9
-1.7643846 4.0931621 0.99953365 13.8
-1.8847227 4.0834084 1.2078792 15
-1.7883103 14.223122 1.2554438 10
-1.9495056 -21.248068 1.8657069 10
-1.7884686 14.226213 1.7619419 11
-1.7888219 14.231992 2.2734478 12
-1.9503692 -21.252848 2.6193836 11
-1.788236 14.229329 2.7894003 13
-1.9484853 -21.227335 3.3750725 12
-1.7880632 14.230258 3.3130512 14
-1.7877845 14.229969 3.8449538 15
-1.9494814 -21.23348 4.1435452 13
-1.9506545 -21.241505 4.9233899 14
-1.950418 -21.23394 5.7122855 15
-1.2023287 -5.6808891 -0.30468783 6
-1.3704929 -3.3410296 -0.31621498 5
-1.4102927 -2.2039573 -0.32148018 4
-1.2334634 -1.6509871 -0.32569361 3
-1.4508754 -1.4542702 -0.32519138 3
-1.3785567 -0.95893359 -0.32650131 2
-1.3628563 -0.66106677 -0.32831913 1.3333334
-1.3134568 -0.28683379 -0.33300138 0.5
-1.3104587 0.28741774 -0.33331987 0.5
-1.4063077 0.70657927 -0.33368063 1.5
-1.4022722 0.98718542 -0.33549148 2
-1.4397187 1.3912278 -0.33917531 2.6666667
-1.3296652 1.6837136 -0.34089804 3
-1.4840169 2.3622055 -0.34299341 4
-1.3058535 2.456666 -0.34207246 4
-1.3511462 3.7538459 -0.34906772 5
-1.3812999 4.229959 -0.15507521 6.5
-1.3891026 4.2375855 0.23483486 9
-1.3805696 14.286989 0.25132099 8
-1.3883731 4.2354331 0.62826484 11.5
-1.3809128 14.292542 0.75343227 9
-1.4037974 4.2313881 1.0117502 13.875
-1.2791537 4.319139 1.2092816 15
-1.3809921 14.296272 1.2576146 10
-1.3796721 14.285965 1.7634169 11
-1.3797611 14.289746 2.2750926 12
-1.3795983 14.290525 2.7921412 13
-1.380133 14.299939 3.3183124 14
-1.3798472 14.298879 3.8508873 15
-1.002265 -3.4596608 -0.31517902 5
-0.90569633 -2.4421101 -0.3195481 4
-1.0856205 -2.3893442 -0.32194397 4
-0.98034739 -1.7966518 -0.32407054 3
-0.95646322 -1.3766053 -0.32584909 2
-1.0152047 -1.0144646 -0.32769769 1
-1.079795 -0.69412857 -0.32987663 0.25
-1.0388089 0.67785394 -0.33453214 0
-0.97755593 0.99749321 -0.33687615 0.75
-0.97223568 1.4379343 -0.33974427 2
-0.97064769 1.914834 -0.3414768 3
-1.0361686 2.5941787 -0.34366769 4
-0.94416839 3.905498 -0.35183424 5
-1.0707239 4.571383 -0.14791687 6.5999999
-0.93056625 4.9032111 -0.086798728 7
-0.90745389 6.8898978 -0.36398876 6
-0.86886281 14.368459 -0.2508626 7
-1.0705546 4.5692277 0.18021113 8.6000004
-0.93245846 4.9137115 0.17520989 8.5
-0.97111923 14.351171 0.25162339 8
-1.0628517 4.5790219 0.55587143 10.857142
-0.93264419 4.9158754 0.61564225 11
-0.97060508 14.348107 0.75432688 9
-1.0783105 4.5585041 0.99790001 13.5
-0.93286896 4.9182668 1.0658618 13.5
-1.0946003 4.5245771 1.2494528 15
-0.93036747 4.9060855 1.3396745 15
-0.97103083 14.359145 1.2598959 10
-0.97170168 14.372574 1.7696341 11
-0.97070605 14.361892 2.2808778 12
-1.0729668 14.344321 2.7971578 13
-0.86795074 14.382241 2.8016577 13
-0.97019172 14.364015 3.3249717 14
-0.86733264 14.382166 3.8618407 15
-0.75403708 -3.530153 -0.31585136 5
-0.64388227 -2.5422287 -0.32201391 4
-0.43685612 -2.0084386 -0.32520989 3
-0.58947033 -1.8326845 -0.32483932 2.6666667
-0.6340785 -1.4231262 -0.32842019 1.5
-0.67203325 -1.0793476 -0.32723096 0.25
-0.58101892 1.1075716 -0.3381404 0
-0.57402503 1.3722451 -0.34150627 1
-0.52812648 1.680759 -0.34369904 2
-0.53986311 2.0990429 -0.34458184 3
-0.65739846 2.7391343 -0.34650818 4
-0.51946878 4.0038905 -0.35337138 5
-0.41104218 6.9657512 -0.3656815 6
-0.55953914 14.416459 0.25213975 8
-0.55972385 14.428332 0.75712293 9
-0.55938369 14.425711 1.2635204 10
-0.55940092 14.436674 1.7745067 11
-0.55904877 14.432553 2.2882736 12
-0.55843627 14.4265 2.8070891 13
-0.55817372 14.427663 3.3342371 14
-0.55837965 14.43859 3.8726566 15
-0.36231509 -1.6508209 -0.32804716 2
-0.35757402 -1.380856 -0.32880726 1
-0.30975473 -1.1857257 -0.3277165 0
-0.18544267 1.389812 -0.34155223 0.66666669
-0.13116287 1.7541151 -0.3428686 2
-0.13472141 2.1686885 -0.34469783 3
-0.20652051 2.8165538 -0.34698564 4
-0.17768176 4.0351443 -0.35318771 5
-0.17383672 7.0230603 -0.36771184 6
-0.29325318 14.533341 -0.25341406 7
-0.16755621 14.528532 0.2538411 8
-0.16780815 14.528743 0.76168364 9
-0.12552281 14.528138 1.2713596 10
-0.21143588 14.549779 1.7868489 11
-0.1688575 14.534469 2.3023615 12
-0.21231879 14.54031 2.8267348 13
-0.16961141 14.543747 3.358063 14
-0.16997582 14.548593 3.8986833 15
0.37409356 -5.8468523 -0.3068088 6
0.24953949 -3.6209121 -0.31748763 5
0.27750421 -2.6098678 -0.32263234 4
0.21263373 -2.0433772 -0.32592949 3
0.19865482 -1.6597798 -0.32607454 2
0.14305396 -1.3397473 -0.32743672 0.66666669
0.29293588 -1.1820951 -0.32811117 0
0.23021048 1.3282981 -0.34255561 0.40000001
0.22837414 1.7481931 -0.34334806 2
0.29400834 2.1462221 -0.34342524 3
0.20042515 2.8338315 -0.34854534 4
0.16498803 4.0431571 -0.35328278 5
0.33232832 7.0284977 -0.36763033 6
0.2309113 14.64592 0.25686067 8
0.22998743 14.645154 0.76876658 9
0.22921777 14.655967 1.2835107 10
0.22826314 14.6534 1.8005247 11
0.22728394 14.653232 2.3221924 12
0.22642563 14.660072 2.8510146 13
0.22546367 14.656946 3.3852458 14
0.22434433 14.652236 3.9275169 15
0.55422854 -7.6910844 -0.1341617 7
0.45900923 -5.8539972 -0.30745882 6
0.66244203 -3.569912 -0.31774792 5
0.65836769 -2.5471787 -0.32352689 4
0.43674123 -2.0046103 -0.3255032 3
0.59067702 -1.8377662 -0.32697371 2.6666667
0.58714646 -1.4281178 -0.32831043 1.5
0.65783376 -1.0737615 -0.32896754 0.25
0.54121637 1.1284475 -0.34146091 0
0.5866062 1.3304842 -0.3407189 1
0.50576079 1.6736996 -0.34221202 2
0.60235161 2.0829113 -0.34452111 3
0.60383022 2.7641454 -0.34748259 4
0.74679828 3.9864256 -0.35385576 5
0.45589691 4.0198288 -0.35308254 5
0.76484764 14.749376 -0.25566792 7
0.66376072 -7.6793375 0.13517393 8
0.65676212 14.728661 0.25931591 8
0.66347539 -7.6765156 0.53976285 9.5
0.65572274 14.726218 0.77453667 9
0.66319162 -7.6761642 0.94708854 11
0.66278881 -7.6747265 1.360021 12.5
0.65507531 14.731066 1.292116 10
0.66183984 -7.6674237 1.7782619 14
0.65473247 14.742926 1.8140718 11
0.66163659 -7.6664801 2.0635357 15
0.65353537 14.738608 2.338789 12
0.65278548 14.74331 2.8707967 13
0.65171683 14.740952 3.4087753 14
0.65045273 14.735586 3.9545264 15
1.1535645 -7.5878406 -0.13314372 7
0.87870681 -5.8140802 -0.30768034 6
1.0501783 -3.5043128 -0.31988192 5
0.92580372 -2.456291 -0.32272619 4
1.1057847 -2.396292 -0.32455087 4
1.0184159 -1.778604 -0.32659021 3
0.95837259 -1.3779684 -0.3298046 2
0.96388823 -0.96291298 -0.3315753 0.75
1.0541155 -0.59430027 -0.3330805 0
1.1779836 -0.28434581 -0.33348814 0
1.1710799 0.32216933 -0.33531836 0
1.0688069 0.5987426 -0.33923635 0
0.94592738 1.0225316 -0.34075579 0.75
1.016052 1.3868184 -0.33967128 2
0.92823374 1.9442744 -0.34353128 3
0.99498564 2.6413922 -0.34698907 4
1.0297401 3.9111702 -0.35276338 5
0.83933175 7.0024886 -0.3678371 6
0.99069655 -7.6181889 0.13495837 8
1.1525019 -7.5821342 0.13485225 8
0.979653 14.788382 0.26125234 8
1.1958932 14.815021 0.26238447 8
1.0038977 -7.6147127 0.53840631 9.5
1.1517365 -7.5794997 0.67204732 10
0.97918135 14.794813 0.77968282 9
1.1962045 14.829586 0.782758 9
0.93501574 -7.6214128 0.94404602 11
1.0974486 -7.5898175 0.94305044 11
1.003004 -7.6121278 1.3558728 12.5
1.1526974 -7.5880375 1.2172722 12
0.97818822 14.793886 1.2998196 10
1.1966869 14.846224 1.3062456 10
0.93446869 -7.6213775 1.774395 14
1.0964622 -7.5863624 1.7716238 14
0.9767893 14.787271 1.8223792 11
1.1949979 14.837323 1.830961 11
0.98850793 -7.6108246 2.0584264 15
1.1486561 -7.5655489 2.0526118 15
0.97636795 14.794678 2.3512044 12
1.1940728 14.83753 2.3610198 12
1.0847383 14.822206 2.8921597 13
1.0836494 14.820705 3.4342039 14
1.0827998 14.822498 3.9858401 15
1.2992936 -5.7619653 -0.30884773 6
1.4252625 -3.3809924 -0.32096791 5
1.363095 -2.2718701 -0.32616019 4
1.2346292 -1.6380551 -0.32664883 3
1.4625864 -1.4479159 -0.32871214 3
1.3651426 -0.97159821 -0.33138269 2
1.3530153 -0.64104527 -0.33156008 1.3333334
1.3369637 -0.22301824 -0.33278781 0.75
1.3303419 0.21147396 -0.33494553 0.66666669
1.3719409 0.60596532 -0.33901766 1.25
1.3593516 1.0531975 -0.34043029 2
1.5270382 1.5033364 -0.342599 3
1.2947876 1.7154739 -0.34313241 3
1.3628049 2.4609623 -0.34613344 4
1.4472389 3.776773 -0.35285872 5
1.339358 6.9139681 -0.36669502 6
1.4156407 14.863923 0.26396695 8
1.4149624 14.86641 0.78610998 9
1.4151579 14.877733 1.3111221 10
1.4140952 14.87645 1.8385919 11
1.4114552 14.859331 2.3679919 12
1.4133816 14.888391 2.9111025 13
1.4131192 14.89551 3.4585974 14
1.4103879 14.877848 4.0088172 15
1.7157454 -5.6750274 -0.30976659 6
1.7854223 -3.2163851 -0.32152462 5
1.6737005 -2.0509827 -0.32607773 4
1.904766 -1.8768742 -0.32928687 4
1.6679006 -1.2297738 -0.33078936 3
1.8039887 -1.0054662 -0.33060557 3
1.7880365 -0.60897547 -0.33402789 2.5
1.681579 -0.18031052 -0.334905 2
1.6801505 0.23073348 -0.33613685 2
1.7839714 0.66803885 -0.33725238 2.5
1.8564479 1.02017 -0.33972046 3
1.6887538 1.3309349 -0.34381068 3
1.7029382 2.2337725 -0.3458803 4
1.8468995 3.5941927 -0.35218588 5
1.838661 6.816277 -0.36701426 6
1.8610182 14.952004 -0.25905064 7
1.6401095 14.936388 0.26602733 8
1.6391819 14.936394 0.79138941 9
1.6364889 14.920915 1.3173126 10
1.6350722 14.916694 1.8467622 11
1.6350015 14.924374 2.382375 12
1.6337152 14.921457 2.9224133 13
1.6337973 14.930704 3.4724576 14
1.6316075 14.920079 4.0267344 15
2.1299009 -5.566534 -0.31115597 6
2.1310287 -3.0188494 -0.3230941 5
2.0949874 -1.6579945 -0.32933483 4
2.3210912 -1.3434664 -0.33073676 4
2.0251396 -0.48412946 -0.33348241 3
2.0856025 -0.1849919 -0.33552435 3
2.0974894 0.24640062 -0.33853841 3
2.0353642 0.54967117 -0.33797032 3
2.297348 1.5416684 -0.340965 4
2.0981908 1.8361846 -0.34405082 4
2.2256365 3.3720474 -0.35225478 5
2.3285487 6.6753783 -0.36697596 6
2.52952 -5.410882 -0.31156629 6
2.560729 -2.6994221 -0.3252053 5
2.5076389 -1.0002171 -0.33305645 4
2.6362588 -0.62790567 -0.33441359 4
2.7155414 -0.23992869 -0.33645046 4
2.7235246 0.21713097 -0.3370057 4
2.7022562 0.51731443 -0.33955178 4
2.567652 1.0014477 -0.34043261 4
2.4205203 1.3790945 -0.34335923 4
2.6687863 2.990871 -0.34938657 5
2.928225 -5.2447243 -0.31305873 6
2.8590086 -2.425921 -0.32740313 5
3.020391 -2.2087877 -0.32667696 5
3.1890795 -1.9954706 -0.32835633 5
3.064631 2.5648711 -0.34826553 5
2.8019428 6.4856915 -0.36620912 6
3.4414825 -15.093532 -0.26781711 7
3.3193548 -5.0537491 -0.31483686 6
3.3446105 -1.7700897 -0.33021775 5
3.5259333 -1.4005128 -0.3311877 5
3.5202169 1.8277214 -0.34564617 5
3.3063462 2.2036726 -0.34603187 5
3.2539496 6.2503991 -0.36477941 6
3.4418745 7.937871 -0.14516048 7
3.6992762 -4.8347631 -0.31669497 6
3.677258 -1.0155371 -0.33270165 5
3.7888343 -0.61394405 -0.33485425 5
3.8655939 -0.2002596 -0.33736709 5
3.88257 0.307311 -0.3393532 5
3.854845 0.58915406 -0.33973888 5
3.7941737 1.012439 -0.34227628 5
3.6778569 1.4254639 -0.3435334 5
3.9230282 5.4469495 -0.34674984 6
3.6910803 5.9904456 -0.36380494 6
4.056952 -4.5780935 -0.31792572 6
4.3860292 -4.2842107 -0.3183679 6
4.2137237 5.040031 -0.3390573 6
4.5630655 -14.961414 -0.2697553 7
4.7354517 -4.0013604 -0.32161254 6
4.7363243 6.5608683 -0.1338622 7
5.0279145 -3.6619513 -0.32237792 6
4.8565316 5.0181928 -0.36002561 6
5.2962661 26.463017 -0.46102303 7
5.3134212 -3.311698 -0.32419789 6
5.5876818 -2.9459767 -0.32678896 6
5.5091825 4.2504044 -0.35824892 6
5.2027631 4.6508827 -0.35950819 6
5.241004 -28.518927 0.50989157 8
5.2386956 -28.510134 1.5231174 9
5.2396364 -28.518953 2.5410025 10
5.2384467 -28.516253 3.5643139 11
5.2329755 -28.490383 4.5925121 12
5.2323365 -28.49074 5.6354876 13
5.231545 -28.490322 6.6925607 14
5.2307372 -28.489878 7.7667813 15
5.6958652 -14.777608 -0.2722294 7
5.8226609 -2.5515518 -0.32859898 6
5.7792511 3.8261468 -0.35667956 6
5.600668 6.6779971 -0.14360289 7
5.7740469 -29.061481 0.5213387 8
5.7734766 -29.062162 1.5572102 9
5.7707205 -29.051893 2.5959496 10
5.7690849 -29.04726 3.6410301 11
5.7657423 -29.0341 4.6934004 12
5.7647228 -29.032631 5.7588525 13
5.7631307 -29.028334 6.8380961 14
5.7609453 -29.021126 7.9337783 15
6.0360789 -2.1405818 -0.3307662 6
6.2188358 -1.7114725 -0.33286512 6
6.35184 -1.263167 -0.33398128 6
6.3547249 2.4485989 -0.35022888 6
6.2083421 2.9237101 -0.35294408 6
6.0055265 3.3787315 -0.35448545 6
6.328764 -29.617863 0.53322428 8
6.3253956 -29.605549 1.5913727 9
6.3226271 -29.596041 2.6527717 10
6.3253193 -29.612019 3.7231989 11
6.3207717 -29.594261 4.798522 12
6.3187013 -29.588089 5.8868356 13
6.3174529 -29.585808 6.990499 14
6.3143325 -29.574848 8.1095572 15
6.4836292 -0.80829298 -0.33672807 6
6.5579767 -0.33956671 -0.33823311 6
6.6296697 0.52105051 -0.34223968 6
6.6290984 1.0070421 -0.34495333 6
6.5570741 1.4876603 -0.34583455 6
6.4635658 1.9672185 -0.34746903 6
6.5908909 6.7908492 -0.15535738 7
6.8358297 -14.528971 -0.27505413 7
6.9093847 -30.202291 0.54581636 8
6.9083667 -30.201124 1.6289065 9
6.9086471 -30.20562 2.7163944 10
6.9060025 -30.197401 3.8092659 11
6.8989239 -30.16988 4.9078183 12
6.8957057 -30.159214 6.0199714 13
6.8956575 -30.162413 7.1498432 14
6.8967371 -30.170578 8.2996798 15
7.2266221 26.16626 -0.4607358 7
7.5155687 -30.806557 0.55898166 8
7.5173159 -30.816856 1.6681346 9
7.5157294 -30.813543 2.7808683 10
7.5097089 -30.792133 3.897892 11
7.4797392 52.724319 4.6744752 10
7.5116515 -30.803295 5.0283065 12
7.5088778 -30.795214 6.1682477 13
7.4762707 52.723125 6.5541773 11
7.5052314 -30.783604 7.3223457 14
7.5064087 -30.791773 8.4998207 15
7.4763231 52.746777 8.453968 12
7.4725094 52.743641 10.371306 13
7.4720092 52.764023 12.320126 14
7.9663973 -14.18688 -0.27772558 7
7.7643151 6.9176688 -0.17016889 7
8.1577969 -31.465944 0.57337767 8
8.154417 -31.45602 1.7092762 9
8.1536188 -31.456026 2.8495221 10
8.1554537 -31.466196 3.9980478 11
8.2785797 52.875034 4.6992674 10
8.150527 -31.450373 5.1529446 12
8.1467133 -31.438866 6.320405 13
8.2777948 52.891006 6.5905657 11
8.1373577 -31.406073 7.4979072 14
8.1391258 -31.416132 8.7040339 15
8.275876 52.899998 8.4981661 12
8.2753334 52.917953 10.429397 13
8.2714949 52.915283 12.383479 14
9.1139212 25.650307 -0.45918697 7
9.100976 -13.783902 -0.28090805 7
8.828743 -32.143017 0.58834308 8
8.8226261 -32.123795 1.7526606 9
8.8188496 -32.113094 2.9206274 10
8.8198881 -32.119907 4.097208 11
9.0872374 53.036362 4.7260861 10
8.8188133 -32.119049 5.2831573 12
8.811759 -32.096519 6.4778595 13
9.0847645 53.041203 6.6262712 11
8.8143187 -32.10894 7.6956282 14
9.0836039 53.053864 8.544426 12
8.8082447 -32.09005 8.9253893 15
9.0808086 53.05724 10.482987 13
9.0785284 53.063885 12.449061 14
9.20222 7.0727253 -0.18939491 7
9.5352745 -32.856907 0.60424596 8
9.5320168 -32.84864 1.7998992 9
9.5253067 -32.828518 2.9982517 10
9.5275593 -32.839237 4.206429 11
9.5230122 -32.826588 5.4219384 12
9.5167751 -32.808167 6.6488709 13
9.5139208 -32.801418 7.8940334 14
9.5137672 -32.804001 9.1615505 15
9.901495 53.181293 4.7525496 10
9.8980513 53.180611 6.662169 11
9.8991804 53.204521 8.5921612 12
9.8988838 53.221031 10.543866 13
9.8941441 53.214035 12.517906 14
10.23722 -13.314642 -0.28456867 7
10.281919 -33.615047 0.62124628 8
10.275247 -33.596172 1.8491774 9
10.27112 -33.585606 3.0809917 10
10.26805 -33.578503 4.3200278 11
10.272995 -33.597572 5.5735545 12
10.26264 -33.566765 6.832273 13
10.256002 -33.548107 8.1088696 14
10.255476 -33.549454 9.4104509 15
11.011708 7.2593198 -0.21472153 7
11.065169 -34.398338 0.63901496 8
11.062425 -34.392658 1.9020042 9
11.057673 -34.380775 3.1686351 10
11.057506 -34.383125 4.443995 11
11.050032 -34.362835 5.726737 12
11.046688 -34.355389 7.0248775 13
11.042533 -34.345455 8.3396091 14
11.040267 -34.341442 9.6766396 15
11.350871 -12.750468 -0.28814781 7
11.899852 -35.245251 0.65829211 8
11.891165 -35.222385 1.9575878 9
11.88871 -35.217949 3.2616649 10
11.886004 -35.21278 4.5733113 11
11.884326 -35.21069 5.8963866 12
11.878413 -35.196087 7.2314558 13
11.871492 -35.178566 8.5829725 14
12.359896 25.173473 2.4768295 10
12.234511 25.849516 2.5251665 10
12.366174 25.189474 3.4697511 11
12.230687 25.844938 3.5348067 11
12.361011 25.182297 4.4683642 12
12.232776 25.852831 4.5549846 12
12.361268 25.186157 5.4799275 13
12.223173 25.83617 5.5818229 13
12.361989 25.190998 6.5058742 14
12.233624 25.86174 6.6322308 14
12.447153 -12.105158 -0.29196277 7
12.748847 -3.4995575 -0.21709017 7
12.779452 -3.7068553 0.24719639 8
12.752819 -3.5007873 0.24582081 8
12.781744 -36.133286 0.67869198 8
12.780162 -3.7072129 0.71365803 9
12.744777 -3.4987288 0.70895517 9
12.782301 -3.7079847 1.1820511 10
12.730816 -3.49505 1.1726981 10
12.778245 -3.7069647 1.6527101 11
12.742064 -3.4982758 1.6415447 11
12.772205 -36.10915 2.0173316 9
12.778629 -3.7072303 2.1279025 12
12.741452 -3.4982543 2.1133244 12
12.796231 -3.7124813 2.6119516 13
12.729759 -3.4952009 2.5881011 13
12.743639 24.173613 2.4146645 10
12.487638 24.536814 2.4321842 10
12.786567 -3.7098432 3.0973613 14
12.743476 -3.4991069 3.074666 14
12.768879 -36.102566 3.3607221 10
12.775325 -3.7067513 3.5895538 15
12.744654 -3.4995823 3.5666852 15
12.743147 24.175623 3.3804002 11
12.486309 24.537298 3.4049094 11
12.74429 24.180756 4.3551764 12
12.487666 24.543068 4.3869948 12
12.771378 -36.112427 4.714005 11
12.743464 24.182198 5.3403897 13
12.492058 24.554804 5.3817706 13
12.75504 -36.069157 6.0707321 12
12.735941 24.171032 6.3358812 14
12.490662 24.555269 6.3881383 14
12.763945 -36.097153 7.4540439 13
12.744618 24.190523 7.3559895 15
12.756738 -36.079712 8.8472099 14
12.928734 -4.5720425 -0.22583541 7
13.011953 -5.0276475 0.25820088 8
12.95965 -4.6887755 0.25534332 8
12.871775 -4.2419767 0.25140971 8
12.814448 -3.9179602 0.24879368 8
13.000754 -4.9166555 0.74446231 9
12.947494 -4.5790315 0.73582268 9
12.874887 -4.2431731 0.72660857 9
12.823357 -3.9208364 0.7189815 9
12.851033 -4.1327744 1.1985425 10
12.808088 -3.9163404 1.1893451 10
13.003435 -4.9179835 1.2336477 10
12.93348 -4.574276 1.2176161 10
12.907856 -4.3571196 1.2093669 10
13.004063 -4.9183073 1.7257931 11
12.94334 -4.5779419 1.7044946 11
12.881312 -4.2456894 1.6842475 11
12.828141 -3.9226193 1.6660849 11
13.001508 -4.9175568 2.2217262 12
12.946193 -4.5791392 2.1951556 12
12.879291 -4.2451944 2.1682022 12
12.81953 -3.920156 2.1436613 12
13.072257 -5.2695174 2.7610385 13
13.000074 -4.9173174 2.7232652 13
12.935532 -4.5755696 2.6887264 13
12.885649 -4.2474799 2.6591558 13
12.811991 -3.9180217 2.6261766 13
12.941431 -4.5778451 3.1923625 14
12.879889 -4.2457747 3.1543729 14
12.821123 -3.920974 3.1188164 14
13.074961 -5.2708282 3.2774918 14
13.00547 -4.9194703 3.233274 14
13.068263 -5.2683625 3.7998645 15
13.000533 -4.91786 3.7490621 15
12.941312 -4.5780025 3.7029531 15
12.87788 -4.2452536 3.6583138 15
12.802505 -3.9154656 3.6123724 15
13.541905 -11.395159 -0.29648092 7
13.369873 7.4864993 -0.24898952 7
13.418122 -3.2703917 0.25695357 8
13.432476 -3.2740171 0.74184054 9
13.430473 -3.2736661 1.2280875 10
13.420402 -3.2713537 1.7161808 11
13.405212 -3.2677975 2.2069511 12
13.405068 -3.2679014 2.7051508 13
13.24986 24.278963 2.444531 10
13.408543 -3.268888 3.2110553 14
13.244761 24.27253 3.4208274 11
13.384028 -3.2630692 3.7177274 15
13.2481 24.281519 4.4078178 12
13.2359 24.262178 5.4002032 13
13.245116 24.281965 6.4149418 14
13.243158 24.281406 7.4415288 15
13.933205 -3.183727 0.26601592 8
13.716512 -37.070381 0.70039421 8
13.903926 -3.1771832 0.76534384 9
13.915948 -3.1800568 1.2681946 10
13.895427 -3.1755104 1.7708966 11
13.717499 -37.075809 2.0826206 9
13.897888 -3.1762073 2.2802536 12
13.897532 -3.1762612 2.7949307 13
13.757175 24.366684 2.473587 10
13.711089 -37.061291 3.4684536 10
13.894442 -3.1756942 3.31601 14
13.749685 24.35627 3.4607334 11
13.893972 -3.1757271 3.8461044 15
13.754351 24.367319 4.4594703 12
