# .PCD v0.7 - Point Cloud Data file format
VERSION 0.7
FIELDS x y z intensity
SIZE 4 4 4 4
TYPE F F F F
COUNT 1 1 1 1
WIDTH 1350
HEIGHT 1
VIEWPOINT 0 0 0 1 0 0 0
POINTS 1350
DATA ascii
-1.1321089 -0.9151656 -0.30083227 0
-1.0478675 -0.94920462 -0.30149588 0
-0.94127953 -0.94465321 -0.30379745 0
-0.85501581 -0.95604908 -0.3059797 0
-0.7535634 -0.95305318 -0.30960089 0
-0.66122949 -0.95710129 -0.31187224 0
-0.59754586 -0.99619108 -0.31126583 0
0.8859272 -0.98296642 -0.35459748 0
0.95427066 -0.94818544 -0.35530806 0
1.0474966 -0.95490211 -0.35703188 0
1.1602167 -0.96561289 -0.35949498 0
1.2527864 -0.94151688 -0.36171415 0
1.3595228 -0.95154029 -0.36422983 0
1.4517748 -0.95033979 -0.36775419 0
1.5477164 -0.95103866 -0.36980277 0
1.6539209 -0.95215142 -0.37196365 0
1.7630869 -0.94889909 -0.37457901 0
1.8597734 -0.95008439 -0.37678534 0
1.965333 -0.95125628 -0.38011917 0
2.054332 -0.93708104 -0.38257053 0
2.1662905 -0.93615228 -0.38574967 0
2.2598491 -0.94962251 -0.38873601 0
2.3574231 -0.95907581 -0.39064214 0
2.4722643 -0.94454187 -0.39416316 0
2.5696342 -0.93985218 -0.39595938 0
2.6657333 -0.95353043 -0.39849561 0
2.7504845 -0.96164626 -0.39954263 0
-1.1526959 -0.84490365 -0.30140564 0
-1.0408179 -0.84139615 -0.30312249 0
-0.96355569 -0.86227745 -0.30445072 0
-0.85400122 -0.8425895 -0.30698586 0
-0.76693112 -0.86333799 -0.30955067 0
0.98733151 -0.8962726 -0.35730022 0
1.048844 -0.85057306 -0.35804754 0
1.149516 -0.85414708 -0.36061123 0
1.2462684 -0.84532815 -0.36309943 0
1.3340739 -0.84250683 -0.36553475 0
1.4420308 -0.85788178 -0.36821759 0
1.5479745 -0.85053957 -0.37107924 0
1.6420734 -0.85370183 -0.37291658 0
1.7297295 -0.84838104 -0.37546396 0
1.8405721 -0.84264338 -0.37869456 0
1.9329175 -0.85184264 -0.3811169 0
2.0288196 -0.84240037 -0.3835063 0
2.1241348 -0.84656399 -0.38657069 0
2.2505651 -0.85988331 -0.38913947 0
2.3253653 -0.83178306 -0.39168465 0
2.4415858 -0.85362649 -0.39416701 0
2.5368962 -0.82627153 -0.39791757 0
2.6131539 -0.87186527 -0.39934683 0
-1.2257667 -0.77753294 -0.30046555 0
-1.1481127 -0.7430585 -0.30282989 0
-1.059237 -0.75004596 -0.30351055 0
-0.93883729 -0.74555182 -0.30720928 0
-0.86862898 -0.75899905 -0.30622336 0
1.0947752 -0.77405882 -0.35927042 0
1.1514217 -0.75007075 -0.36239278 0
1.2501639 -0.75066048 -0.36527807 0
1.3671006 -0.76438832 -0.36849973 0
1.4328318 -0.7450633 -0.37064105 0
1.5513215 -0.75102764 -0.37302116 0
1.6641952 -0.74756593 -0.37520966 0
1.7767465 -0.76182145 -0.37774223 0
1.850176 -0.74524277 -0.38055402 0
1.9471003 -0.7442503 -0.38322583 0
2.0553749 -0.7351675 -0.38561752 0
2.1668029 -0.7575841 -0.38841775 0
2.259222 -0.75369734 -0.39078811 0
2.3674324 -0.75235647 -0.39429072 0
2.4722509 -0.7469191 -0.39677754 0
2.5708854 -0.7367239 -0.39903823 0
-1.3499544 -0.61810011 -0.30053213 0
-1.2266908 -0.64149058 -0.30150807 0
-1.1364472 -0.64176106 -0.30291376 0
-1.0564115 -0.65496922 -0.30593547 0
-0.95866203 -0.65962553 -0.30783725 0
1.1810226 -0.66885322 -0.36372516 0
1.2584465 -0.65108079 -0.36713243 0
1.3497831 -0.64962351 -0.36905774 0
1.4560918 -0.6540848 -0.37052789 0
1.561821 -0.64840251 -0.37412557 0
1.6465969 -0.65606964 -0.3764087 0
1.74071 -0.65080202 -0.37928361 0
1.8380207 -0.65742666 -0.38087264 0
1.9412161 -0.64760208 -0.38336751 0
2.036135 -0.64704716 -0.38647413 0
2.1495309 -0.65798974 -0.38975382 0
2.2425785 -0.65154499 -0.39194655 0
2.3690317 -0.66677886 -0.39457396 0
2.4331152 -0.64116144 -0.39696801 0
2.520539 -0.64485717 -0.39975512 0
-1.2489417 -0.58268464 -0.3010304 0
-1.1642652 -0.57383102 -0.30341145 0
-1.0541384 -0.54803646 -0.30721191 0
-0.99145144 -0.5803836 -0.30784994 0
1.2510606 -0.55127072 -0.36643115 0
1.3473303 -0.56270421 -0.36887112 0
1.4504846 -0.54752648 -0.37369531 0
1.526176 -0.55209118 -0.3757799 0
1.6388963 -0.55989414 -0.37776372 0
1.7547652 -0.54386783 -0.38079056 0
1.8738363 -0.5662201 -0.38360372 0
1.9431473 -0.54840726 -0.38621211 0
2.0597067 -0.55080885 -0.38892478 0
2.1541719 -0.54306644 -0.39172721 0
2.2671661 -0.54549736 -0.39454159 0
2.3485801 -0.56509185 -0.39613032 0
2.4445989 -0.5698083 -0.39800489 0
2.5377951 -0.57241464 -0.39990762 0
-1.0405442 -0.49456623 -0.30870304 0
1.2921419 -0.48318952 -0.36965281 0
1.3569971 -0.45268872 -0.37247214 0
1.4584354 -0.4369522 -0.37512264 0
1.5567256 -0.45816052 -0.37673083 0
1.6430365 -0.43837175 -0.38101009 0
1.7378188 -0.45771646 -0.38241589 0
1.8238684 -0.45270973 -0.38502187 0
1.9323248 -0.4503684 -0.3880147 0
2.0403814 -0.44482425 -0.39122924 0
2.1276872 -0.44797453 -0.39313248 0
2.2272048 -0.45574731 -0.39516836 0
2.3496742 -0.45290318 -0.39781615 0
2.4711411 -0.48350218 -0.39903474 0
-1.4164891 -0.34618771 -0.30059186 0
-1.3449321 -0.34406587 -0.30258912 0
-1.2792184 -0.32725117 -0.30488014 0
1.3471876 -0.35482252 -0.37339914 0
1.4459722 -0.35115382 -0.37647578 0
1.5544817 -0.34732872 -0.37902609 0
1.622617 -0.35377821 -0.38030729 0
1.7461559 -0.34615663 -0.38436353 0
1.8517946 -0.34849995 -0.38696593 0
1.9629824 -0.35500917 -0.39016113 0
2.0583422 -0.34192443 -0.39128411 0
2.141506 -0.35573569 -0.39334509 0
2.2287447 -0.3375257 -0.39557442 0
2.331682 -0.35310045 -0.39816099 0
-1.5273252 -0.25929505 -0.30209374 0
-1.4356799 -0.27016881 -0.30237865 0
-1.3457953 -0.25363657 -0.30433956 0
-1.2667018 -0.24435525 -0.30591673 0
-1.1582645 -0.22955151 -0.31019065 0
1.3859394 -0.25059888 -0.3774597 0
1.4594328 -0.25316483 -0.37920883 0
1.5393013 -0.24797 -0.38038179 0
1.630391 -0.25225908 -0.38250071 0
1.7507831 -0.25789815 -0.38501796 0
1.8633287 -0.23870227 -0.38757768 0
1.9716651 -0.26398858 -0.38905954 0
2.0494576 -0.23887089 -0.39257604 0
2.1648238 -0.24886596 -0.39519596 0
2.2543387 -0.24290246 -0.39798594 0
2.3306856 -0.2849493 -0.39972949 0
-1.1480345 -0.19913973 -0.31220803 0
1.3851597 -0.16928232 -0.37395158 0
1.4439794 -0.15047783 -0.37838614 0
1.5455873 -0.14418823 -0.38148847 0
1.6446795 -0.14606193 -0.38450766 0
1.7393728 -0.14972943 -0.38680217 0
1.8509532 -0.15348062 -0.3892532 0
1.9739265 -0.15570197 -0.39196339 0
2.0241735 -0.15007369 -0.39300907 0
2.1465211 -0.13843739 -0.3970305 0
1.4563262 -0.052078106 -0.38172239 0
1.5666559 -0.044879891 -0.38454586 0
1.6621475 -0.047560286 -0.38646838 0
1.7522782 -0.05011791 -0.38855365 0
1.8437246 -0.06090622 -0.39033309 0
1.9546701 -0.050077498 -0.39355096 0
2.0353653 -0.043729234 -0.39575267 0
2.1200819 -0.045548707 -0.3980144 0
2.2007954 -0.015749693 -0.39936087 0
1.4463089 0.054468278 -0.38152635 0
1.5461679 0.044293527 -0.38554111 0
1.6695286 0.047866847 -0.38863155 0
1.7626249 0.050539665 -0.39092398 0
1.8408129 0.052774373 -0.39275602 0
1.9436811 0.046175912 -0.39530385 0
2.036577 0.047745321 -0.39667138 0
2.1555181 0.077159971 -0.39840457 0
1.4472318 0.15119207 -0.38239929 0
1.5601143 0.14558126 -0.38579711 0
1.6644223 0.14786157 -0.3895323 0
1.7627113 0.15181293 -0.39247552 0
1.8410391 0.15855744 -0.3945916 0
1.9575893 0.14489895 -0.39696515 0
2.0452344 0.11717594 -0.39821485 0
2.1236703 0.13696693 -0.39977971 0
-1.8717868 0.29025188 -0.30120718 0
-1.7371888 0.28830326 -0.30214477 0
-1.6479253 0.26959574 -0.30338129 0
-1.5458543 0.27467486 -0.30624011 0
-1.4417863 0.27140838 -0.30999869 0
-1.3362697 0.26029819 -0.31240153 0
-1.2476833 0.25332752 -0.3139759 0
-1.1552747 0.24330278 -0.31643978 0
1.4546059 0.25214356 -0.3868039 0
1.5621748 0.24810731 -0.38865706 0
1.6603936 0.24737521 -0.39045051 0
1.7520268 0.25262153 -0.39282343 0
1.8274974 0.25007626 -0.39413026 0
1.9429724 0.24547431 -0.39761001 0
2.0355384 0.24886464 -0.39861414 0
-1.7584851 0.35174996 -0.30187568 0
-1.6550838 0.34681568 -0.30489707 0
-1.5405116 0.35197133 -0.30912921 0
-1.4546614 0.35008311 -0.31107131 0
-1.3443853 0.3295204 -0.31271511 0
-1.2482011 0.31932253 -0.3164891 0
-1.1541728 0.30410442 -0.31981394 0
1.3829799 0.37499404 -0.38397482 0
1.4551065 0.34706423 -0.38849288 0
1.5491403 0.34940559 -0.39027759 0
1.6519663 0.35138887 -0.39233258 0
1.7427107 0.35403031 -0.39465508 0
1.8487591 0.3574146 -0.39750537 0
1.9388376 0.35061857 -0.39875776 0
-1.9337368 0.48001719 -0.30066535 0
-1.8502704 0.44537795 -0.30206198 0
-1.7664351 0.45197657 -0.3045131 0
-1.6545944 0.4359796 -0.30772147 0
-1.5424241 0.41430172 -0.31045076 0
1.3644559 0.45536476 -0.38550606 0
1.4506059 0.45672241 -0.38705319 0
1.5459336 0.44974956 -0.39027047 0
1.6376415 0.45255816 -0.39342761 0
1.7224877 0.45381057 -0.39529526 0
1.8328177 0.45498767 -0.39847028 0
-1.9204761 0.55040866 -0.30164561 0
-1.8341531 0.53999043 -0.30300343 0
-1.2244694 0.58185273 -0.31691208 0
-1.1306612 0.56155217 -0.32316092 0
-1.0674539 0.56475228 -0.32365304 0
1.3377312 0.5594334 -0.38565794 0
1.4387208 0.5496881 -0.38887846 0
1.5541897 0.54337341 -0.39265859 0
1.6256361 0.55388194 -0.39475131 0
1.746261 0.55091435 -0.39752457 0
1.859323 0.54731625 -0.39937979 0
-1.9534333 0.64230615 -0.30165493 0
-1.8364704 0.65686297 -0.30525437 0
-1.5509875 0.68346733 -0.31338611 0
-1.4605654 0.67586714 -0.31484109 0
-1.34929 0.64937383 -0.31720749 0
-1.2445402 0.65349287 -0.31961796 0
-1.1450359 0.6409871 -0.32313418 0
-1.040661 0.66019452 -0.32577485 0
-0.98899812 0.69926751 -0.32454917 0
1.2742155 0.67407805 -0.38630539 0
1.3513603 0.64231002 -0.38929233 0
1.4499117 0.65143442 -0.3912085 0
1.5591308 0.64293867 -0.39257029 0
1.6608329 0.64827144 -0.39600879 0
1.7373843 0.66379845 -0.39807713 0
1.8391995 0.61363941 -0.39934608 0
-2.1239746 0.7768656 -0.30005997 0
-2.0458553 0.7650333 -0.30183986 0
-1.9649923 0.75090933 -0.30372047 0
-1.8556062 0.73967403 -0.30656758 0
-1.7828245 0.77803326 -0.30936152 0
-1.6585325 0.75377721 -0.31203943 0
-1.5447156 0.75747949 -0.31378388 0
-1.4378957 0.74411565 -0.31625631 0
-1.3588939 0.75675279 -0.31825599 0
-1.2349687 0.74161255 -0.32293278 0
-1.1546023 0.75515378 -0.32412264 0
-1.0512058 0.75630105 -0.32670647 0
-0.96144152 0.75484115 -0.32762668 0
1.2445704 0.76121491 -0.38618118 0
1.3525536 0.74610025 -0.38921052 0
1.4490774 0.74829638 -0.39092273 0
1.5361354 0.74368864 -0.39428061 0
1.6388527 0.75339633 -0.39749059 0
1.7391719 0.75157201 -0.39846176 0
-2.1156802 0.84326482 -0.30089957 0
-2.0404208 0.86452913 -0.3028852 0
-1.9374906 0.85385513 -0.30575487 0
-1.8541123 0.84894466 -0.30826157 0
-1.7544045 0.84932619 -0.31034157 0
-1.6483452 0.8570596 -0.31280974 0
-1.568642 0.84437943 -0.3143189 0
-1.4356204 0.84481102 -0.3184548 0
-1.3592466 0.85201675 -0.3202621 0
-1.247402 0.85137266 -0.32337397 0
-1.1391979 0.85141754 -0.32725602 0
-1.0473645 0.84505063 -0.32732505 0
-0.94955063 0.84129214 -0.33010992 0
-0.87674886 0.87980217 -0.33283409 0
1.1640573 0.84829521 -0.3860577 0
1.2544167 0.84711266 -0.38857895 0
1.3382659 0.84908408 -0.39071912 0
1.4617767 0.85081404 -0.394245 0
1.5659103 0.85740817 -0.39636716 0
1.6480579 0.85689753 -0.39747345 0
1.7273163 0.86691672 -0.39984703 0
-2.2390318 0.98666501 -0.30042735 0
-2.162508 0.97147983 -0.3014577 0
-2.0616314 0.9439615 -0.30376732 0
-1.9506059 0.94430214 -0.3065547 0
-1.8406776 0.95711786 -0.30951872 0
-1.7244166 0.94030851 -0.31253254 0
-1.6570057 0.96533614 -0.31306338 0
-1.5459635 0.95323479 -0.31692654 0
-1.4474512 0.96251965 -0.31924412 0
-1.3409241 0.95227826 -0.32136014 0
-1.2455875 0.95137501 -0.32447809 0
-1.1496228 0.94320631 -0.32625237 0
-1.0622309 0.94204843 -0.32984912 0
-0.948434 0.94560504 -0.33293903 0
-0.84903508 0.95574611 -0.33577248 0
-0.78394103 0.97705448 -0.33566177 0
1.0687917 0.97015458 -0.38684681 0
1.1595871 0.94125688 -0.38786548 0
1.259877 0.94327897 -0.39061666 0
1.3611028 0.95526838 -0.39316508 0
1.4346135 0.95222688 -0.39584935 0
1.5329534 0.9269985 -0.39762107 0
1.6115603 0.94330758 -0.39927176 0
1.7039125 0.91713816 -0.39984483 0
-2.2091274 1.0694306 -0.30136585 0
-2.1317375 1.0509042 -0.30402055 0
-2.0429857 1.043717 -0.30592117 0
-1.9553552 1.0526444 -0.30839208 0
-1.8646761 1.0558287 -0.3103976 0
-1.7712512 1.0539266 -0.31214607 0
-1.6713394 1.0502751 -0.31492177 0
-1.558641 1.0526792 -0.31782669 0
-1.4703181 1.0555052 -0.32024813 0
-1.3458029 1.0407091 -0.32281467 0
-1.2666923 1.0698438 -0.32603547 0
-1.15503 1.0378063 -0.32887787 0
-1.0380455 1.0389286 -0.33300304 0
-0.9580062 1.0630091 -0.33478284 0
-0.8479951 1.0500162 -0.33592921 0
-0.7514782 1.0494568 -0.34005806 0
-0.6707086 1.0829439 -0.34134173 0
0.962865 1.0682436 -0.3854273 0
1.0466671 1.0504075 -0.38591781 0
1.1490752 1.0518233 -0.38999683 0
1.2481349 1.0476948 -0.39166442 0
1.3384882 1.0482112 -0.39422247 0
1.4471292 1.0466138 -0.3966167 0
1.5385318 1.0497658 -0.39883697 0
-2.2483852 1.1589669 -0.30432585 0
-2.1622684 1.1538731 -0.30467731 0
-2.0435104 1.144493 -0.30722967 0
-1.9476209 1.1588581 -0.30920863 0
-1.8358682 1.1610081 -0.31253514 0
-1.7333511 1.1526592 -0.31528175 0
-1.6380249 1.1407741 -0.31753999 0
-1.5416195 1.1505895 -0.32066423 0
-1.433354 1.1553519 -0.32245678 0
-1.3279188 1.154609 -0.32601306 0
-1.2314708 1.1486713 -0.32818168 0
-1.1534549 1.1481321 -0.33126339 0
-1.0505241 1.149007 -0.3335261 0
-0.93442661 1.1371529 -0.33483124 0
-0.86333221 1.1636569 -0.33978701 0
-0.74694306 1.142014 -0.33959323 0
-0.65321821 1.1437716 -0.3440375 0
-0.55695224 1.1613315 -0.34521568 0
-0.49927521 1.1902769 -0.34585479 0
0.78627646 1.1917 -0.38256517 0
0.85243386 1.1436419 -0.38231087 0
0.94341344 1.1561201 -0.38507208 0
1.0536898 1.1523553 -0.38913465 0
1.1494714 1.1535782 -0.39068282 0
1.2489198 1.1501789 -0.39343661 0
1.3625205 1.1505871 -0.39590958 0
1.4438617 1.1504399 -0.39838481 0
1.5038884 1.1124938 -0.39929366 0
-2.4397769 1.2684931 -0.30005556 0
-2.3504534 1.2434889 -0.30161819 0
-2.2452517 1.2503176 -0.30323994 0
-2.1470709 1.2568107 -0.30617189 0
-2.0506446 1.2401596 -0.30842134 0
-1.955732 1.2605237 -0.3111423 0
-1.8730621 1.2455572 -0.31298476 0
-1.7584927 1.243385 -0.31611124 0
-1.6418009 1.2431713 -0.32000852 0
-1.5566595 1.258516 -0.32058415 0
-1.4529866 1.2451278 -0.32367879 0
-1.3545623 1.2475547 -0.32626453 0
-1.2407258 1.2453862 -0.33043569 0
-1.146713 1.2542183 -0.33244637 0
-1.048287 1.2502795 -0.33437932 0
-0.9516446 1.2499228 -0.3378773 0
-0.84134692 1.23957 -0.34055141 0
-0.7527948 1.2577338 -0.34157789 0
-0.64560479 1.2453997 -0.34562322 0
-0.5571394 1.2489623 -0.34658009 0
-0.45640808 1.2523026 -0.35107979 0
-0.34824032 1.266584 -0.35204583 0
-0.29516253 1.2871336 -0.35383788 0
0.56333411 1.2907326 -0.3774032 0
0.64877349 1.2586857 -0.37950665 0
0.74191326 1.2457445 -0.38122106 0
0.84978473 1.2458555 -0.38449851 0
0.94915831 1.2547338 -0.38704181 0
1.05585 1.2546163 -0.38921773 0
1.150244 1.2429594 -0.3923603 0
1.2573867 1.2618517 -0.39541218 0
1.3527092 1.2457216 -0.39818013 0
1.4516261 1.2255504 -0.39884424 0
-2.4087729 1.3188589 -0.30031016 0
-2.3519676 1.3542355 -0.30222356 0
-2.236124 1.3522701 -0.30532628 0
-2.1187918 1.3442527 -0.30914119 0
-2.0598531 1.3614035 -0.30914295 0
-1.9442621 1.3662262 -0.31335658 0
-1.824172 1.3495922 -0.31640309 0
-1.7315849 1.3393306 -0.31804243 0
-1.6380341 1.3594601 -0.32014698 0
-1.5261188 1.3440677 -0.32303068 0
-1.4570367 1.3417721 -0.32519305 0
-1.3525754 1.3508757 -0.32906249 0
-1.2450346 1.348549 -0.33076969 0
-1.147074 1.3441274 -0.33408827 0
-1.0526906 1.3563874 -0.33634362 0
-0.95332474 1.3585938 -0.33935928 0
-0.84291768 1.3532033 -0.340168 0
-0.74164516 1.3504872 -0.34445259 0
-0.64557725 1.3535724 -0.3470875 0
-0.55521554 1.3595725 -0.34931856 0
-0.43595108 1.3550339 -0.35239547 0
-0.35377356 1.3489246 -0.35294199 0
-0.24840419 1.3461305 -0.3578375 0
-0.1533659 1.3464924 -0.3600893 0
-0.060020555 1.358357 -0.36146927 0
0.043869376 1.3577279 -0.36406597 0
0.14279978 1.3707845 -0.36936325 0
0.25090656 1.3599572 -0.3706595 0
0.36081955 1.350194 -0.37455481 0
0.45388454 1.3531214 -0.37604198 0
0.5386461 1.365602 -0.37871173 0
0.65068275 1.3478051 -0.38062438 0
0.74254555 1.3509465 -0.3833639 0
0.85705715 1.3495144 -0.38586026 0
0.96239811 1.3601137 -0.39015892 0
1.0413247 1.3362437 -0.39047527 0
1.1488091 1.3504367 -0.3935326 0
1.2496885 1.3472579 -0.39632121 0
1.329291 1.3406111 -0.39859048 0
-2.4541063 1.4601517 -0.30073851 0
-2.3629835 1.452175 -0.30336875 0
-2.2645233 1.4594922 -0.30619109 0
-2.1721871 1.4444059 -0.30799398 0
-2.0671182 1.4489413 -0.31148073 0
-1.9528775 1.4664291 -0.31473884 0
-1.864796 1.4423776 -0.31601733 0
-1.7608452 1.4445444 -0.31835482 0
-1.6644025 1.4470429 -0.32101616 0
-1.5695513 1.4455122 -0.32388982 0
-1.4566704 1.44683 -0.32753772 0
-1.3376076 1.4544687 -0.33088294 0
-1.2375172 1.4338255 -0.33313835 0
-1.1526842 1.4492477 -0.334456 0
-1.0407379 1.4385769 -0.3373214 0
-0.94798136 1.4594078 -0.34074417 0
-0.84724051 1.4511832 -0.34281746 0
-0.74405783 1.4485695 -0.34607247 0
-0.65271652 1.4394703 -0.34813213 0
-0.54353064 1.4351188 -0.35073218 0
-0.44677225 1.4599186 -0.35349953 0
-0.35480356 1.4652085 -0.35412633 0
-0.24686603 1.4543364 -0.35907811 0
-0.14668319 1.4433162 -0.36083609 0
-0.053551059 1.4441274 -0.36303186 0
0.042308554 1.4582896 -0.36579168 0
0.15001999 1.4401731 -0.37002563 0
0.25924361 1.4427274 -0.37218583 0
0.35372853 1.4527297 -0.37499958 0
0.45341331 1.4594295 -0.37826139 0
0.54766524 1.4487207 -0.37960616 0
0.6495055 1.4440159 -0.38141468 0
0.75257593 1.4694518 -0.38492239 0
0.84809691 1.4409066 -0.3875387 0
0.94142908 1.4364763 -0.38961443 0
1.0493429 1.4463285 -0.39309469 0
1.1561396 1.4405723 -0.39466855 0
1.2598727 1.4387401 -0.39769095 0
1.3331872 1.4378175 -0.39958265 0
-2.5103815 1.5675579 -0.30177066 0
-2.4280834 1.5404766 -0.30364865 0
-2.3385859 1.555052 -0.30490145 0
-2.2261443 1.5502968 -0.30848294 0
-2.1307223 1.5527549 -0.31158283 0
-2.0268879 1.5448256 -0.31358284 0
-1.9381428 1.5440038 -0.3149235 0
-1.8523393 1.5418074 -0.31804866 0
-1.7514997 1.5448635 -0.32018471 0
-1.6547403 1.5459356 -0.3234427 0
-1.5477417 1.5442994 -0.32644281 0
-1.4301887 1.5373845 -0.32973552 0
-1.3603113 1.5629627 -0.3326858 0
-1.2540729 1.5492432 -0.33285099 0
-1.1554275 1.5593965 -0.33616951 0
-1.0521672 1.555474 -0.34003168 0
-0.95606315 1.568483 -0.34173971 0
-0.86100328 1.5380383 -0.34381437 0
-0.74791574 1.5403452 -0.34727156 0
-0.6545071 1.5513239 -0.3502067 0
-0.54296088 1.5492605 -0.3520968 0
-0.44806653 1.5427308 -0.35440859 0
-0.3281329 1.5411112 -0.3576465 0
-0.24884327 1.53254 -0.35957614 0
-0.15040264 1.5524229 -0.3613354 0
-0.047107141 1.5613784 -0.36436036 0
0.050764594 1.5788344 -0.36821643 0
0.15893042 1.5607295 -0.37056682 0
0.24323082 1.5531309 -0.37343752 0
0.3403143 1.5704616 -0.37550673 0
0.45478296 1.5656052 -0.37878177 0
0.55090618 1.5444921 -0.38118729 0
0.64916539 1.5224755 -0.38298473 0
0.75083494 1.5492238 -0.38609591 0
0.86077487 1.5328007 -0.38979888 0
0.94881266 1.5564901 -0.39121699 0
1.0625937 1.5375831 -0.39481828 0
1.1514747 1.5451562 -0.39621943 0
1.2380546 1.5518757 -0.39801377 0
-2.5660436 1.6538258 -0.30098918 0
-2.4709203 1.6430503 -0.30276117 0
-2.3734782 1.6528968 -0.30591619 0
-2.2588403 1.646116 -0.30973238 0
-2.173166 1.6562904 -0.31122512 0
-2.0752335 1.6533037 -0.31376728 0
-1.9593179 1.6547517 -0.31662169 0
-1.8377929 1.6445732 -0.32003483 0
-1.7385677 1.647769 -0.32280108 0
-1.6403204 1.6463118 -0.32553121 0
-1.5339758 1.6539817 -0.32896268 0
-1.4370111 1.6411722 -0.33148605 0
-1.3441584 1.6316042 -0.33205786 0
-1.2637707 1.6525842 -0.33413666 0
-1.1472131 1.6514612 -0.33903751 0
-1.0523295 1.6558644 -0.34102792 0
-0.95112777 1.6517106 -0.34356621 0
-0.84002012 1.6393641 -0.34772405 0
-0.75961483 1.6313378 -0.34841406 0
-0.65125751 1.6684452 -0.35138527 0
-0.54157501 1.6505778 -0.35406047 0
-0.45547923 1.6428449 -0.35582429 0
-0.34390619 1.6633632 -0.35971648 0
-0.24999779 1.6474361 -0.36123505 0
-0.14706659 1.6392424 -0.36384457 0
-0.053103853 1.6531836 -0.3657175 0
0.052817762 1.6484118 -0.36980525 0
0.14246039 1.6458147 -0.3723118 0
0.25094825 1.6326187 -0.37484282 0
0.36455235 1.644586 -0.37823069 0
0.43849978 1.6392368 -0.38090572 0
0.55289423 1.637768 -0.38299507 0
0.65068698 1.6500816 -0.38537386 0
0.74983811 1.6532795 -0.38710982 0
0.853459 1.6329823 -0.39012781 0
0.94948471 1.6627598 -0.39335692 0
1.055145 1.6347129 -0.394586 0
1.1569722 1.6573133 -0.39821255 0
1.2479117 1.6253123 -0.39831963 0
-2.64784 1.7065437 -0.30005285 0
-2.5468976 1.7644717 -0.30240187 0
-2.434001 1.7472472 -0.30667651 0
-2.345479 1.7612073 -0.30867162 0
-2.225307 1.746897 -0.31107724 0
-2.1279497 1.7457275 -0.31411979 0
-2.0202305 1.7564058 -0.31680575 0
-1.9251779 1.7427715 -0.32012218 0
-1.8740628 1.7761421 -0.32088292 0
-1.7698914 1.7511928 -0.32337335 0
-1.6689912 1.748664 -0.32616791 0
-1.5710474 1.7433778 -0.32931152 0
-1.4448102 1.7484496 -0.33155471 0
-1.3364853 1.7408834 -0.33379605 0
-1.2409674 1.7391391 -0.33692521 0
-1.1576411 1.7545617 -0.34009442 0
-1.0482197 1.7470772 -0.34292346 0
-0.95244402 1.7544017 -0.34562165 0
-0.85493004 1.7504685 -0.34775147 0
-0.74986249 1.7453384 -0.35067603 0
-0.63439143 1.7452145 -0.35187632 0
-0.54337424 1.7489583 -0.35613427 0
-0.45224443 1.7675186 -0.35759941 0
-0.35932297 1.7379135 -0.36105785 0
-0.26099768 1.7661865 -0.36332673 0
-0.15732127 1.7537087 -0.36612186 0
-0.064958699 1.7526871 -0.36737335 0
0.043852977 1.7480024 -0.37071395 0
0.14475761 1.7546405 -0.37342602 0
0.24601191 1.7508479 -0.37568069 0
0.34763822 1.743902 -0.37847435 0
0.45140511 1.7387731 -0.38199419 0
0.55412185 1.7532288 -0.3849481 0
0.65343475 1.7666728 -0.38708544 0
0.7655617 1.747364 -0.38908273 0
0.84789485 1.754832 -0.39174515 0
0.95914167 1.7666922 -0.39486292 0
1.0510644 1.7426991 -0.39577845 0
1.1310565 1.7196505 -0.39734653 0
-2.6632652 1.8830519 -0.30239818 0
-2.5800619 1.8520956 -0.30426544 0
-2.4722729 1.8564249 -0.30662587 0
-2.3670745 1.8581898 -0.30900943 0
-2.2763219 1.8402528 -0.31176841 0
-2.1764023 1.8380836 -0.31408402 0
-2.0705597 1.8530148 -0.31740507 0
-1.962862 1.8602456 -0.32018554 0
-1.8439324 1.8572346 -0.32311305 0
-1.7452611 1.854794 -0.32523459 0
-1.6638346 1.854847 -0.32863009 0
-1.5541277 1.8536133 -0.33101392 0
-1.4624699 1.8494879 -0.33204225 0
-1.3568712 1.8482507 -0.33557421 0
-1.2413545 1.8525592 -0.33937055 0
-1.1338592 1.8378682 -0.34253168 0
-1.0599984 1.8665038 -0.3444134 0
-0.94339955 1.8632472 -0.34743229 0
-0.85362339 1.847084 -0.34891164 0
-0.7495693 1.8415829 -0.35211378 0
-0.63944572 1.8588129 -0.35470194 0
-0.54733598 1.8355525 -0.35690346 0
-0.43459913 1.8542851 -0.3601605 0
-0.35147026 1.8314837 -0.36335778 0
-0.24764991 1.8599554 -0.36564556 0
-0.15515068 1.8800472 -0.36890277 0
-0.046441514 1.8465397 -0.37014997 0
0.037299659 1.8488606 -0.37190613 0
0.15105397 1.8309186 -0.37455225 0
0.2504651 1.8417498 -0.37735069 0
0.35992312 1.8387975 -0.3813006 0
0.43913388 1.8311872 -0.38242048 0
0.5430094 1.8596004 -0.38544488 0
0.65483254 1.8774054 -0.38931078 0
0.75153261 1.8555402 -0.39117944 0
0.84659714 1.8315405 -0.39223471 0
0.93921715 1.8403912 -0.39551821 0
1.0388045 1.8498259 -0.39816195 0
1.1413199 1.8722212 -0.39891973 0
-2.8007767 1.9802788 -0.30009782 0
-2.7261231 1.956944 -0.30185434 0
-2.6281252 1.9441433 -0.30455118 0
-2.5312519 1.9291924 -0.3058117 0
-2.4433699 1.9654852 -0.30960688 0
-2.3287916 1.938426 -0.3123486 0
-2.2402625 1.9476696 -0.31397682 0
-2.1322608 1.9357063 -0.31783772 0
-2.0390313 1.950827 -0.31875956 0
-1.9347342 1.960143 -0.32243529 0
-1.8311735 1.9460984 -0.32419515 0
-1.7553796 1.9664797 -0.32769874 0
-1.6373841 1.9247799 -0.33053589 0
-1.5563787 1.9486909 -0.3307445 0
-1.4571741 1.9551781 -0.33447495 0
-1.3546737 1.9451882 -0.33755648 0
-1.2520946 1.9582206 -0.34036061 0
-1.1464579 1.9428092 -0.34352663 0
-1.0365778 1.9374715 -0.34659877 0
-0.95955658 1.9731674 -0.34789217 0
-0.86161697 1.9368018 -0.3502624 0
-0.75591564 1.9404762 -0.35295039 0
-0.64682281 1.9623792 -0.35583732 0
-0.5440411 1.9247041 -0.3580873 0
-0.44974586 1.9615612 -0.36094454 0
-0.35282984 1.9417528 -0.3650969 0
-0.24515362 1.9478022 -0.36651626 0
-0.13236956 1.9402032 -0.37048656 0
-0.045669217 1.9323183 -0.37138882 0
0.051894948 1.923479 -0.37337244 0
0.15002963 1.9190235 -0.37565494 0
0.24813406 1.9266119 -0.37852067 0
0.34092057 1.9241791 -0.38162532 0
0.44725218 1.924984 -0.38526735 0
0.55666155 1.9305078 -0.38664663 0
0.65325505 1.9814415 -0.39108992 0
0.75453472 1.9536742 -0.39270979 0
0.86255354 1.9386055 -0.39491144 0
0.93911159 1.9576523 -0.39707327 0
1.0071526 1.9541193 -0.39882672 0
-2.771595 2.0605829 -0.30278254 0
-2.6744864 2.0383532 -0.30364633 0
-2.5690756 2.0467398 -0.30702671 0
-2.4677215 2.0540643 -0.31066561 0
-2.3615055 2.0530994 -0.31278557 0
-2.2662959 2.0573812 -0.31621802 0
-2.1600823 2.047158 -0.31789508 0
-2.0475824 2.0550973 -0.32076344 0
-1.9492921 2.0421531 -0.32307649 0
-1.8357693 2.066427 -0.3275615 0
-1.7401891 2.0456853 -0.32977277 0
-1.6478794 2.0473974 -0.33084664 0
-1.535435 2.0297341 -0.33362764 0
-1.4581695 2.0463934 -0.33633339 0
-1.3649908 2.0472653 -0.33907127 0
-1.2568419 2.0450211 -0.34201279 0
-1.1507374 2.0493596 -0.34482589 0
-1.0464535 2.0479074 -0.34735671 0
-0.93317395 2.0416784 -0.35038909 0
-0.84820557 2.0523555 -0.35248286 0
-0.75137436 2.0493293 -0.35468587 0
-0.64524418 2.0560002 -0.35702986 0
-0.55789131 2.0288224 -0.35921377 0
-0.4545598 2.0502622 -0.36250377 0
-0.35272589 2.0414288 -0.36587611 0
-0.25540075 2.0291965 -0.36735296 0
-0.15502626 2.0599585 -0.37133461 0
-0.051919539 2.073468 -0.37333927 0
0.053479236 2.0507133 -0.37555021 0
0.15450712 2.0512178 -0.3777777 0
0.24656849 2.0307343 -0.38022566 0
0.34415829 2.0466959 -0.38293004 0
0.44985977 2.0516179 -0.38642684 0
0.54341817 2.0617595 -0.38889742 0
0.64831918 2.0653675 -0.39159656 0
0.73972654 2.0450842 -0.39405873 0
0.8496815 2.0498166 -0.39677158 0
0.95322371 2.0622499 -0.39927745 0
-2.7233288 2.1484823 -0.30454078 0
-2.6276813 2.1242945 -0.30768472 0
-2.5611224 2.1629641 -0.30995268 0
-2.4408896 2.1424477 -0.31174383 0
-2.3249595 2.1410937 -0.31656238 0
-2.2540617 2.1362247 -0.31577802 0
-2.1619692 2.148977 -0.31922626 0
-2.0746708 2.1735058 -0.32180288 0
-1.9972341 2.122581 -0.32270372 0
-1.8961166 2.1343567 -0.32689315 0
-1.6472229 2.1455545 -0.33214808 0
-1.5464001 2.1382377 -0.3351866 0
-1.4589922 2.1439407 -0.33798602 0
-1.3503631 2.1339531 -0.33961007 0
-1.2530857 2.158515 -0.34382632 0
-1.1510417 2.1571939 -0.34631294 0
-1.0401212 2.1292069 -0.34845588 0
-0.95191312 2.1528323 -0.35031447 0
-0.85150212 2.1588681 -0.35413796 0
-0.74447244 2.118974 -0.35625738 0
-0.64840496 2.1592515 -0.35793409 0
-0.55103195 2.1469128 -0.36237916 0
-0.4581019 2.1380756 -0.36302364 0
-0.34777451 2.1603122 -0.36722937 0
-0.25595513 2.1317456 -0.36904162 0
-0.14593665 2.1440191 -0.37254795 0
-0.053985 2.1560318 -0.37446657 0
0.038833018 2.1676624 -0.37711629 0
0.14814265 2.1739352 -0.37930766 0
0.26132914 2.1509202 -0.38323313 0
0.35834965 2.1581686 -0.38475326 0
0.4467181 2.1598926 -0.3884069 0
0.54597646 2.1664217 -0.39048305 0
0.64130771 2.1501074 -0.39235696 0
0.75246608 2.1276274 -0.39557356 0
0.85406905 2.16517 -0.398366 0
-2.7155983 2.2276273 -0.30729279 0
-2.6680264 2.2532744 -0.30841669 0
-2.5515819 2.2506127 -0.3107993 0
-2.4510059 2.2572277 -0.31378499 0
-2.3573027 2.2340703 -0.31560466 0
-2.2396462 2.2478516 -0.3187134 0
-2.1373601 2.2391822 -0.3211661 0
-2.0168114 2.2702162 -0.32555649 0
-1.9564641 2.2022865 -0.3262248 0
-1.6023523 2.2154438 -0.33571422 0
-1.5537031 2.2554679 -0.33714873 0
-1.4370874 2.2475157 -0.33915743 0
-1.3368874 2.2288973 -0.3425169 0
-1.2419211 2.2486091 -0.34499186 0
-1.1469548 2.2651112 -0.34806529 0
-1.0493143 2.2284753 -0.34970748 0
-0.94530398 2.2530909 -0.3531239 0
-0.83747846 2.2648261 -0.35588756 0
-0.74898887 2.218447 -0.35760248 0
-0.65541285 2.2568824 -0.35915264 0
-0.54011041 2.229214 -0.36402175 0
-0.44799349 2.2477038 -0.36434424 0
-0.36559674 2.2707818 -0.36803392 0
-0.24468009 2.2549348 -0.37092733 0
-0.16103119 2.244108 -0.37334022 0
-0.056050465 2.238596 -0.3755939 0
0.040315624 2.2505653 -0.37845778 0
0.13733931 2.2541645 -0.37984434 0
0.23586445 2.2644451 -0.38424125 0
0.33413813 2.2612236 -0.38564384 0
0.45079225 2.2608395 -0.38946605 0
0.56644362 2.2476189 -0.3921535 0
0.64788276 2.2305398 -0.39324206 0
0.75047779 2.2334483 -0.3971346 0
0.82696909 2.2862017 -0.39970392 0
-2.6398396 2.3395624 -0.31007871 0
-2.5580978 2.3557947 -0.31375962 0
-2.470778 2.3754561 -0.31403652 0
-2.3549795 2.3408415 -0.31724447 0
-2.2627387 2.3705349 -0.31989247 0
-2.184052 2.3211238 -0.32102585 0
-2.0771587 2.338146 -0.32488814 0
-1.51958 2.3030984 -0.33879113 0
-1.4567307 2.3518889 -0.34021023 0
-1.350444 2.3262236 -0.34357116 0
-1.2541654 2.3501959 -0.34683102 0
-1.1543478 2.3630431 -0.34934321 0
-1.0549446 2.326092 -0.35068819 0
-0.96521115 2.3637505 -0.35426453 0
-0.85195762 2.3557773 -0.3569622 0
-0.75079775 2.3334432 -0.35854888 0
-0.64947158 2.3622835 -0.36164048 0
-0.56661117 2.3181674 -0.36465928 0
-0.45097378 2.3507123 -0.36617133 0
-0.34480691 2.333535 -0.36932972 0
-0.25960293 2.3311872 -0.37153098 0
-0.15579791 2.3500443 -0.3750692 0
-0.059095953 2.3624294 -0.377296 0
0.042221602 2.3581014 -0.37963921 0
0.14238256 2.3369737 -0.38118109 0
0.2445063 2.3474181 -0.38587472 0
0.34632525 2.3436987 -0.3871766 0
0.45073459 2.3477497 -0.39110553 0
0.55281723 2.33338 -0.3925674 0
0.65564859 2.3451269 -0.39559564 0
0.74286449 2.3666008 -0.39810368 0
-2.6307194 2.422673 -0.31288657 0
-2.5527925 2.4424975 -0.31277236 0
-2.4187992 2.4625356 -0.31744748 0
-2.325428 2.4362113 -0.31925568 0
-2.1676798 2.4400406 -0.32388562 0
-1.4064008 2.4226034 -0.34394905 0
-1.3599708 2.4383664 -0.34459317 0
-1.2629701 2.4646382 -0.34803435 0
-1.160184 2.4639018 -0.35048106 0
-1.0601817 2.4296172 -0.35206139 0
-0.96215135 2.4560215 -0.35544458 0
-0.86597842 2.4489233 -0.35813034 0
-0.75021982 2.4504571 -0.36014849 0
-0.64153749 2.4714651 -0.36428785 0
-0.55256611 2.4418404 -0.36521149 0
-0.45176864 2.4485414 -0.36828935 0
-0.34548411 2.4571865 -0.37156177 0
-0.23514295 2.4272811 -0.37341487 0
-0.14959967 2.4566483 -0.37700507 0
-0.061808109 2.4718087 -0.37897006 0
0.043782927 2.4455051 -0.38195679 0
0.14800555 2.4293878 -0.38277751 0
0.25782704 2.4329095 -0.38772786 0
0.35868269 2.4273155 -0.38873047 0
0.45267376 2.4331889 -0.39239332 0
0.53811395 2.4259689 -0.39400762 0
0.64631796 2.4175313 -0.3963733 0
0.73178315 2.4333889 -0.39845517 0
-2.5447628 2.5541039 -0.31545699 0
-2.4659665 2.5467908 -0.31744111 0
-2.3708701 2.5196667 -0.31934801 0
-2.2582006 2.5419352 -0.3228831 0
-1.3159617 2.5090442 -0.34787348 0
-1.2460423 2.5509026 -0.35007858 0
-1.1624832 2.5631995 -0.35152137 0
-1.0618874 2.5319118 -0.35352054 0
-0.95909905 2.5554807 -0.35678706 0
-0.8607232 2.5493927 -0.35982957 0
-0.75667524 2.5591662 -0.36199841 0
-0.66350335 2.5560591 -0.36474693 0
-0.54865128 2.558461 -0.36683059 0
-0.45030433 2.5421681 -0.36980444 0
-0.34978667 2.5555558 -0.37306345 0
-0.25486276 2.5338888 -0.37448668 0
-0.13673627 2.5452471 -0.37820211 0
-0.04592298 2.5679884 -0.38144141 0
0.046224203 2.582226 -0.38355741 0
0.15641104 2.5675805 -0.38563639 0
0.26276818 2.5224721 -0.38914075 0
0.36341891 2.5425713 -0.39038563 0
0.4466567 2.5206776 -0.39304209 0
0.56263351 2.5364966 -0.39629492 0
0.6514985 2.5342226 -0.39816996 0
-2.4927955 2.6492441 -0.31825298 0
-2.3487215 2.6438298 -0.32188058 0
-1.1481004 2.6312399 -0.35251486 0
-1.0654868 2.645674 -0.35522419 0
-0.9570775 2.6451621 -0.35866889 0
-0.85111266 2.6452396 -0.3611052 0
-0.74594426 2.6624362 -0.36322224 0
-0.64971572 2.658179 -0.36675677 0
-0.5423463 2.6538141 -0.36850944 0
-0.44744286 2.6359837 -0.37155998 0
-0.35504934 2.666554 -0.37445608 0
-0.25685206 2.6477947 -0.37643781 0
-0.14148825 2.6337204 -0.37946919 0
-0.047510564 2.656776 -0.38282514 0
0.047812473 2.6709855 -0.38485885 0
0.14391369 2.6775961 -0.38728076 0
0.2372466 2.6472564 -0.38962203 0
0.35160279 2.637315 -0.3925356 0
0.44973332 2.648859 -0.39470711 0
0.54895478 2.6526303 -0.39811862 0
0.61693835 2.6045926 -0.39933339 0
-2.4361389 2.7422307 -0.32091245 0
-1.0304966 2.7262042 -0.35786006 0
-0.94839585 2.7440932 -0.36101156 0
-0.8398785 2.7445505 -0.36298522 0
-0.73611927 2.7528613 -0.3648507 0
-0.65199411 2.752414 -0.36799908 0
-0.552885 2.7738628 -0.37035707 0
-0.46218321 2.7228127 -0.37252522 0
-0.34713721 2.7578516 -0.37589553 0
-0.24087225 2.7581155 -0.37833938 0
-0.14624025 2.7221937 -0.38073632 0
-0.049098149 2.7455635 -0.38420892 0
0.049400743 2.7597454 -0.38616022 0
0.14869572 2.7666256 -0.38892528 0
0.25746533 2.7602813 -0.3920714 0
0.3458353 2.7468929 -0.39478612 0
0.4513787 2.7784088 -0.39663267 0
0.52754688 2.7483797 -0.39898819 0
-0.90255541 2.8050911 -0.36181083 0
-0.84742332 2.8417015 -0.36477759 0
-0.75576353 2.8543053 -0.36587477 0
-0.65052676 2.8362629 -0.3688395 0
-0.55151886 2.8734608 -0.372302 0
-0.46890628 2.8434207 -0.37390482 0
-0.35816535 2.8454552 -0.37700471 0
-0.25775966 2.8740573 -0.37980917 0
-0.16252455 2.8317761 -0.38215396 0
-0.050685734 2.8343511 -0.38559264 0
0.050989002 2.848505 -0.38746166 0
0.15347776 2.8556552 -0.39056981 0
0.25743571 2.8683281 -0.39350879 0
0.36257225 2.8798409 -0.39727083 0
0.44451356 2.8658676 -0.39792526 0
0.50817877 2.8686647 -0.39968273 0
-0.71245193 2.9147069 -0.36841667 0
-0.65054172 2.9330406 -0.37029749 0
-0.55891639 2.969275 -0.3733035 0
-0.44225633 2.9435012 -0.37707368 0
-0.34876418 2.9398949 -0.37867826 0
-0.2448159 2.9692037 -0.38188908 0
-0.13711622 2.945435 -0.38425633 0
-0.052273318 2.9231386 -0.38697639 0
0.052577272 2.9372647 -0.38876304 0
0.15825981 2.944685 -0.39221436 0
0.24352166 2.9513819 -0.39410704 0
0.35220805 2.9685504 -0.39831951 0
0.43589434 2.9498982 -0.39884266 0
-0.53214782 3.004015 -0.37459832 0
-0.44115543 3.0351741 -0.37836537 0
-0.362041 3.0519803 -0.38008156 0
-0.25208488 3.0573342 -0.38303682 0
-0.14329824 3.0782628 -0.3862164 0
-0.061764255 3.0401344 -0.38836515 0
0.054165542 3.0260246 -0.39006445 0
0.16304184 3.0337145 -0.39385885 0
0.2508533 3.0402784 -0.39574403 0
0.3184002 3.057399 -0.39862177 0
-0.30100304 3.1060185 -0.38315719 0
-0.23473263 3.1194267 -0.38410956 0
-0.1466326 3.1507478 -0.38729125 0
-0.045340069 3.1668386 -0.3914611 0
0.033840589 3.1530316 -0.39196908 0
0.13476576 3.1399205 -0.39371207 0
0.25818491 3.1291749 -0.39738107 0
0.057326596 3.2037055 -0.39342797 0
0.17313977 3.2224751 -0.39735702 0
0.26648566 3.2302744 -0.39925295 0
2.051265 5.4267368 -0.39061525 0
2.1410613 5.4281054 -0.39476776 0
2.2556767 5.4872746 -0.38590473 0
2.3311863 5.4479008 -0.39001349 0
1.8283327 5.5458708 -0.38842455 0
2.0823126 5.5088749 -0.37490812 0
2.1433661 5.5505171 -0.36926264 0
2.2475543 5.5806551 -0.3676801 0
2.3663206 5.5300093 -0.37642401 0
1.8564633 5.6311994 -0.37587461 0
2.144408 5.6731515 -0.34349388 0
2.2379935 5.6738515 -0.34843749 0
2.3231745 5.651473 -0.35705388 0
2.4190226 5.6531715 -0.35603976 0
1.8845941 5.7165279 -0.36332467 0
2.1795349 5.7660818 -0.32572299 0
2.2773356 5.7735929 -0.32963336 0
2.3569233 5.7335725 -0.34262842 0
2.4717243 5.7763333 -0.33565554 0
1.92679 5.8445206 -0.34449977 0
2.3883195 5.809948 -0.32920867 0
2.4839947 5.8050089 -0.33090955 0
1.9626263 5.9532228 -0.32851213 0
0.30559838 -3.4071324 -0.29928166 0
-0.13021874 -3.3068624 -0.28953677 0
-0.059467047 -3.3255792 -0.29100403 0
0.027975438 -3.337307 -0.29330054 0
0.13179924 -3.3458266 -0.29571226 0
0.22862531 -3.3575828 -0.29859677 0
-0.40589929 -3.2241936 -0.28464621 0
-0.34421566 -3.2310598 -0.28510097 0
-0.24493775 -3.2532659 -0.28683397 0
-0.16013503 -3.2723429 -0.28927436 0
-0.050650101 -3.2591693 -0.29226395 0
0.042663429 -3.2423875 -0.2952418 0
0.12719871 -3.2296453 -0.29754925 0
-0.64533532 -3.1203773 -0.27878153 0
-0.55989659 -3.1609528 -0.28085911 0
-0.46366581 -3.168736 -0.2823205 0
-0.34945503 -3.1382511 -0.2867482 0
-0.23720104 -3.1508503 -0.28852755 0
-0.14758001 -3.1724977 -0.291026 0
-0.063728161 -3.1370556 -0.29396662 0
0.033514492 -3.1244197 -0.29686821 0
0.12367368 -3.1401496 -0.29896656 0
-0.91873091 -3.0020621 -0.27467 0
-0.85553741 -3.026535 -0.27517009 0
-0.74780822 -3.0597286 -0.27770317 0
-0.65156746 -3.0408003 -0.28008243 0
-0.54483855 -3.0759306 -0.28253222 0
-0.45110422 -3.0509534 -0.28446144 0
-0.36064705 -3.0396855 -0.28814286 0
-0.25283986 -3.0645916 -0.28968343 0
-0.13509963 -3.0581608 -0.29316667 0
-0.05399159 -3.0193872 -0.29607549 0
0.054454166 -3.0399439 -0.29878369 0
-1.0551475 -2.9170375 -0.27139693 0
-0.9667564 -2.932642 -0.27220839 0
-0.85711163 -2.9511421 -0.27637315 0
-0.74804956 -2.937974 -0.27911046 0
-0.6536113 -2.9471688 -0.28153241 0
-0.55014497 -2.9816406 -0.28373313 0
-0.45547509 -2.9370346 -0.2863569 0
-0.35015473 -2.9512315 -0.2897357 0
-0.2455169 -2.9757917 -0.2913003 0
-0.13750997 -2.9493177 -0.29457614 0
-0.052392818 -2.9300246 -0.2975556 0
0.031590648 -2.945415 -0.29968554 0
-1.2283331 -2.814728 -0.26868376 0
-1.1530085 -2.8397183 -0.26916441 0
-1.0578965 -2.8606272 -0.27190715 0
-0.9335019 -2.8316789 -0.27487832 0
-0.85243416 -2.8584375 -0.27760163 0
-0.76213938 -2.8501096 -0.28011042 0
-0.65375894 -2.8513715 -0.28309804 0
-0.54172558 -2.8583844 -0.28558913 0
-0.4585939 -2.8233423 -0.28827697 0
-0.35936341 -2.854862 -0.29054147 0
-0.26330769 -2.8600857 -0.29364884 0
-0.15341307 -2.8516564 -0.29498941 0
-0.050794043 -2.840662 -0.29903567 0
-1.3460518 -2.7223969 -0.26691338 0
-1.2643025 -2.7665501 -0.267739 0
-1.1259034 -2.7389419 -0.27164644 0
-1.0464547 -2.7685702 -0.27362281 0
-0.95773387 -2.7495258 -0.27569643 0
-0.84713483 -2.7681248 -0.27892426 0
-0.74126178 -2.7463951 -0.28206065 0
-0.65226793 -2.7538614 -0.28450343 0
-0.55479914 -2.740952 -0.28729373 0
-0.4443419 -2.7355921 -0.28994864 0
-0.34824637 -2.7665446 -0.29216745 0
-0.23889619 -2.7379723 -0.29583311 0
-0.15708902 -2.739063 -0.29644543 0
-1.5104969 -2.6019144 -0.26321635 0
-1.4413538 -2.6551368 -0.26523229 0
-1.3434286 -2.6530447 -0.26707247 0
-1.2538476 -2.6628199 -0.2699542 0
-1.1539871 -2.6444328 -0.27306056 0
-1.0530865 -2.6697893 -0.27444917 0
-0.96492845 -2.6474631 -0.27771732 0
-0.85898525 -2.6696813 -0.27993548 0
-0.75461739 -2.6446776 -0.28277585 0
-0.65035981 -2.6608565 -0.28575143 0
-0.54127669 -2.6170154 -0.28979602 0
-0.44842175 -2.6414545 -0.29120886 0
-0.34686258 -2.6525381 -0.29476801 0
-0.2562997 -2.641134 -0.29665688 0
-0.15958978 -2.6205292 -0.29761308 0
-1.6338253 -2.5152056 -0.26240879 0
-1.5606987 -2.5602903 -0.26300764 0
-1.4469523 -2.5339775 -0.26672101 0
-1.3610319 -2.5648968 -0.26853117 0
-1.2497687 -2.5584192 -0.27138337 0
-1.1445676 -2.5236428 -0.27498969 0
-1.0317427 -2.5618014 -0.27707437 0
-0.93547457 -2.5296013 -0.27987263 0
-0.83587617 -2.5555711 -0.28245676 0
-0.76558703 -2.5445487 -0.28414872 0
-0.66421932 -2.5583963 -0.28668591 0
-0.55345285 -2.5375376 -0.290378 0
-0.45186579 -2.5510902 -0.2928597 0
-0.35839525 -2.5497229 -0.29519066 0
-0.25859776 -2.5402806 -0.2970261 0
-0.15416211 -2.5313878 -0.29902303 0
-1.729005 -2.4270368 -0.26138833 0
-1.6545736 -2.4560237 -0.26282892 0
-1.548503 -2.4601424 -0.26465484 0
-1.4577156 -2.4565105 -0.26771417 0
-1.3507408 -2.4598694 -0.27082792 0
-1.2456077 -2.4598446 -0.27322212 0
-1.1263881 -2.4371247 -0.2770353 0
-1.0418642 -2.4507565 -0.27914891 0
-0.93939584 -2.4324923 -0.28141695 0
-0.84123224 -2.4526494 -0.28368375 0
-0.74363112 -2.4298971 -0.28651938 0
-0.64193767 -2.4725835 -0.28842652 0
-0.55466396 -2.4192655 -0.29209015 0
-0.45347258 -2.457751 -0.29423508 0
-0.36628789 -2.4791372 -0.29514486 0
-0.26890281 -2.4143355 -0.29827571 0
-1.8483623 -2.3235593 -0.25984439 0
-1.7524188 -2.3513129 -0.26048583 0
-1.6579584 -2.3629017 -0.26384401 0
-1.5526757 -2.3534985 -0.26705322 0
-1.4495437 -2.3399701 -0.26917818 0
-1.3519403 -2.3548019 -0.27205274 0
-1.2536954 -2.3495226 -0.27474201 0
-1.1435735 -2.3410048 -0.27769226 0
-1.0559628 -2.3731713 -0.27994514 0
-0.94121391 -2.336978 -0.28327012 0
-0.85848153 -2.3733592 -0.2842831 0
-0.7508688 -2.3336203 -0.28813317 0
-0.65218812 -2.3719425 -0.28939179 0
-0.55074877 -2.3258395 -0.29351163 0
-0.43590179 -2.3624778 -0.29611239 0
-0.35668206 -2.3646295 -0.29744789 0
-0.26283556 -2.3598609 -0.29975748 0
-1.9196827 -2.2566504 -0.25947419 0
-1.8341732 -2.2197976 -0.2622298 0
-1.7526588 -2.2601597 -0.26260197 0
-1.642787 -2.2713084 -0.26539221 0
-1.5332075 -2.2531407 -0.26914951 0
-1.4462168 -2.2263775 -0.27266565 0
-1.3750955 -2.2557993 -0.27224404 0
-1.2441171 -2.2532978 -0.27669176 0
-1.1426382 -2.2169609 -0.2799173 0
-1.0408653 -2.2604146 -0.2821396 0
-0.93910933 -2.2390645 -0.28510186 0
-0.8317517 -2.2490811 -0.28674778 0
-0.7546255 -2.2353833 -0.28970757 0
-0.65514284 -2.2557399 -0.29071969 0
-0.55123669 -2.2550743 -0.2940464 0
-0.45376515 -2.2419462 -0.29776248 0
-0.34787309 -2.2431338 -0.29949614 0
-2.0283279 -2.1249828 -0.25701547 0
-1.9448411 -2.1579103 -0.2587339 0
-1.8480911 -2.1412492 -0.26288095 0
-1.7499312 -2.1489415 -0.26517996 0
-1.6541241 -2.1545479 -0.2669194 0
-1.551074 -2.1445072 -0.26947731 0
-1.4458673 -2.1572778 -0.27300698 0
-1.3469814 -2.1743865 -0.27469686 0
-1.2435956 -2.1421738 -0.27803516 0
-1.1511073 -2.1444809 -0.28133118 0
-1.0570129 -2.1638501 -0.28267011 0
-0.94929433 -2.1337264 -0.28678352 0
-0.85845727 -2.1571736 -0.28813133 0
-0.75143617 -2.174232 -0.29045451 0
-0.65266818 -2.1328723 -0.2934511 0
-0.56300497 -2.168314 -0.29506424 0
-0.46118516 -2.1495359 -0.29751033 0
-2.1256976 -2.0436554 -0.25798827 0
-2.0512383 -2.0392199 -0.25829002 0
-1.958528 -2.0615242 -0.260057 0
-1.8597412 -2.063529 -0.26224792 0
-1.7620497 -2.0415804 -0.26571986 0
-1.6400222 -2.0438113 -0.26922375 0
-1.5376205 -2.032619 -0.27258819 0
-1.4451872 -2.0596526 -0.27331746 0
-1.3599534 -2.0614178 -0.27686048 0
-1.2528741 -2.0485549 -0.27911368 0
-1.1252806 -2.0309329 -0.28252181 0
-1.0415899 -2.0569508 -0.28500998 0
-0.93490171 -2.0613463 -0.28800029 0
-0.85526961 -2.0390725 -0.29042295 0
-0.74449223 -2.0582068 -0.29204366 0
-0.64205104 -2.0459771 -0.29509395 0
-0.53976727 -2.0551591 -0.29766187 0
-0.47891462 -2.0441144 -0.29842916 0
-2.2061076 -1.917902 -0.2557489 0
-2.142556 -1.9449636 -0.25652316 0
-2.0489116 -1.9417994 -0.26131231 0
-1.9503375 -1.9573085 -0.26231757 0
-1.8449082 -1.9606857 -0.26445881 0
-1.7460297 -1.9372768 -0.26755208 0
-1.6234021 -1.936367 -0.27119434 0
-1.5412626 -1.9489865 -0.27242395 0
-1.4550225 -1.9521606 -0.27569711 0
-1.3465601 -1.9489307 -0.27785283 0
-1.2384605 -1.9365777 -0.28226626 0
-1.1604803 -1.9665308 -0.28293478 0
-1.0530235 -1.9397768 -0.28639218 0
-0.94680184 -1.9520248 -0.2891545 0
-0.84934026 -1.9464453 -0.29184774 0
-0.75612676 -1.9410279 -0.29399747 0
-0.6438818 -1.9535111 -0.29619408 0
-0.57140869 -1.933308 -0.29920432 0
-2.2456403 -1.8421714 -0.25599509 0
-2.1727991 -1.8618522 -0.25799814 0
-2.0706742 -1.8528872 -0.26029852 0
-1.9550833 -1.8528475 -0.26428464 0
-1.8408123 -1.8473835 -0.2669664 0
-1.7408936 -1.8239124 -0.26960284 0
-1.6617316 -1.8524857 -0.27043951 0
-1.5671657 -1.8692932 -0.27347437 0
-1.4649558 -1.8525782 -0.27682447 0
-1.3455098 -1.832462 -0.28002959 0
-1.258778 -1.8660624 -0.28132656 0
-1.1582069 -1.8403442 -0.28499275 0
-1.044039 -1.8433311 -0.28758997 0
-0.9500277 -1.8432695 -0.2909041 0
-0.85557568 -1.8510988 -0.29302493 0
-0.74909538 -1.8404052 -0.29612181 0
-0.64386785 -1.8629377 -0.29743725 0
-0.57942569 -1.8008224 -0.29962236 0
-2.3401964 -1.7571348 -0.25604728 0
-2.2600405 -1.7481638 -0.25763139 0
-2.1414652 -1.7566434 -0.26019004 0
-2.0278857 -1.7629894 -0.26329005 0
-1.9411904 -1.7370268 -0.26592949 0
-1.844049 -1.7476181 -0.26893023 0
-1.7568693 -1.7631741 -0.27153933 0
-1.6528419 -1.7565634 -0.27296454 0
-1.5442498 -1.7636365 -0.27479586 0
-1.4422696 -1.7386304 -0.27823693 0
-1.3586836 -1.7520708 -0.28128335 0
-1.2696656 -1.7553929 -0.28278649 0
-1.1527445 -1.7471796 -0.28632331 0
-1.0476482 -1.7465136 -0.28876472 0
-0.95363396 -1.7558879 -0.29152891 0
-0.84532332 -1.7622695 -0.29461819 0
-0.74262792 -1.7324481 -0.29759741 0
-0.64473099 -1.7692823 -0.2987996 0
-0.57717228 -1.793819 -0.29981026 0
-2.4164834 -1.631882 -0.25511372 0
-2.3372416 -1.652581 -0.25647095 0
-2.2259557 -1.6466734 -0.26096496 0
-2.1388311 -1.6544085 -0.26213771 0
-2.0365019 -1.6545215 -0.26429987 0
-1.9332924 -1.6484617 -0.26768675 0
-1.8402731 -1.6466916 -0.26988748 0
-1.749064 -1.6575952 -0.27267283 0
-1.6353105 -1.6411602 -0.27649018 0
-1.5351228 -1.6485965 -0.27723578 0
-1.4403963 -1.6369482 -0.27973214 0
-1.3513286 -1.6594102 -0.28213027 0
-1.2453687 -1.6510828 -0.2854133 0
-1.1410567 -1.6512755 -0.28762949 0
-1.0595431 -1.6439364 -0.29093391 0
-0.93930858 -1.6565489 -0.29328269 0
-0.84081358 -1.6607978 -0.29633471 0
-0.76274109 -1.6502463 -0.29831603 0
-0.69261986 -1.6512122 -0.2999368 0
-2.5028286 -1.5134904 -0.25589168 0
-2.4514437 -1.5471468 -0.25625789 0
-2.3844771 -1.5610543 -0.25710782 0
-2.2567914 -1.5476836 -0.25996715 0
-2.173593 -1.5603083 -0.26240182 0
-2.0573115 -1.5447991 -0.26635477 0
-1.9613482 -1.5624927 -0.26786473 0
-1.8629067 -1.5506384 -0.27093291 0
-1.7560325 -1.5489297 -0.27412844 0
-1.6449121 -1.5367355 -0.27728015 0
-1.5481344 -1.5446751 -0.27977148 0
-1.4550029 -1.5613154 -0.28173426 0
-1.3559692 -1.5529512 -0.2835072 0
-1.2506275 -1.5584528 -0.28631994 0
-1.1376458 -1.549407 -0.2894302 0
-1.0424765 -1.5320349 -0.29260042 0
-0.95663565 -1.5692915 -0.29372182 0
-0.85302794 -1.5500088 -0.29685286 0
-0.74850583 -1.5326464 -0.29924309 0
-2.5401986 -1.4384094 -0.25541252 0
-2.4603231 -1.4401261 -0.25735104 0
-2.3465598 -1.4652635 -0.26014081 0
-2.2511652 -1.4508328 -0.26252294 0
-2.1431537 -1.4472742 -0.26452565 0
-2.0405912 -1.4428463 -0.26724315 0
-1.9345888 -1.4526533 -0.27064246 0
-1.8359075 -1.4411931 -0.27329779 0
-1.7256906 -1.4364235 -0.27628741 0
-1.6529531 -1.451068 -0.27839699 0
-1.5600355 -1.4467765 -0.28055978 0
-1.4491346 -1.4543958 -0.28348845 0
-1.3571151 -1.4629375 -0.285366 0
-1.2510904 -1.4496825 -0.28805223 0
-1.1402454 -1.4480511 -0.29110512 0
-1.0516223 -1.4539703 -0.29239464 0
-0.95186245 -1.4515274 -0.29488236 0
-0.85439491 -1.4524219 -0.29788664 0
-0.75386578 -1.4373386 -0.29961172 0
-2.5483847 -1.3480152 -0.25587097 0
-2.416255 -1.3454831 -0.25997379 0
-2.3418601 -1.3559833 -0.26146445 0
-2.2365997 -1.352518 -0.26474968 0
-2.116411 -1.3426751 -0.26784384 0
-2.0406494 -1.3430871 -0.26908544 0
-1.9563211 -1.3555814 -0.27017125 0
-1.8513776 -1.3388711 -0.27392617 0
-1.7700701 -1.3512044 -0.27642712 0
-1.6592001 -1.3610812 -0.27900252 0
-1.5578401 -1.3543224 -0.28176221 0
-1.4603697 -1.3449711 -0.28439364 0
-1.3505744 -1.3555843 -0.28788432 0
-1.2424939 -1.3517861 -0.29097685 0
-1.155728 -1.3389803 -0.29276842 0
-1.0568935 -1.342225 -0.29436058 0
-0.94934243 -1.3527532 -0.29676744 0
-0.86334121 -1.3717985 -0.29854143 0
-2.6299541 -1.250028 -0.25477627 0
-2.5571327 -1.2605253 -0.25702271 0
-2.4592133 -1.2564133 -0.25920188 0
-2.3680937 -1.2529067 -0.26234844 0
-2.2548609 -1.2345701 -0.26572406 0
-2.1596413 -1.264124 -0.2675457 0
-2.0692959 -1.2513534 -0.27045807 0
-1.9669721 -1.2478577 -0.2728067 0
-1.8499938 -1.2493073 -0.2749773 0
-1.7385595 -1.2480419 -0.27809846 0
-1.6416818 -1.2512566 -0.28127888 0
-1.544342 -1.2484295 -0.28395122 0
-1.4443446 -1.2375995 -0.28615212 0
-1.3366356 -1.252311 -0.28871056 0
-1.2548238 -1.2594126 -0.29130331 0
-1.1431227 -1.2503359 -0.29551092 0
-1.0493428 -1.2334595 -0.29786646 0
-0.94594878 -1.232057 -0.29806933 0
-0.86067355 -1.2696233 -0.29818675 0
-2.7052543 -1.1007656 -0.25552171 0
-2.6487985 -1.144711 -0.25610557 0
-2.5349772 -1.160676 -0.25876081 0
-2.4277306 -1.1327136 -0.26210004 0
-2.3407583 -1.1538711 -0.26403555 0
-2.2268035 -1.1376836 -0.26710513 0
-2.1306667 -1.146862 -0.27039883 0
-2.0456495 -1.1583819 -0.2720688 0
-1.9271804 -1.1446147 -0.27543554 0
-1.856094 -1.1406326 -0.27738225 0
-1.7585481 -1.1513109 -0.27938262 0
-1.6561532 -1.1532884 -0.28134781 0
-1.5493026 -1.1563394 -0.28494558 0
-1.4362729 -1.1399624 -0.28863984 0
-1.3633579 -1.1663269 -0.28974116 0
-1.253975 -1.1417161 -0.29265791 0
-1.1525103 -1.1518726 -0.29548326 0
-1.0774053 -1.1349732 -0.2984291 0
-0.96902996 -1.1899675 -0.29854921 0
-2.728169 -1.0424292 -0.25552046 0
-2.6547656 -1.058151 -0.25762311 0
-2.563494 -1.0430409 -0.2599434 0
-2.4695718 -1.0463194 -0.26253757 0
-2.3709838 -1.0448035 -0.26474699 0
-2.2800651 -1.0439574 -0.2677758 0
-2.1609011 -1.0423622 -0.27064294 0
-2.0718634 -1.0585304 -0.272374 0
-1.9735031 -1.0513065 -0.27571121 0
-1.8729546 -1.0430295 -0.27848402 0
-1.7608452 -1.0443137 -0.28149462 0
-1.65776 -1.0485547 -0.28344199 0
-1.5547651 -1.0447124 -0.28650025 0
