# .PCD v0.7 - Point Cloud Data file format
VERSION 0.7
FIELDS x y z intensity
SIZE 4 4 4 4
TYPE F F F F
COUNT 1 1 1 1
WIDTH 1389
HEIGHT 1
VIEWPOINT 0 0 0 1 0 0 0
POINTS 1389
DATA ascii
-19.396734 -6.5983968 2.5131423 11
-19.593615 -6.3553557 3.2596357 12
-19.338549 -6.578577 3.9671338 13
-19.583614 -6.3520985 3.9986012 13
-19.330534 -6.5758371 4.7100296 14
-19.546289 -6.3399811 4.7402959 14
-19.318453 -6.5717115 5.4632497 15
-18.801464 -7.306304 0.35083508 8
-18.994436 -7.0715165 1.0604949 9
-19.082161 -6.9492979 1.7746128 10
-19.170914 -6.8278294 2.4961202 11
-18.934013 -7.0489736 3.1967194 12
-19.147049 -6.8193159 3.2160957 12
-19.015425 -6.9249835 3.9301419 13
-18.994013 -6.917171 4.6627946 14
-18.981005 -6.9123559 5.4081378 15
-18.577652 -7.5256524 0.34858239 8
-18.788008 -7.3010578 1.0546044 9
-18.752113 -7.2870941 1.7578371 10
-18.631643 -7.3930035 2.4584053 11
-18.603981 -7.3820443 3.1667652 12
-18.469486 -7.4817395 3.8694735 13
-18.568213 -7.3676953 4.6075664 14
-18.547226 -7.3593745 5.3417144 15
-18.265781 -7.8571968 0.34574786 8
-18.249699 -7.8503461 1.0392873 9
-18.217463 -7.8364811 1.7326049 10
-18.203384 -7.8303094 2.4301305 11
-18.18721 -7.8233733 3.1322298 12
-18.165022 -7.8138137 3.8396246 13
-18.051149 -7.9180098 4.5458431 14
-18.020872 -7.9047055 5.2672739 15
-17.952637 -8.1817493 0.34298727 8
-17.823557 -8.2763243 1.0279082 9
-17.813883 -8.2718487 1.7157726 10
-17.895323 -8.1555595 2.411515 11
-17.665773 -8.3567572 3.0913477 12
-17.758404 -8.245944 3.8014843 13
-17.724157 -8.2300472 4.5065575 14
-17.711044 -8.2239065 5.2266655 15
-17.331263 -8.8110771 0.33789369 8
-17.531446 -8.6009293 0.33940995 8
-17.315552 -8.8030605 1.0158823 9
-17.506966 -8.588892 1.0198914 9
-17.400702 -8.6906748 1.6989685 10
-17.379494 -8.6799841 2.3819294 11
-17.37179 -8.6762104 3.0715055 12
-17.433134 -8.5525627 3.7698097 13
-17.320021 -8.6501427 4.4642849 14
-17.307812 -8.644084 5.1778364 15
-16.943926 -9.2304544 0.33526456 8
-17.142069 -9.0243149 0.33664197 8
-17.117882 -9.0115499 1.0116539 9
-16.902758 -9.207963 1.681072 10
-17.098963 -9.0015631 1.6877456 10
-16.89028 -9.2011318 2.3579996 11
-17.087418 -8.9954529 2.3675015 11
-16.966496 -9.0862999 3.0441186 12
-16.943331 -9.0738897 3.7311034 13
-16.929083 -9.0662193 4.4279575 14
-16.80238 -9.1531115 5.1203127 15
-16.552916 -9.6384058 0.33276063 8
-16.749426 -9.4361563 0.33400813 8
-16.542988 -9.6325912 1.0009315 9
-16.724005 -9.4217997 1.0037187 9
-16.507057 -9.6116304 1.6681135 10
-16.708019 -9.4127579 1.6747862 10
-16.688652 -9.4018126 2.3482001 11
-16.574814 -9.4934063 3.0208871 12
-16.56003 -9.4849319 3.7043948 13
-16.639771 -9.3741693 4.4033155 14
-16.522587 -9.4633551 5.0952859 15
-16.356192 -9.8382502 0.33155766 8
-16.142208 -10.025112 0.99344903 9
-16.336418 -9.8263197 0.99674314 9
-16.322756 -9.8180628 1.6633724 10
-16.103163 -10.000781 2.3235397 11
-16.292698 -9.7999411 2.330617 11
-16.197025 -9.8997059 3.0019615 12
-16.169331 -9.8828287 3.6781838 13
-16.152632 -9.87257 4.3643289 14
-16.129707 -9.8584833 5.0582852 15
-15.770727 -10.427871 0.32833758 8
-15.96402 -10.23217 0.32932335 8
-15.755972 -10.418068 0.98743761 9
-15.952555 -10.224779 0.99058509 9
-15.749502 -10.413745 1.6485804 10
-15.931852 -10.211466 1.6523546 10
-15.735301 -10.40431 2.3120892 11
-15.909808 -10.197293 2.3162575 11
-15.902098 -10.192306 2.9867313 12
-15.787918 -10.278062 3.6562369 13
-15.771818 -10.26758 4.3383555 14
-15.842535 -10.153993 5.0347061 15
-15.302395 -10.9196 0.32641682 8
-15.580809 -10.624021 0.32747293 8
-15.395751 -10.821899 0.98368335 9
-15.565752 -10.613706 0.98483777 9
-15.45862 -10.702284 1.6416061 10
-15.448153 -10.695024 2.3028378 11
-15.434208 -10.68533 2.9681947 12
-15.408 -10.66713 3.6368566 13
-15.399889 -10.661394 4.3174825 14
-15.382363 -10.649329 5.0054297 15
-14.930101 -11.308674 0.32516685 8
-15.011754 -11.203455 0.97904336 9
-15.191144 -11.004314 0.98047209 9
-14.809504 -11.384052 1.6306608 10
-15.180316 -10.996418 1.6364836 10
-15.065886 -11.077598 2.291769 11
-15.049049 -11.065153 2.9532971 12
-15.040828 -11.058942 3.6227756 13
-15.112957 -10.947399 4.3012815 14
-15.010415 -11.036462 4.9842577 15
-14.458936 -11.783996 0.32377729 8
-14.652537 -11.598837 0.32440305 8
-14.454461 -11.780286 0.97450656 9
-14.640894 -11.589558 0.97589695 9
-14.435414 -11.764694 1.625568 10
-14.616596 -11.570254 1.6273234 10
-14.413788 -11.746996 2.2784839 11
-14.701383 -11.468034 2.2848964 11
-14.407763 -11.742022 2.9382463 12
-14.685076 -11.455173 2.944464 12
-14.666762 -11.440965 3.609437 13
-14.6525 -11.42963 4.283011 14
-14.64367 -11.422832 4.968143 15
-14.097838 -12.173222 0.32328573 8
-14.278578 -11.979028 0.3235054 8
-14.088791 -12.165339 0.9727335 9
-14.277364 -11.977945 0.97392339 9
-14.076974 -12.155062 1.6233996 10
-14.250695 -11.955495 1.6237038 10
-14.055986 -12.13686 2.2754655 11
-14.230494 -11.93847 2.2760572 11
-14.032053 -12.11611 2.9305789 12
-14.024234 -12.109287 3.5948892 13
-14.205792 -11.917605 3.5977108 13
-14.39486 -11.731439 3.6030703 13
-14.004339 -12.092029 4.2638636 14
-14.283876 -11.810934 4.2715492 14
-14.180801 -11.896492 4.951086 15
-13.734942 -12.559264 0.32300127 8
-13.91263 -12.363049 0.32302439 8
-13.717375 -12.543115 0.97127849 9
-13.896076 -12.348259 0.97142512 9
-13.705205 -12.531905 1.6208992 10
-13.879362 -12.333326 1.6206281 10
-13.680368 -12.509101 2.2712312 11
-13.876179 -12.330425 2.2744579 11
-13.667109 -12.496895 2.9272811 12
-13.852305 -12.309124 2.92923 12
-13.660861 -12.491103 3.5912054 13
-13.656189 -12.486753 4.2640944 14
-13.827531 -12.286949 4.2626991 14
-13.632898 -12.465363 4.9407067 15
-13.90338 -12.178374 4.9437408 15
-13.366933 -12.939706 0.32285237 8
-13.54849 -12.747258 0.32283595 8
-13.349276 -12.922514 0.97080278 9
-13.528028 -12.727913 0.97056365 9
-13.340671 -12.914098 1.6205031 10
-13.518587 -12.718949 1.6200162 10
-13.312281 -12.88651 2.2699585 11
-13.503405 -12.704572 2.2715657 11
-13.310414 -12.884619 2.9280727 12
-13.492954 -12.694655 2.9282856 12
-13.300591 -12.875022 3.5911648 13
-13.480097 -12.682471 3.590652 13
-13.288303 -12.863032 4.2615585 14
-13.263827 -12.839232 4.9370914 15
-13.45185 -12.655714 4.9397044 15
-12.913216 -13.421998 0.32321045 8
-13.174821 -13.121743 0.32267794 8
-12.892673 -13.400455 0.97161609 9
-13.168877 -13.115734 0.97112793 9
-12.966091 -13.286242 1.6201868 10
-13.15626 -13.103071 1.620537 10
-12.950625 -13.270289 2.271646 11
-13.135129 -13.081921 2.2711954 11
-12.946079 -13.265537 2.9296303 12
-13.124445 -13.071186 2.9276919 12
-12.929762 -13.24871 3.5911911 13
-13.114355 -13.061043 3.5905867 13
-12.912538 -13.230954 4.2598429 14
-13.096868 -13.043523 4.2591209 14
-12.903242 -13.221326 4.940659 15
-13.085194 -13.031797 4.9389749 15
-12.53807 -13.796648 0.32350391 8
-12.616648 -13.686106 0.97254288 9
-12.513174 -13.768967 1.6237242 10
-12.781291 -13.474982 1.6208428 10
-12.498311 -13.75253 2.2766175 11
-12.764018 -13.45666 2.2722027 11
-12.574773 -13.64034 2.9321086 12
-12.765368 -13.457994 2.9316902 12
-12.567153 -13.631965 3.5965869 13
-12.751519 -13.443283 3.5943475 13
-12.558944 -13.622952 4.2691474 14
-12.735847 -13.426648 4.2640271 14
-12.630662 -13.50669 4.9454665 15
-12.075376 -14.275372 0.32444596 8
-12.157744 -14.167229 0.9753831 9
-12.048404 -14.24322 1.6280036 10
-12.130264 -14.135035 2.2818251 11
-12.120901 -14.12398 2.9415061 12
-12.391278 -13.830814 2.9348319 12
-12.381389 -13.81966 3.5992327 13
-12.10668 -14.107243 3.6060517 13
-12.192303 -14.004095 4.2780414 14
-12.364456 -13.800633 4.2692246 14
-12.264447 -13.886407 4.9545751 15
-11.792755 -14.560085 0.32513615 8
-11.792219 -14.55936 0.97887444 9
-11.772652 -14.535057 1.6322949 10
-11.761945 -14.521625 2.2892511 11
-11.750973 -14.50795 2.9506009 12
-11.641145 -14.582762 3.6193166 13
-11.832657 -14.398019 3.6148961 13
-11.630892 -14.569776 4.2951355 14
-11.812332 -14.373133 4.2862897 14
-11.616093 -14.551081 4.978816 15
-11.81205 -14.372669 4.9747939 15
-11.4251 -14.95645 0.32660773 8
-11.413337 -14.940855 0.9822939 9
-11.402762 -14.926792 1.6391836 10
-11.385953 -14.904716 2.297617 11
-11.277848 -14.982297 2.9635174 12
-11.459747 -14.78171 3.627856 13
-11.259182 -14.957189 4.3131223 14
-11.447593 -14.765877 4.3044887 14
-11.247767 -14.941862 5.000958 15
-11.443272 -14.76016 4.9941392 15
-11.053501 -15.355967 0.32835191 8
-11.13353 -15.237137 0.98592091 9
-11.027237 -15.319201 1.6471579 10
-11.013732 -15.300169 2.3093431 11
-10.909743 -15.38479 2.9805262 12
-11.091057 -15.178493 2.970818 12
-10.993451 -15.271758 3.6498942 13
-10.891484 -15.358701 4.3377786 14
-11.074765 -15.155877 4.3245482 14
-10.871812 -15.330754 5.0255361 15
-11.065066 -15.142435 5.0148964 15
-10.760408 -15.64145 0.32948387 8
-10.657817 -15.730756 0.99274713 9
-10.65139 -15.721123 1.657135 10
-10.535131 -15.789484 2.3251376 11
-10.722356 -15.585579 2.3173225 11
-10.526914 -15.776985 2.9972837 12
-10.724721 -15.588868 2.9902151 12
-10.516166 -15.760683 3.6749647 13
-10.704276 -15.558937 3.6630433 13
-10.698696 -15.550655 4.3485765 14
-10.482201 13.209187 4.5216851 15
-10.499451 -15.73525 5.0581741 15
-10.689449 -15.537031 5.04281 15
-10.283336 -16.148678 0.33229876 8
-10.270039 -16.127535 0.99897158 9
-10.15973 -16.206732 1.6691818 10
-10.345681 -15.993399 2.3332765 11
-10.145853 -16.184195 3.0186191 12
-10.338908 -15.982741 3.008148 12
-10.136346 -16.168814 3.7014236 13
-10.328161 -15.965921 3.688211 13
-10.124934 -16.150396 4.3914585 14
-10.311535 -15.939992 4.373661 14
-10.210975 13.252477 4.4859319 15
-10.115044 -16.134401 5.091948 15
-9.6229239 12.867028 -0.27924088 7
-9.8934479 -16.557192 0.33481693 8
-9.7916946 13.287406 0.28956357 8
-9.8778257 -16.530691 1.0061707 9
-9.7989378 13.297265 0.86733186 9
-9.8051605 13.305874 1.4479371 10
-9.8692436 -16.51613 1.6790423 10
-9.8602381 -16.500771 2.3547399 11
-9.8004408 13.299509 2.0305693 11
-9.8155804 13.319982 2.6229591 12
-9.7513809 -16.584553 3.0403659 12
-9.9505529 -16.385685 3.0295196 12
-9.8141594 13.318295 3.2183502 13
-9.7366819 -16.559294 3.7259417 13
-9.9386845 -16.365906 3.7138309 13
-9.8170853 13.322415 3.8234036 14
-9.7343731 -16.555161 4.4244819 14
-9.9274673 -16.347204 4.4061604 14
-9.8223305 13.329479 4.4396563 15
-9.7281809 -16.544403 5.1319833 15
-9.9178276 -16.331102 5.1090183 15
-9.4961319 -16.970047 0.33761182 8
-9.4063063 13.355992 0.28656065 8
-9.4797688 -16.940435 1.0143334 9
-9.4185171 13.373357 0.85883331 9
-9.4199152 13.375444 1.433054 10
-9.4808254 -16.942286 1.6943098 10
-9.4641714 -16.912121 2.3741095 11
-9.4161844 13.370286 2.0098827 11
-9.4264269 13.384871 2.5950699 12
-9.3489227 -16.987518 3.064307 12
-9.5580063 -16.797699 3.054245 12
-9.426096 13.384517 3.1844618 13
-9.3414021 -16.973598 3.7579188 13
-9.5488234 -16.781311 3.7449996 13
-9.4327106 13.393982 3.7846584 14
-9.4305143 13.390995 4.3913388 15
-9.3332739 -16.958572 4.4596052 14
-9.5407858 -16.766943 4.4444065 14
-9.3313112 -16.954777 5.1749234 15
-9.5255003 -16.739798 5.150085 15
-8.9351559 4.8864627 -0.17733136 7
-9.0866671 5.8487754 -0.18808836 7
-9.0911064 -17.388706 0.34071007 8
-9.0267029 13.419102 0.28368104 8
-9.0808334 -17.368748 1.0241534 9
-9.0317907 13.426693 0.84960186 9
-9.0405064 13.439665 1.4188092 10
-9.0777969 -17.362627 1.7098941 10
-9.0438585 13.444798 1.9914365 11
-9.1553755 -17.210848 2.3880925 11
-8.9569845 -17.43112 2.4007804 11
-9.0465794 13.448959 2.5692451 12
-9.0501099 -17.30904 3.0868871 12
-9.0490761 13.452647 3.1537335 13
-8.9445066 -17.406286 3.7959397 13
-9.1465092 -17.193682 3.7775111 13
-9.0489588 13.452596 3.7454739 14
-9.0594387 13.468241 4.3519063 15
-8.931035 -17.379747 4.5018301 14
-9.1343479 -17.170527 4.4807773 14
-8.9190502 -17.35611 5.2179675 15
-9.1371422 -17.17556 5.2021799 15
-8.4655828 2.4888146 -0.15383656 7
-8.6251945 3.2214532 -0.16045532 7
-8.7820759 4.0165448 -0.1682249 7
-8.6548986 13.482779 -0.27843744 7
-8.7826481 -17.707537 0.34324712 8
-8.6636477 13.496463 0.28128439 8
-8.7756662 -17.693176 1.0320443 9
-8.5381298 13.512103 0.83913082 9
-8.6647224 13.498382 1.404917 10
-8.762991 -17.667294 1.7211238 10
-8.6784935 13.519846 1.9743307 11
-8.7587042 -17.658375 2.4147272 11
-8.5532646 13.536238 2.5379479 12
-8.7491846 -17.63887 3.1117365 12
-8.5533581 13.536619 3.1145368 13
-8.7304487 -17.600727 3.8109314 13
-8.5595636 13.546494 3.7016447 14
-8.6837225 13.528468 4.3097615 15
-8.7280645 -17.59565 4.5252061 14
-8.7210274 -17.58116 5.24788 15
-8.1344204 1.1706074 -0.14338018 7
-8.2993317 1.8073729 -0.14813869 7
-8.173377 13.571698 0.27782413 8
-8.1766062 13.577165 0.83199346 9
-8.180522 13.583766 1.3887584 10
-8.1854582 13.592051 1.9497186 11
-8.1943865 13.60707 3.0892906 13
-8.2079439 13.629744 4.2651572 15
-7.7735519 2.0532585e-05 -0.13569798 7
-7.9536071 0.56925213 -0.13916047 7
-7.8268466 13.649982 0.27590233 8
-7.8229189 13.643317 0.8255384 9
-7.8233905 13.644201 1.377417 10
-7.8341031 13.663054 1.935293 11
-7.8380709 13.670014 2.4973311 12
-7.8379636 13.670044 3.0646234 13
-7.8404479 13.674403 3.640837 14
-7.8397927 13.673338 4.2250938 15
-7.3645253 -1.0586888 -0.12992708 7
-7.5576453 -0.54062825 -0.13229369 7
-7.4715295 13.703922 -0.2712695 7
-7.3542562 13.721027 0.27292383 8
-7.3572683 13.726802 0.81742662 9
-7.3590298 13.730318 1.3641587 10
-7.3667922 13.744555 1.9160303 11
-7.3677964 13.746725 2.4716036 12
-7.3697128 13.750466 3.0338812 13
-7.2586622 13.779692 3.5969284 14
-7.489162 13.737151 3.6135709 14
-7.3739491 13.758507 4.1841564 15
-6.9520741 -2.039434 -0.12653971 7
-7.1720533 -1.5593677 -0.12818421 7
-7.0094776 13.78032 0.27099994 8
-7.0106015 13.782685 0.81151021 9
-7.0150785 13.791595 1.3548326 10
-7.0204554 13.802264 1.9024297 11
-7.0252213 13.811739 2.4553721 12
-7.0290298 13.81935 3.0148048 13
-6.9163361 13.841393 3.5733585 14
-6.9139252 13.837019 4.1457872 15
-6.5119061 -2.9683485 -0.12499117 7
-6.7301931 -2.5068059 -0.12543795 7
-6.5589161 13.861755 0.26874346 8
-6.6751022 13.84987 0.80679929 9
-6.6738586 13.847496 1.3458824 10
-6.5709348 13.887525 1.8873055 11
-6.6810102 13.862573 2.4382663 12
-6.6832848 13.867546 2.9932272 13
-6.5741239 13.894787 3.549536 14
-6.0201674 -3.8571138 -0.12484892 7
-6.2765255 -3.4189441 -0.12482039 7
-6.3315997 13.891571 -0.26535794 7
-6.2273502 13.925459 0.26728842 8
-6.1199408 13.952617 0.79936117 9
-6.3397436 13.909688 0.80206954 9
-6.2314348 13.934898 1.3363482 10
-6.2360759 13.945434 1.8764664 11
-6.2356801 13.944501 2.4200621 12
-6.1303959 13.977088 2.9671838 13
-6.2431254 13.961537 3.5314155 14
-6.2463131 13.969056 4.1006451 15
-5.7696948 -4.3028517 -0.12566321 7
-5.8934426 13.975971 0.26571235 8
-5.6833858 14.034724 0.26522329 8
-5.8973837 13.985454 0.79627115 9
-5.6772099 14.019835 0.79346573 9
-5.8999944 13.991806 1.3291991 10
-5.6816821 14.031006 1.3249853 10
-5.7972646 14.026835 1.8641353 11
-5.6803398 14.028173 2.3973813 12
-5.9062438 14.006932 2.4080789 12
-5.9027562 13.998953 2.9534416 13
-5.6870317 14.044787 2.9454949 13
-5.7993698 14.032757 3.505662 14
-5.8000689 14.034589 4.0690989 15
-5.2031894 -5.1742554 -0.12806448 7
-5.4882379 -4.7337098 -0.12651511 7
-5.3456788 4.0199337 -0.11647829 7
-5.2418814 14.089189 -0.2613427 7
-5.366497 4.035501 0.23539141 8.5
-5.3531232 14.079248 0.26378697 8
-5.4070811 4.0658283 0.59329975 10
-5.3563118 14.087724 0.79055601 9
-5.4284921 4.0818386 0.95721447 11.5
-5.3851247 4.0887971 1.4807389 13.666667
-5.3557186 14.086369 1.3189708 10
-5.3577347 14.091945 1.8514333 11
-5.4699421 14.083832 2.3931489 12
-5.3618197 14.103111 2.9327707 13
-5.3680286 14.119445 3.4871564 14
-5.3686738 14.121674 4.0477228 15
-4.8975234 -5.6141996 -0.12999068 7
-4.8767076 4.0090055 -0.10993468 7
-5.0776916 3.9928472 0.22647652 8.5
-4.8774991 4.0096774 0.22140023 8.5
-5.028204 14.129755 0.26258758 8
-5.0047312 3.9948392 0.67479277 10.5
-4.9744325 4.0080967 0.63480699 10.333333
-4.9238901 14.155882 0.78602606 9
-5.0498152 4.0092239 0.9456808 11.666667
-4.9755144 4.0147357 1.361995 13.5
-4.9250946 14.159496 1.3119087 10
-4.9543209 4.0129647 1.7117327 15
-4.9302378 14.174602 1.8427763 11
-4.9280543 14.168589 2.3757956 12
-4.9320583 14.180265 2.917942 13
-5.0461512 14.181288 3.4744997 14
-4.9366865 14.193961 4.0258727 15
-4.5689173 -6.0541577 -0.13230227 7
-4.4174609 0.6372242 -0.23407033 6
-4.4372444 0.96888793 -0.23824902 6
-4.4506617 1.312318 -0.24344423 6
-4.4424615 1.664642 -0.24892105 6
-4.408433 2.0235217 -0.25451514 6
-4.561964 4.1310029 -0.10718295 7
-4.5819492 4.1288261 0.21622093 8.5
-4.6041775 14.211384 0.26147076 8
-4.5565982 4.1357789 0.64851868 10.5
-4.6055183 14.215769 0.78356415 9
-4.5393624 4.1423945 1.0639071 12.4
-4.6272264 4.1043024 1.3740605 13.75
-4.607089 14.220861 1.3079604 10
-4.5606747 4.1298738 1.6521456 15
-4.604918 14.214528 1.8344698 11
-4.5064144 14.256976 2.367738 12
-4.6114707 14.235136 2.9078643 13
-4.5089216 14.265326 3.452961 14
-4.5102944 14.269864 4.0087028 15
-4.2106881 -6.4880767 -0.1348767 7
-4.0592608 -1.035519 -0.2193142 6
-4.2000403 -0.6045866 -0.22218443 6
-4.2727966 -0.30613795 -0.22440979 6
-4.3571095 0.15718366 -0.22869 6
-4.3703141 2.3995645 -0.2615847 6
-4.3063121 2.7840476 -0.2690073 6
-4.209568 3.1716321 -0.27644411 6
-4.1021404 3.579267 -0.28547251 6
-4.332181 4.2988906 -0.1062514 7
-4.1567912 4.5839868 -0.10771478 7
-4.0749493 4.9855108 -0.11204839 7
-4.1901574 5.4721327 -0.1198987 7
-4.1800776 14.281472 -0.25876456 7
-4.3051791 4.3339553 0.21416888 8.5
-4.1407175 4.5972252 0.19533509 8.3999996
-4.0623283 4.9818711 0.26174635 8.666667
-4.1533232 5.4245982 0.23914331 8.5
-4.2855744 14.26327 0.26061812 8
-4.3160572 4.3139868 0.6428827 10.5
-4.1370034 4.5930305 0.67293221 10.6
-4.0492649 4.8816767 0.66746575 10.5
-4.1262865 5.3897233 0.59490943 10
-4.3941827 14.254913 0.78210998 9
-4.3172359 4.3149915 1.0786816 12.5
-4.1381383 4.5638428 1.0513269 12.333333
-4.0492229 5.0398064 0.9479478 11.666667
-4.0988011 5.3542705 0.94919449 11.5
-4.3263726 4.2934113 1.4098337 14
-4.1284065 4.5803022 1.3696965 13.75
-4.0335813 4.9713416 1.3235487 13.333333
-4.0724678 5.3203239 1.4261175 13.5
-4.2884846 14.273384 1.3039218 10
-4.3016582 4.3306427 1.6386708 15
-4.1190448 4.5867763 1.6547507 15
-4.2892308 14.276175 1.8299972 11
-4.1847095 14.298766 2.3589337 12
-4.2930794 14.289518 2.8993056 13
-4.1879783 14.310488 3.440944 14
-4.1931944 14.328447 3.9985056 15
-3.835871 -6.9414668 -0.13825278 7
-3.7030499 -1.8497807 -0.21631773 6
-3.8908741 -1.4500157 -0.21705036 6
-3.9656687 3.995398 -0.29509798 6
-3.8138075 4.4368033 -0.3065964 6
-3.608932 4.8631477 -0.31724274 6
-3.6882565 -7.9626508 0.15213239 8
-3.8665876 14.343359 0.25986689 8
-3.7487822 -22.975563 0.40546098 8
-3.6823709 -7.9496603 0.60976833 9.5
-3.8687959 14.351912 0.77918708 9
-3.6813879 -7.9473424 1.07063 11
-3.7429185 -22.938095 1.2159945 9
-3.6038287 -7.9254146 1.372927 12
-3.8661096 14.342211 1.2993771 10
-3.6784658 -7.9407382 1.6937498 13
-3.8706775 14.359437 1.8254783 11
-3.7422757 -22.933023 2.0297148 10
-3.6733184 -7.929409 2.0088925 14
-3.870558 14.359403 2.3545294 12
-3.7362838 -22.894756 2.8439367 11
-3.8705561 14.359698 2.8895299 13
-3.8745 14.374397 3.4353147 14
-3.7320678 -22.867502 3.6642191 12
-3.9783602 14.351971 3.9885368 15
-3.7714608 14.401421 3.9866438 15
-3.7267971 -22.833694 4.4903984 13
-3.437608 -7.4171047 -0.14246111 7
-3.3341413 -2.4843245 -0.21684027 6
-3.4891577 -2.2344682 -0.21619776 6
-3.3863142 5.3193092 -0.33020431 6
-3.4654586 -7.9164886 0.14983407 8
-3.5496869 14.387915 0.25915888 8
-3.3428996 14.432795 0.25903276 8
-3.4605479 -23.290344 0.41018468 8
-3.464865 -7.914834 0.60141379 9.5
-3.4479795 14.417409 0.77692169 9
-3.4643424 -7.9135098 1.0559471 11
-3.4541626 -23.245567 1.2296662 9
-3.3917041 -7.8994498 1.3555714 12
-3.5516424 14.396537 1.2969091 10
-3.3421249 14.430375 1.2954146 10
-3.457449 -7.8973184 1.8250705 13.5
-3.451278 14.431895 1.8211316 11
-3.4492099 -23.210564 2.0498507 10
-3.491842 -7.898458 2.3041813 15
-3.454407 14.44517 2.3511119 12
-3.4477441 -23.199339 2.8755355 11
-3.4544182 14.445745 2.8854043 13
-3.4555106 14.450858 3.4281194 14
-3.4440801 -23.173107 3.7051351 12
-3.5616302 14.438529 3.9821599 15
-3.4392786 -23.139116 4.5405765 13
-3.4346807 -23.106493 5.3853416 14
-3.4312134 -23.081568 6.2436032 15
-2.9808099 -7.8437333 -0.14616624 7
-2.8104701 -3.2136455 -0.22234245 6
-2.9854522 -2.9632311 -0.21915011 6
-3.1738794 -2.7338817 -0.21835071 6
-2.8014255 -0.82316774 -0.25457978 5
-2.9062345 -0.52516907 -0.25801814 5
-2.9664693 -0.21288513 -0.2600016 5
-3.016556 0.10904274 -0.26435271 5
-3.0358248 0.55183423 -0.27055061 5
-3.0010493 1.0072303 -0.2777859 5
-2.9080138 1.4700881 -0.28603891 5
-2.8103788 1.8249899 -0.29395282 5
-3.1353123 5.8015313 -0.34519905 6
-2.8301053 6.2687969 -0.35990772 6
-3.1338942 14.466632 -0.25748503 7
-3.0015693 -7.8394647 0.14559856 8
-3.0300694 14.486747 0.2587083 8
-3.0126467 -23.762428 0.41740379 8
-3.0786366 -7.8473172 0.58676785 9.5
-3.0319564 14.496089 0.77601576 9
-3.0002377 -7.8356295 1.0256344 11
-2.8565943 -23.882904 1.2587861 9
-3.1562183 -23.540497 1.242871 9
-3.0775094 -7.8442039 1.32871 12
-3.0331972 14.502135 1.2955946 10
-3.0279255 -7.8302007 1.7471037 13.4
-3.033365 14.503556 1.8182095 11
-2.8514681 -23.83773 2.0974872 10
-3.1542847 -23.524475 2.0735302 10
-2.991761 -7.8123469 2.2319393 15
-3.0341594 14.508011 2.3459177 12
-2.8498824 -23.822649 2.941864 11
-3.1518075 -23.504328 2.9076397 11
-3.0351257 14.513281 2.8799772 13
-3.1419275 14.506446 3.4241047 14
-2.8467882 -23.794741 3.7904022 12
-3.1487648 -23.479889 3.7468224 12
-3.0380478 14.527727 3.9737182 15
-2.8439181 -23.768717 4.6467772 13
-3.1454697 -23.453533 4.5932341 13
-2.8391721 -23.726728 5.5093031 14
-3.1411736 -23.41958 5.4475756 14
-2.8366854 -23.703926 6.3880506 15
-3.1356649 -23.376431 6.3109093 15
-2.5913293 -3.4222515 -0.22347511 6
-2.5646799 -1.3963976 -0.25432572 5
-2.7455728 -1.0237366 -0.25524902 5
-2.6848779 2.1909742 -0.30408904 5
-2.5113575 2.5454791 -0.3134124 5
-2.4844742 6.7487335 -0.37618175 6
-2.6446693 -7.7736135 0.14244516 8
-2.6145828 14.563262 0.25853199 8
-2.5492003 -24.236492 0.42479941 8
-2.6779356 -7.7799597 0.57274586 9.5
-2.6154449 14.568568 0.7754131 9
-2.6454551 -7.7755647 1.0038708 11
-2.5455575 -24.199335 1.2735384 9
-2.6573064 -7.7643542 1.4408153 12.5
-2.6177621 14.581997 1.2952895 10
-2.6742904 -7.7684999 1.888461 14
-2.6175008 14.580726 1.8174754 11
-2.5437245 -24.179726 2.1243198 10
-2.6397176 -7.7575502 2.1859548 15
-2.5147772 14.607922 2.3455491 12
-2.5403452 -24.145117 2.9770854 11
-2.6188955 14.589787 2.8787179 13
-2.6191919 14.591993 3.4195094 14
-2.5375631 -24.116287 3.8356755 12
-2.6222811 14.609167 3.9733305 15
-2.5360646 -24.099884 4.7042093 13
-2.5301061 -24.040241 5.573422 14
-2.5277925 -24.015894 6.4620485 15
-2.3310311 -7.7377124 -0.14065984 7
-2.2591808 -3.7506964 -0.22800267 6
-2.1084127 -2.0888464 -0.25723168 5
-2.2927973 -1.8362983 -0.25502005 5
-2.0463181 -0.93343323 -0.27417758 4
-2.1778462 -0.59780085 -0.27657384 4
-2.2576804 -0.24371678 -0.27854037 4
-2.3090367 0.20945315 -0.28551912 4
-2.2837768 0.58925933 -0.29062134 4
-2.2021329 1.02036 -0.29967892 4
-2.0455966 1.4430753 -0.30879441 4
-2.3769438 2.7840912 -0.32070524 5
-2.2120385 3.0040545 -0.32664898 5
-2.0453515 3.2415404 -0.33539435 5
-2.0947461 7.2439404 -0.39432365 6
-2.0966687 14.668732 -0.25786254 7
-2.2252429 -7.7097721 0.13927701 8
-2.1995227 14.643002 0.25861871 8
-2.2232866 -7.7029853 0.55819809 9.5
-2.1980648 14.634116 0.77507067 9
-2.2224648 -7.7000828 0.97966069 11
-2.2199798 -7.6906438 1.4056027 12.5
-2.2002661 14.649208 1.2949111 10
-2.2194211 -7.6883764 1.8393996 14
-2.2006695 14.652041 1.8174858 11
-2.2192881 -7.687964 2.1347473 15
-2.2029104 14.667331 2.3467581 12
-2.201961 14.66234 2.8790133 13
-2.2044151 14.679173 3.4232886 14
-2.2038176 14.675578 3.972075 15
-1.6527728 7.7425942 -0.41388601 6
-1.8711684 -8.3030977 -0.14809269 7
-1.7662681 -4.1633611 -0.23544107 6
-1.7460791 -2.4746416 -0.26232499 5
-1.9622573 -2.2380197 -0.25780383 5
-1.624848 -1.6067455 -0.27705187 4
-1.8162301 -1.350399 -0.27539116 4
-1.9862741 -1.0816506 -0.2753773 4
-1.7303904 -0.6109786 -0.28911123 3
-1.802429 -0.32667029 -0.28927827 3
-1.8505632 0.268875 -0.29687786 3
-1.8125703 0.57619047 -0.30305183 3
-1.6882255 0.97987801 -0.31136116 3
-1.8696696 1.7746916 -0.31776404 4
-1.6525946 2.0998554 -0.32897943 4
-1.8583121 3.474314 -0.34453899 5
-1.6455319 3.6899862 -0.35304499 5
-1.6889589 -9.3509941 0.16520603 8
-1.752224 -8.9644814 0.15875638 8
-1.8106644 -8.6065245 0.15281467 8
-1.8661032 -8.2798176 0.14742929 8
-1.9190302 -7.9806085 0.14253458 8
-1.7812524 14.703074 0.2585628 8
-1.6850722 -9.3284874 0.49497154 9
-1.7441745 -8.9217138 0.63311929 9.5
-1.8027099 -8.5673256 0.60981733 9.5
-1.8568302 -8.2373037 0.58791232 9.5
-1.9079006 -7.9329314 0.56798494 9.5
-1.7831653 14.71976 0.77641654 9
-1.6749382 -9.270257 0.98659402 10.5
-1.7385471 -8.8916559 1.1081984 11
-1.7942843 -8.5258369 1.0654907 11
-1.8474189 -8.1941652 1.0270445 11
-1.9012645 -7.9043517 0.99384677 11
-1.6714994 -9.2500973 1.4834263 12
-1.7345774 -8.8704739 1.4261186 12
-1.7931768 -8.5201273 1.3735256 12
-1.8461777 -8.1882477 1.3239003 12
-1.8935236 -7.8710752 1.4215199 12.5
-1.6791816 14.741796 1.2966328 10
-1.6665053 -9.2212906 1.8148959 13
-1.7300066 -8.8461332 1.7454368 13
-1.7846781 -8.4782763 1.8344707 13.5
-1.83784 -8.1499786 1.768662 13.5
-1.8852588 -7.8355684 1.8525113 14
-1.7841517 14.729046 1.8196665 11
-1.6910275 -8.9939976 2.1050227 14
-1.7464322 -8.6060829 2.343874 15
-1.8275138 -8.1026773 2.2163382 15
-1.8829579 -7.825532 2.1473124 15
-1.7847174 14.73475 2.3480535 12
-1.6554856 -9.1578093 2.4845555 15
-1.7847283 14.736156 2.8818791 13
-1.7861769 14.748758 3.4257076 14
-1.7862725 14.7499 3.9761784 15
-1.3602151 -4.4615331 -0.24267384 6
-1.3189594 -2.8048627 -0.26813713 5
-1.492385 -2.670712 -0.26469472 5
-1.4267429 -1.8065426 -0.27921882 4
-1.3187238 -1.301589 -0.28934485 3
-1.4436944 -0.97000349 -0.29057032 2.6666667
-1.2926472 -0.61977702 -0.29934978 1.5
-1.4025681 -0.30677637 -0.30162612 1.5
-1.4296328 0.31591493 -0.31076038 1.5
-1.2961291 0.6642139 -0.31902528 1.3333334
-1.3166764 0.9751845 -0.3210986 2
-1.4346642 1.4402064 -0.32426652 3
-1.2338753 1.7022407 -0.33377206 3
-1.4566381 2.3293517 -0.33758602 4
-1.3085392 2.4724021 -0.34339678 4
-1.4173102 3.9078794 -0.36296725 5
-1.4697615 14.772448 0.2590766 8
-1.2613224 14.819501 0.25950041 8
-1.4702891 14.778656 0.77752846 9
-1.262201 14.830688 0.77914745 9
-1.4703922 14.780759 1.2979572 10
-1.261277 14.821574 1.2997024 10
-1.4709954 14.787713 1.8223232 11
-1.261471 14.825063 1.824361 11
-1.4714115 14.792869 2.3514087 12
-1.2618167 14.830275 2.3540583 12
-1.4701207 14.781484 2.8835123 13
-1.2629642 14.844538 2.891782 13
-1.3680123 14.828261 3.433182 14
-1.2627287 14.844604 3.9861729 15
-1.1552066 8.2460232 -0.43519339 6
-1.0665778 -4.6505628 -0.24827006 6
-1.0359026 -2.9815316 -0.27324471 5
-1.0440336 -2.1094167 -0.28516749 4
-0.92678589 -1.6399672 -0.29280901 3
-1.0036495 -1.4098209 -0.2968713 2.5
-0.99847484 -0.98077089 -0.30313393 1.2
-1.032704 -0.659356 -0.30690968 0.33333334
-1.1401193 0.25305951 -0.31464803 0
-1.0395278 0.69030803 -0.32466143 0.25
-0.95299429 0.99391502 -0.33266443 0.75
-0.97613567 1.4157953 -0.33688438 2
-1.0688776 1.8738019 -0.34209302 3
-0.88204312 2.0278747 -0.34973624 3
-1.0660586 2.6800394 -0.35371608 4
-1.0289464 4.200768 -0.37743172 5
-1.0502733 14.840775 -0.25903541 7
-0.94559175 14.868258 0.25985461 8
-1.0513541 14.85842 0.77964151 9
-0.94582194 14.874636 1.3021213 10
-0.94623852 14.883112 1.8283957 11
-0.94688791 14.895057 2.3603499 12
-0.94581288 14.880375 2.8938737 13
-0.94695067 14.899608 3.441504 14
-0.94715351 14.903652 3.9953156 15
-0.59571016 8.7327242 -0.45739913 6
-0.73165941 -3.1301503 -0.27819529 5
-0.64155585 -2.3334751 -0.29300612 4
-0.6442585 -1.8197784 -0.30105001 3
-0.64957577 -1.4103887 -0.30791456 1.75
-0.67208982 -1.0565348 -0.31152189 0.33333334
-0.57815999 1.1435382 -0.34450617 0
-0.5117929 1.3458333 -0.34861755 0.66666669
-0.55996048 1.7215188 -0.35102034 2
-0.56139594 2.219353 -0.36137938 3
-0.69879287 2.9170647 -0.36696973 4
-0.60035592 4.4610147 -0.39210266 5
-0.63013476 14.964058 4.0064163 15
-0.17221335 4.631125 -0.4081085 5
-0.38882735 -1.4633034 -0.31253743 1.5
-0.34132919 -1.1671653 -0.31651992 0
-0.13801183 1.4299717 -0.36059374 0.5
-0.14169039 1.8680612 -0.36758593 2
-0.1440265 2.3463066 -0.37497684 3
-0.22210453 3.1040771 -0.38396719 4
0.38285869 3.1665773 -0.40361941 4
0.29652765 4.7632337 -0.42532611 5
0.048635405 9.0956469 -0.48114434 6
0.26308581 -5.2641511 -0.27453953 6
0.15121531 -3.4361374 -0.29835418 5
0.19757397 -2.5668583 -0.31304058 4
0.17916319 -2.0311208 -0.31949788 3
0.1377755 -1.6876788 -0.32481316 2
0.17999414 -1.369234 -0.33023605 0.66666669
0.16655035 1.4317342 -0.37375343 0.66666669
0.26912853 1.8367285 -0.38169074 2
0.24661826 2.3527954 -0.39016554 3
0.14323755 3.1479604 -0.39787251 4
0.7929703 2.2945073 -0.40344989 3
0.63306427 3.1948426 -0.41280785 4
0.66371989 4.8441725 -0.43615204 5
0.74945754 9.535923 -0.50582463 6
0.71471483 37.619198 -0.65945286 7
0.71031666 -11.266383 -0.19605528 7
0.54264009 -11.128723 -0.19353029 7
0.69443971 -5.4046817 -0.28394392 6
0.55335295 -3.5001388 -0.30800882 5
0.57679564 -2.5770226 -0.32196909 4
0.59005731 -2.0296597 -0.33256105 3
0.53270233 -1.6591026 -0.33683512 2
0.5912478 -1.2825613 -0.34260082 0.66666669
0.62047696 -1.1296902 -0.34693229 0
0.66455412 1.0971352 -0.38146803 0
0.53291506 1.3641516 -0.38149223 0.75
0.66075259 1.7664543 -0.39083555 2
0.5188182 2.3349433 -0.39646938 3
1.0573759 2.2053502 -0.40781215 3
1.0019492 3.1468353 -0.41984665 4
0.99807817 4.7051368 -0.42971358 5
1.1114165 -5.5198154 -0.29352364 6
0.94867098 -3.5322249 -0.31818229 5
0.96417588 -2.553848 -0.33392814 4
0.92060244 -1.9493712 -0.34135878 3
0.99629098 -1.4828657 -0.35058135 2
0.93774962 -0.97230744 -0.3566978 0.25
1.1412536 -0.64652193 -0.36784708 0
1.1339204 0.64840126 -0.38788667 0
1.0293444 0.92006922 -0.38803065 0.33333334
1.0354589 1.3825552 -0.39384368 1.5
0.93596882 1.6618569 -0.39687082 2
0.81247997 5.7333236 -0.30820191 6
1.0199939 6.9736748 -0.12406561 7
1.5794772 1.1584898 -0.40800878 2
1.3608389 1.3648957 -0.40272009 2
1.4042645 2.0553219 -0.4158299 3
1.376701 3.0789845 -0.42912209 4
1.3814329 4.7472553 -0.44190517 5
1.5546678 -5.6237407 -0.30429679 6
1.3628783 -3.5243459 -0.3294946 5
1.3507934 -2.4596257 -0.34453169 4
1.3872491 -1.7474984 -0.3563439 3
1.315155 -1.2683176 -0.36089543 2
1.43425 -1.0519716 -0.36915019 1.75
1.3434815 -0.58373195 -0.37290785 0.66666669
1.4627124 -0.25121668 -0.38215744 0.66666669
1.4272771 0.20512117 -0.38857934 0.5
1.3787686 0.58858258 -0.39166906 0.75
1.2330688 5.6778131 -0.30939934 6
1.5897506 7.1541924 -0.12875417 7
1.4787002 -28.455511 0.49793544 8
1.4764422 -28.418213 1.4910008 9
1.4732273 -28.363199 2.4835424 10
1.4713813 -28.333555 3.4814291 11
1.4688253 -28.290779 4.483747 12
1.4661208 -28.245295 5.4936781 13
1.4634069 -28.199686 6.514183 14
1.4614556 -28.168262 7.5518689 15
1.8880489 0.52338648 -0.40604463 2
1.7085867 0.93016535 -0.40548077 2
1.9925371 1.5716087 -0.42403626 3
1.7124041 1.8335453 -0.41947556 3
1.7356341 2.9431467 -0.43548208 4
1.7860686 4.7833171 -0.45640525 5
1.6167097 -11.973337 -0.20968948 7
1.7814438 -3.4650795 -0.34012571 5
1.7367163 -2.3119607 -0.35643229 4
1.7864261 -1.4599696 -0.37164551 3
1.6701181 -0.86576855 -0.3771852 2
1.7850977 -0.65087414 -0.38411653 2
1.8978136 -0.28106418 -0.39119354 2
1.9341193 0.12065112 -0.39855686 2
1.7046206 5.7620583 -0.31992543 6
1.9157567 -28.907881 0.5064044 8
1.9135264 -28.878881 1.5166119 9
1.9096992 -28.826513 2.5264406 10
1.9065841 -28.78459 3.5400689 11
1.9031194 -28.737566 4.558671 12
1.899992 -28.695505 5.5862617 13
1.8975928 -28.664152 6.6274123 14
1.8933262 -28.605495 7.6759415 15
2.3799751 -0.60686481 -0.40158102 3
2.3000021 1.0875145 -0.42406195 3
2.1456289 1.3292872 -0.42124212 3
2.2065077 2.714314 -0.44596508 4
2.2257223 4.832428 -0.47542277 5
2.0209656 -5.698523 -0.31547287 6
2.2289913 -3.3862672 -0.35478309 5
2.1311557 -2.1229157 -0.37228394 4
2.399369 -1.9251999 -0.38164511 4
2.0309851 -1.2208425 -0.38321796 3
2.1718345 -1.0019977 -0.38874349 3
2.3116751 -0.77350485 -0.39750168 3
2.2129881 5.8534689 -0.33301812 6
2.2060549 7.3365459 -0.13430743 7
2.3700721 -29.402657 0.51574218 8
2.3646247 -29.339849 1.5426021 9
2.3604751 -29.292736 2.5701966 10
2.3570902 -29.254887 3.6019213 11
2.3544166 -29.225676 4.641242 12
2.3491182 -29.164715 5.6838722 13
2.3442724 -29.109259 6.73773 14
2.3413789 -29.077478 7.8111663 15
2.4324458 -0.43317309 -0.40502 3
2.4746649 -0.25461629 -0.4088074 3
2.5142393 0.17093702 -0.41652125 3
2.482388 0.54687518 -0.42173368 3
2.4076052 0.8219738 -0.42289984 3
2.7139561 2.2948198 -0.45261562 4
2.5239789 2.4789939 -0.45066401 4
2.6426344 4.7753358 -0.48763302 5
2.6606464 -12.761501 -0.22607785 7
2.5113022 -5.7465572 -0.32736069 6
2.688874 -3.2651191 -0.37060201 5
2.6592565 -1.6960952 -0.39272758 4
2.7685728 5.9537644 -0.34914735 6
2.9521651 -1.3296338 -0.40474293 4
3.1534891 -1.0257273 -0.4153935 4
3.1156604 1.767507 -0.45579761 4
2.9101896 2.1105788 -0.45746851 4
3.040808 4.6507077 -0.49639761 5
3.0460732 -5.8032212 -0.34227017 6
2.9768813 -3.1296213 -0.37891388 5
2.8846691 7.5371561 -0.1411604 7
2.8395729 -29.897406 0.52521187 8
2.8338273 -29.840889 1.5710838 9
2.8285501 -29.789207 2.6172438 10
2.8227763 -29.73241 3.6655493 11
2.8205409 -29.712099 4.7246895 12
2.8131132 -29.638287 5.7837272 13
2.8090589 -29.599274 6.8601017 14
2.8033748 -29.543499 7.946701 15
3.5817001 -2.8192003 -0.40080225 5
3.2612898 -0.80380034 -0.42149729 4
3.3545644 -0.57120144 -0.42772835 4
3.4223394 -0.32803896 -0.4328596 4
3.4938669 0.2561712 -0.44289386 4
3.4930427 0.64818299 -0.44968319 4
3.4165599 1.0354283 -0.45299226 4
3.3094907 1.4187052 -0.45721132 4
3.4230576 4.4787736 -0.50349414 5
3.5939281 -5.7997475 -0.35646167 6
3.2736382 -2.9814651 -0.38890377 5
3.3661766 6.0328074 -0.36700428 6
3.3239207 -30.38695 0.53472823 8
3.3193882 -30.348684 1.6003263 9
3.3126869 -30.29096 2.6654251 10
3.3074036 -30.24597 3.7345583 11
3.3033743 -30.212255 4.8115234 12
3.297277 -30.159998 5.8944588 13
3.2904789 -30.101465 6.9870424 14
3.2838407 -30.044399 8.0936356 15
3.8713076 -2.6196256 -0.41148621 5
3.7972708 4.2771945 -0.51069498 5
3.8763638 -13.636765 -0.24566841 7
3.6405013 7.7548571 -0.14948557 7
3.8308611 -30.932802 0.54538268 8
3.823319 -30.87508 1.6309764 9
3.8153362 -30.81386 2.7161732 10
3.8097434 -30.771639 3.8060517 11
3.8054609 -30.739836 4.9039965 12
3.7985563 -30.687218 6.0078263 13
3.7888525 -30.612381 7.1178455 14
3.7823522 -30.56303 8.2474823 15
4.1438293 -2.3885484 -0.42151341 5
4.1393247 4.0252781 -0.51536644 5
4.1780052 -5.7753892 -0.37254831 6
4.0355811 6.125536 -0.3892138 6
4.356102 -31.485022 0.55630505 8
4.3475804 -31.426348 1.6633919 9
4.3398218 -31.3731 2.770874 10
4.3304491 -31.308374 3.8799543 11
4.3251338 -31.272551 4.9986286 12
4.3166666 -31.214289 6.1228008 13
4.3093333 -31.164131 7.2600932 14
4.3010974 -31.107561 8.410573 15
4.4217329 -2.1398234 -0.43335322 5
4.6704726 -1.8572819 -0.44384971 5
4.7670174 3.4390903 -0.52416247 5
4.4678802 3.7491815 -0.52036673 5
4.7764311 6.2058215 -0.41494459 6
4.494081 7.9930606 -0.15960701 7
5.0030389 -1.3825076 -0.45931211 5
5.0134425 3.0866685 -0.52475476 5
4.8011417 -5.7246127 -0.39062276 6
4.9015937 -32.052582 0.56766218 8
4.8922524 -31.994183 1.697162 9
4.8836088 -31.940281 2.8270683 10
4.8734012 -31.876289 3.9588263 11
4.873208 53.032898 4.6685615 10
4.8653803 -31.826427 5.0980573 12
4.8578577 -31.779793 6.2470522 13
4.8986406 53.315052 6.5864639 11
4.8469281 -31.711187 7.4032998 14
4.8368559 -31.64814 8.5749645 15
4.9199257 53.553734 8.5338392 12
4.941174 53.792294 10.51968 13
4.9630203 54.037502 12.551052 14
5.4252787 -5.6003628 -0.4077895 6
5.3099775 -0.86389959 -0.47633517 5
5.4395199 -0.48432249 -0.4839541 5
5.5554438 1.9213051 -0.5230006 5
5.4212518 2.3296533 -0.52530551 5
5.2405066 2.7204878 -0.52597022 5
5.307652 -14.611558 -0.26914769 7
5.4910493 8.2834358 -0.17252962 7
5.4704285 -32.647964 0.57968587 8
5.4588323 -32.581352 1.7324617 9
5.4487963 -32.523941 2.885556 10
5.4410052 -32.479771 4.0432906 11
5.5496182 52.218304 4.6041584 10
5.431416 -32.425007 5.2061515 12
5.4210811 -32.365856 6.3771844 13
5.5480704 52.216 6.4607854 11
5.4110022 -32.308231 7.5603638 14
5.5494499 52.240604 8.3375196 12
5.3989758 -32.239151 8.7555466 15
5.5524082 52.279819 10.239717 13
5.5516996 52.285625 12.162923 14
5.6280584 0.23597859 -0.49986157 5
5.6703548 0.65258974 -0.50686157 5
5.6741652 1.0755103 -0.51319319 5
5.6311307 1.4986814 -0.51814932 5
5.6207767 6.2905712 -0.44629505 6
5.9953856 -32.908108 7.720397 14
5.9829712 -32.842476 8.9421482 15
6.1181183 -5.4696207 -0.42930362 6
6.0642548 -33.271694 0.59239745 8
6.0501084 -33.196602 1.7697911 9
6.0394959 -33.14069 2.9478681 10
6.0268588 -33.073788 4.1278124 11
6.3199615 52.33429 4.6225352 10
6.0197773 -33.037056 5.3180084 12
6.009191 -32.981308 6.5150638 13
6.3206201 52.350117 6.4886069 11
6.3226128 52.376846 8.373601 12
6.3231759 52.392124 10.279204 13
6.3225474 52.397915 12.209721 14
6.5893683 6.3706498 -0.4840793 6
6.6383414 8.5819044 -0.18786566 7
6.685605 -33.928452 0.60589385 8
6.6698871 -33.851086 1.8097831 9
6.6584105 -33.795021 3.0144708 10
6.6418166 -33.713257 4.2193198 11
6.6357274 -33.684277 5.4372282 12
6.6226349 -33.620129 6.6596375 13
6.6098361 -33.557465 7.8945079 14
6.596066 -33.489944 9.1436243 15
6.8046274 -5.2561665 -0.44989449 6
7.0257297 -15.733501 -0.29803762 7
7.0956922 52.445667 4.6415081 10
7.0973482 52.467072 6.5157185 11
7.0979462 52.480907 8.4063673 12
7.099926 52.504864 10.321007 13
7.1025262 52.533455 12.264588 14
7.5513062 -5.0104642 -0.47425297 6
7.3300352 -34.58876 0.61966121 8
7.3174386 -34.53141 1.8517658 9
7.304245 -34.471268 3.0840361 10
7.2888389 -34.40078 4.318253 11
7.2776732 -34.350132 5.5612597 12
7.2640166 -34.287838 6.8121414 13
7.2513561 -34.230225 8.0767488 14
7.2349339 -34.155045 9.352951 15
7.7302017 6.4543719 -0.53093815 6
7.9958601 -35.244373 1.8961474 9
7.9776554 -35.166302 3.1563509 10
7.9617677 -35.098362 4.4199476 11
7.8777761 52.557812 4.6615667 10
7.9497218 -35.047222 5.6922698 12
7.8817639 52.59248 6.5453124 11
7.9348764 -34.983852 6.972621 13
7.9195948 -34.918594 8.2654572 14
7.8805275 52.592999 8.4422598 12
7.8997602 -34.833466 9.5691338 15
7.8869658 52.643902 10.370247 13
7.8887353 52.664337 12.321084 14
8.2937927 -4.6821113 -0.49847984 6
8.0293369 8.9500313 -0.20764978 7
8.0105085 -35.306915 0.63468689 8
8.7213593 -36.047146 0.65034688 8
8.7054911 -35.983505 1.9426277 9
8.6915216 -35.927666 3.2357686 10
8.6745224 -35.859402 4.5312395 11
8.6710443 52.697323 4.6850891 10
8.6584463 -35.794926 5.8335586 12
8.6708279 52.703846 6.5746164 11
8.6392994 -35.717876 7.143188 13
8.6193571 -35.637577 8.4643707 14
8.6740398 52.730934 8.4841747 12
8.6014786 -35.565758 9.8035517 15
8.6765251 52.753773 10.416061 13
8.6783867 52.772995 12.375125 14
9.0704718 -4.2922883 -0.52524513 6
9.0851717 6.528656 -0.58876866 6
9.1437044 -17.076992 -0.33470476 7
9.5853596 -4.5307474 -0.18189247 7
9.5275192 -4.1365747 -0.17819048 7
9.5980587 -4.5366869 0.19078554 8
9.5324144 -4.1386991 0.18695883 8
9.4718552 -36.839531 0.667202 8
9.5379229 -4.141139 0.55297279 9
9.5437117 -4.1027465 0.91936386 10
9.5566845 -4.1081829 1.2902633 11
9.5291891 -3.8568461 1.2755307 11
9.4539442 -36.771778 1.9925011 9
9.5725698 -4.1149492 1.6658623 12
9.582963 -4.1193323 2.0456963 13
9.5487738 -3.8647168 2.2102358 13.5
9.5745096 -4.034812 2.4196031 14
9.5669441 -3.8719809 2.7894678 15
9.5856342 -4.0394516 2.8108039 15
9.4324055 -36.690029 3.3164985 10
9.4129486 -36.616306 4.6437168 11
9.3972836 -36.557247 5.979424 12
9.3766108 -36.478855 7.3218236 13
9.3562021 -36.401493 8.677124 14
9.6956491 -3.762368 -0.54444009 6
9.7355633 -5.3886523 -0.19095965 7
9.6654644 -4.9965529 -0.18669897 7
9.6150055 -4.7131777 -0.1837181 7
9.7089911 -3.7674723 -0.17860693 7
9.7507935 9.3971424 -0.23326005 7
9.78405 -5.690577 0.20285362 8
9.74932 -5.3963027 0.19984902 8
9.6777592 -5.0030041 0.19556813 8
9.6396437 -4.7250772 0.19283862 8
9.6946135 -3.762068 0.18725857 8
9.8013306 -5.7005305 0.60151213 9
9.7494831 -5.3963652 0.59142286 9
9.688324 -5.0083151 0.57917327 9
9.6307993 -4.6364522 0.56794608 9
9.8414583 -3.736176 0.56014466 9
9.8219738 -5.7124057 1.003378 10
9.7757616 -5.4107375 0.98707098 10
9.7083864 -5.018558 0.96596259 10
9.6376467 -4.5983262 0.94441438 10
9.8306856 -3.7322404 0.93107015 10
9.8280077 -5.7159333 1.4073136 11
9.7823935 -5.4144964 1.3845025 11
9.7128325 -5.0209832 1.35456 11
9.6364918 -4.5979424 1.323542 11
9.9802923 -3.7075281 1.3211551 11
9.832634 -5.7186575 1.8149713 12
9.7868261 -5.4170556 1.785504 12
9.7169971 -5.0231233 1.7468092 12
9.6570206 -4.6075783 1.7096533 12
9.8224936 -3.7293046 1.6805564 12
9.8492365 -5.7282252 2.2302372 13
9.7915773 -5.4196539 2.1913941 13
9.7357349 -5.0327559 2.1469524 13
9.6612005 -4.6095695 2.0981472 13
9.9639292 -3.7016819 2.0855162 13
9.8098154 -5.4295363 2.6067688 14
9.7440624 -5.0370231 2.5513501 14
9.6836615 -4.6618247 2.5009153 14
9.6218777 -4.2993121 2.4534693 14
9.9735861 -3.7052343 2.4785521 14
9.8280869 -5.4395528 3.0303924 15
9.7642727 -5.047369 2.9665716 15
9.6917133 -4.6656156 2.904331 15
9.6273746 -4.301734 2.8484869 15
9.9413157 -3.6935709 2.8667421 15
10.173946 -3.6941571 -0.18557252 7
10.163754 -3.6905835 0.19476211 8
10.258691 -37.661476 0.68486476 8
10.300959 -3.6573431 0.58166063 9
10.299319 -3.6568189 0.96769446 10
10.297961 -3.6563923 1.3560218 11
10.211731 23.892445 1.3743361 9
10.292848 -3.6546636 1.7469739 12
10.239643 -37.593388 2.0449743 9
10.298047 -3.6565125 2.1440334 13
10.237066 23.952454 2.2961397 10
10.13 24.668045 2.3500729 10
10.274676 -3.6484532 2.5399265 14
10.261462 -3.6439152 2.9434106 15
10.216726 -37.511223 3.4038548 10
10.252573 23.989748 3.225126 11
10.14394 24.703115 3.3005266 11
10.277444 24.048721 4.168705 12
10.175995 24.781803 4.2693162 12
10.194705 -37.432293 4.7655115 11
10.301647 24.106174 5.1269665 13
10.198234 24.836893 5.2498903 13
10.17471 -37.360775 6.1343718 12
10.321278 24.153072 6.1000652 14
10.216692 24.882914 6.24579 14
10.156058 -37.294151 7.5142407 13
10.132866 -37.210991 8.904151 14
10.611717 -3.2603428 -0.58110082 6
10.745977 6.5995617 -0.66244584 6
10.660514 -3.6114187 -0.19290444 7
10.663726 -3.6125252 0.20282733 8
10.634162 -3.6027834 0.59746712 9
10.632303 -3.6022108 0.99395257 10
10.61952 -3.5980239 1.3913261 11
10.491481 23.606129 1.3666755 9
10.623509 -3.5993874 1.7939955 12
10.626972 -3.6005778 2.201344 13
10.50049 23.627535 2.2795577 10
10.608527 -3.5945175 2.6091931 14
10.603798 -3.5929983 3.0261953 15
10.504436 23.637674 3.1981566 11
10.507399 23.645643 4.1250648 12
10.512291 23.657925 5.0638127 13
10.513035 23.660986 6.0139999 14
10.514158 23.664932 6.980124 15
11.027901 -3.5582659 -0.19854857 7
11.01898 -3.5554979 0.20860402 8
11.089026 -38.531044 0.7036854 8
11.00033 -3.5496612 0.61507362 9
10.997096 -3.5486834 1.0230989 10
10.986816 -3.5454855 1.4324905 11
10.933466 23.677362 1.3799553 9
10.969789 -3.5401599 1.843541 12
11.067931 -38.459557 2.1007221 9
10.983378 -3.5444865 2.2641771 13
10.946009 23.705559 2.302223 10
10.965779 -3.5389822 2.684015 14
10.938086 -3.5302958 3.1065507 15
11.043323 -38.375946 3.4965703 10
10.949011 23.71331 3.2295437 11
10.944449 23.704876 4.1626134 12
11.02031 -38.297848 4.8955836 11
10.95296 23.724466 5.111424 13
10.999566 -38.227581 6.3022351 12
10.961268 23.743643 6.0746136 14
10.976699 -38.149994 7.7179179 13
10.946967 -38.048721 9.1415749 14
11.353587 -2.6120729 -0.60983402 6
11.390075 -3.4935906 -0.20408781 7
11.390801 -3.4938514 0.21468212 8
11.383563 -3.4917226 0.6335898 9
11.374279 -3.4889817 1.0533301 10
11.360725 -3.4849615 1.4744287 11
11.385889 23.753736 1.3939942 9
11.347084 -3.4809146 1.89816 12
11.355591 -3.4835052 2.3301222 13
11.394156 23.772091 2.3245409 10
11.335345 -3.4774804 2.7616847 14
11.325214 -3.4744871 3.2016227 15
11.385777 23.756071 3.2575164 11
11.398539 23.783728 4.2049727 12
11.408291 23.805185 5.1637821 13
11.406731 23.803295 6.1313744 14
11.804401 -18.692265 -0.38156539 7
11.969361 -39.460327 0.7239114 8
11.849072 23.834686 1.4087815 9
11.946273 -39.385986 2.1606781 9
11.848658 23.835102 2.347296 10
11.912212 -39.275707 3.593986 10
11.855068 23.849129 3.2934659 11
11.860843 23.861893 4.2486577 12
11.888811 -39.20034 5.0324893 11
11.85591 23.853342 5.2108307 13
11.869237 23.881197 6.1948943 14
11.867788 -39.132778 6.4791498 12
11.843314 -39.053917 7.9346447 13
11.811731 -38.951767 9.3986158 14
12.088609 -1.8785666 -0.64036137 6
12.78723 -1.0535952 -0.67158031 6
12.78653 -40.090961 6.6677623 12
12.75675 -39.999466 8.1633968 13
12.723809 -39.898117 9.6703348 14
12.89589 -40.42664 0.74515498 8
12.865652 -40.333691 2.2227829 9
12.841312 -40.259125 3.7006927 10
12.811943 -40.168877 5.1801524 11
13.933823 7.2299099 -0.82251781 6
13.7995 0.65266031 -0.72310543 6
13.888675 -41.482304 0.76841295 8
13.84497 -41.353756 2.2899325 9
13.814116 -41.26339 3.8110728 10
13.780274 -41.164131 5.3337064 11
13.761183 -41.108711 6.8694391 12
13.723402 -40.997768 8.4067564 13
14.343372 6.1783772 -0.81803054 6
14.220704 1.702755 -0.74968827 6
14.569109 5.0691786 -0.80778265 6
14.508604 2.8063607 -0.77357626 6
14.612377 3.9334416 -0.79227406 6
14.798805 -42.195709 7.0861144 12
14.756439 -42.076828 8.6708441 13
14.934833 -42.576435 0.7927804 8
14.896444 -42.468819 2.3634994 9
14.857579 -42.359856 3.9318712 10
14.818322 -42.24979 5.5016203 11
15.253738 -20.703203 -0.44331199 7
15.304111 53.723667 4.9053345 10
15.310364 53.750114 6.8845534 11
15.313739 53.766586 8.8810949 12
15.318567 53.788181 10.902079 13
15.88741 -12.124036 -0.34303018 7
15.985218 -12.561536 0.3621619 8
15.911958 -12.142776 0.35670015 8
15.983069 -11.840973 0.35460877 8
15.947767 -12.170034 1.0602022 9
15.974037 -11.834517 1.0508528 9
15.949124 -12.171242 1.765656 10
15.970731 -11.832265 1.7495124 10
15.978905 -12.193944 2.4799633 11
15.968596 -11.830873 2.4523692 11
15.962287 -11.826418 3.1602943 12
15.955442 -11.821572 3.8754399 13
15.963054 -43.510727 4.0597849 10
15.982594 -11.841686 4.609539 14
15.92983 -43.421871 5.6836882 11
15.896825 -43.333622 7.3150396 12
15.85283 -43.215569 8.9517546 13
16.135103 -13.436898 0.3737587 8
16.054197 -12.988366 0.3677215 8
16.392063 -11.784067 0.36000815 8
16.162033 -13.459339 1.1108841 9
16.091648 -13.018593 1.0934554 9
16.009804 -12.580869 1.0758737 9
16.368784 -11.767656 1.0657643 9
16.172432 -13.46813 1.8512987 10
16.099838 -13.025361 1.8219413 10
16.030689 -12.597323 1.7939956 10
16.376123 -11.773056 1.7754329 10
16.009693 -43.635967 2.441221 9
16.209974 -13.499336 2.6015537 11
16.111927 -13.035252 2.5562665 11
16.047302 -12.610451 2.5177307 11
16.358097 -11.760388 2.4862719 11
16.217232 -13.505537 3.3554783 12
16.142031 -13.059594 3.3016934 12
16.063391 -12.623175 3.249095 12
16.008621 -12.216598 3.203052 12
16.345308 -11.751453 3.202724 12
16.101528 -12.65307 3.9954927 13
16.030842 -12.233588 3.9349957 13
16.352839 -11.756993 3.9309256 13
16.23967 -13.524275 4.1223097 13
16.171835 -13.083701 4.0580726 13
16.119617 -12.667356 4.7496428 14
16.048771 -12.247334 4.6776853 14
16.332306 -11.742545 4.6617885 14
16.275488 -13.554065 4.9057069 14
16.197254 -13.104292 4.8262038 14
16.181114 53.865433 4.9394708 10
16.158577 -12.697903 5.5247903 15
16.077021 -12.268889 5.4375267 15
16.170372 -11.801814 5.3835444 15
16.301828 -13.576035 5.7018409 15
16.236338 -13.13585 5.6138439 15
16.182541 53.874619 6.9300365 11
16.18568 53.889492 8.939353 12
16.195648 53.926979 10.9767 13
16.798382 -11.714901 0.36531743 8
16.773058 -11.697741 1.8002901 10
16.771328 -11.696715 2.5235469 11
16.766911 -11.693833 3.2523918 12
16.748844 -11.681524 3.98576 13
16.751654 -11.683643 4.7335005 14
16.729748 -11.668683 5.4856019 15
17.179779 17.990486 0.446527 8
17.09264 18.420353 0.45090619 8
17.013014 18.869371 0.45571214 8
16.949602 19.348894 0.46120098 8
16.808586 -11.722123 1.0834824 9
17.184292 17.995771 1.3215221 9
17.118673 18.448902 1.3364186 9
17.045321 18.905676 1.3514423 9
16.969494 19.372154 1.3670264 9
17.13937 18.471714 2.227216 10
17.064619 18.927622 2.2521784 10
