# .PCD v0.7 - Point Cloud Data file format
VERSION 0.7
FIELDS x y z intensity
SIZE 4 4 4 4
TYPE F F F F
COUNT 1 1 1 1
WIDTH 1354
HEIGHT 1
VIEWPOINT 0 0 0 1 0 0 0
POINTS 1354
DATA ascii
0.64461404 -1.7351717 -0.32511568 0
0.75175917 -1.7569561 -0.32412976 0
0.85571849 -1.751685 -0.3239547 0
0.96288109 -1.7633647 -0.32392707 0
1.04837 -1.7508565 -0.32411596 0
1.1412925 -1.7297012 -0.32357866 0
1.2478803 -1.7252842 -0.323515 0
1.3491812 -1.7571872 -0.32336658 0
1.4524173 -1.7576165 -0.32273695 0
1.5574803 -1.753186 -0.32301503 0
1.6507378 -1.7294377 -0.32303652 0
1.7455728 -1.7517765 -0.32309598 0
1.8428353 -1.7716583 -0.32293516 0
1.9492309 -1.7441053 -0.32323802 0
2.432929 -1.7464315 -0.32109949 0
2.5067761 -1.7994411 -0.32060546 0
2.7937174 -1.7168068 -0.32040575 0
2.8711169 -1.7643706 -0.31981558 0
-2.1295619 -1.6472415 -0.33108526 0
-2.0442071 -1.6648295 -0.32928148 0
-1.9554466 -1.6514482 -0.33110207 0
-1.8652343 -1.6529812 -0.33041716 0
-1.7795372 -1.6624153 -0.33000767 0
-1.6635776 -1.6457206 -0.32961205 0
-1.53705 -1.6572696 -0.33046716 0
-1.4466972 -1.628323 -0.33104071 0
-1.343643 -1.6499956 -0.32876381 0
-1.2454154 -1.6463305 -0.32905465 0
-1.1601766 -1.6701241 -0.32870924 0
-1.0549535 -1.6241527 -0.32906511 0
-0.9540078 -1.6565645 -0.32855728 0
-0.84803671 -1.6453824 -0.32803884 0
-0.74605995 -1.6448135 -0.32760492 0
-0.64838588 -1.6437587 -0.3277339 0
-0.55236459 -1.6755646 -0.32731372 0
-0.46035594 -1.6372849 -0.32749602 0
-0.34885612 -1.6368221 -0.32682711 0
-0.24812604 -1.6479882 -0.32725522 0
-0.1484095 -1.6543217 -0.32561028 0
-0.053642217 -1.6657729 -0.32698718 0
0.046060864 -1.6580348 -0.32593295 0
0.15173891 -1.6543719 -0.32558444 0
0.25471166 -1.642444 -0.32601166 0
0.34577569 -1.6323262 -0.32518649 0
0.44926262 -1.6284354 -0.32665518 0
0.54196149 -1.6566192 -0.32832891 0
0.66344923 -1.6403717 -0.32532778 0
0.7482304 -1.6558235 -0.32479718 0
0.85544956 -1.6368414 -0.32451788 0
0.94853508 -1.6612294 -0.3247115 0
1.0501978 -1.6580712 -0.32428604 0
1.1584162 -1.6508796 -0.32383409 0
1.2354307 -1.6329656 -0.32433733 0
1.3472153 -1.6543281 -0.32394525 0
1.4485595 -1.6543119 -0.32385126 0
1.5527751 -1.6502534 -0.3239255 0
1.6493193 -1.6316321 -0.32345563 0
1.7484031 -1.6334273 -0.32343611 0
1.8487535 -1.6541028 -0.32352519 0
1.9763261 -1.6450211 -0.32300863 0
2.0416498 -1.6505151 -0.32237566 0
2.2852349 -1.6404121 -0.32208753 0
2.359082 -1.6934217 -0.32159352 0
2.6389186 -1.6216791 -0.3215861 0
2.7163179 -1.6692429 -0.32099593 0
-2.2163258 -1.5433866 -0.33162045 0
-2.1546733 -1.5543623 -0.33029523 0
-2.0499198 -1.5547733 -0.33091196 0
-1.9496577 -1.5531181 -0.33038285 0
-1.8511783 -1.5634022 -0.32974312 0
-1.7611592 -1.5535021 -0.33070245 0
-1.6565816 -1.5475585 -0.33119047 0
-1.5442591 -1.5497028 -0.32947251 0
-1.4337395 -1.5456839 -0.33168545 0
-1.3473362 -1.5609841 -0.32996812 0
-1.252772 -1.5535493 -0.32968181 0
-1.154958 -1.5497922 -0.32914922 0
-1.034672 -1.5439794 -0.32964426 0
-0.94567972 -1.5516514 -0.329642 0
-0.85573244 -1.5497935 -0.32849696 0
-0.75514781 -1.5386513 -0.32918012 0
-0.65108639 -1.5474654 -0.328224 0
-0.5486024 -1.5732636 -0.32732999 0
-0.43891191 -1.5524584 -0.32773867 0
-0.35713679 -1.5424701 -0.32727781 0
-0.25144809 -1.5481491 -0.32785514 0
-0.15061313 -1.5542748 -0.32632941 0
-0.050374124 -1.5630778 -0.32725918 0
0.050142169 -1.5568448 -0.32603395 0
0.15006991 -1.5479653 -0.32555541 0
0.25056064 -1.5424457 -0.326675 0
0.35519868 -1.5488131 -0.32506967 0
0.44632086 -1.5421686 -0.32797179 0
0.5576942 -1.563532 -0.32627738 0
0.64551276 -1.5389526 -0.32594842 0
0.73213822 -1.5420667 -0.32509002 0
0.84989488 -1.53891 -0.32594052 0
0.944188 -1.5742022 -0.32529387 0
1.0444208 -1.5486858 -0.32516015 0
1.1523572 -1.5413666 -0.32460767 0
1.266439 -1.5628194 -0.32414949 0
1.3507895 -1.5425519 -0.32481593 0
1.4623421 -1.5541271 -0.32414919 0
1.5593756 -1.5650241 -0.3229112 0
1.6337582 -1.5408598 -0.32348064 0
1.7365125 -1.5315609 -0.32493451 0
1.8347121 -1.5495067 -0.3244417 0
1.9414368 -1.5466942 -0.3231315 0
2.0481224 -1.5609845 -0.32210919 0
2.13482 -1.5324295 -0.32268012 0
2.2113879 -1.5874023 -0.32258156 0
2.4841197 -1.5265514 -0.32276642 0
2.5615191 -1.5741153 -0.32217625 0
-2.2693279 -1.4626139 -0.33208427 0
-2.1620734 -1.4600096 -0.33153322 0
-2.0584221 -1.4553274 -0.33100262 0
-1.9446945 -1.4602057 -0.33061174 0
-1.8418363 -1.4457903 -0.33025956 0
-1.7435557 -1.4302444 -0.3301208 0
-1.6455994 -1.4472674 -0.33074564 0
-1.5366353 -1.4378686 -0.3318271 0
-1.442764 -1.4599564 -0.32936975 0
-1.3437681 -1.4487967 -0.33112794 0
-1.2435672 -1.4490442 -0.33036634 0
-1.1416323 -1.4649041 -0.3297486 0
-1.0483562 -1.4495173 -0.32963625 0
-0.94143963 -1.426913 -0.33010516 0
-0.84620214 -1.4576277 -0.32977372 0
-0.75484371 -1.4606582 -0.32849893 0
-0.65692806 -1.4483751 -0.32869357 0
-0.54750615 -1.4482051 -0.32899258 0
-0.46079877 -1.4521261 -0.32763559 0
-0.35389322 -1.4479183 -0.32732421 0
-0.24964128 -1.4434868 -0.32876879 0
-0.15668322 -1.4309437 -0.3275021 0
-0.056467079 -1.4369637 -0.32758504 0
0.046244107 -1.4361073 -0.32618231 0
0.14884378 -1.4282906 -0.32596961 0
0.24589902 -1.4303608 -0.32744658 0
0.35250965 -1.442076 -0.32598588 0
0.45118117 -1.4373311 -0.32662463 0
0.55185163 -1.4598205 -0.32656392 0
0.6551159 -1.4443207 -0.32626817 0
0.75867826 -1.4720464 -0.32558119 0
0.84667706 -1.4385763 -0.32637441 0
0.93667608 -1.4572721 -0.32631972 0
1.0403968 -1.4513609 -0.32505402 0
1.1508658 -1.433885 -0.32589108 0
1.2432244 -1.461518 -0.32526997 0
1.3457375 -1.4508461 -0.32493535 0
1.4414454 -1.4443232 -0.32395908 0
1.5476481 -1.4666054 -0.32401571 0
1.6569614 -1.4614067 -0.32558075 0
1.7576103 -1.4418051 -0.32496858 0
1.8496767 -1.4520051 -0.32357711 0
1.9341427 -1.4449811 -0.32271919 0
2.047174 -1.4475117 -0.32271147 0
2.1624291 -1.4379189 -0.32308561 0
2.2251165 -1.4116536 -0.32355279 0
2.3293207 -1.4314237 -0.32394677 0
2.4067202 -1.4789876 -0.3233566 0
-2.3444407 -1.3497872 -0.33282804 0
-2.2397289 -1.3543407 -0.33238003 0
-2.135313 -1.3545967 -0.33170512 0
-2.0339379 -1.3525277 -0.33193955 0
-1.9487183 -1.3468364 -0.33143106 0
-1.844923 -1.3577824 -0.33074945 0
-1.735882 -1.3427321 -0.33064547 0
-1.6294184 -1.3211629 -0.32953596 0
-1.5585802 -1.3437084 -0.3302443 0
-1.4493043 -1.3424634 -0.331732 0
-1.3529444 -1.3501962 -0.33075213 0
-1.2519007 -1.3534738 -0.33078432 0
-1.138361 -1.3445798 -0.33194157 0
-1.0452683 -1.3411164 -0.33008963 0
-0.96405345 -1.3645808 -0.32998434 0
-0.85158044 -1.3528546 -0.33044919 0
-0.74760801 -1.3443071 -0.3287428 0
-0.65948617 -1.3501579 -0.32984281 0
-0.55779731 -1.3377626 -0.33108315 0
-0.45753992 -1.3491231 -0.32748631 0
-0.35403991 -1.3487819 -0.32743329 0
-0.2596401 -1.3725851 -0.32823214 0
-0.14963058 -1.3440282 -0.32735246 0
-0.053440236 -1.3582475 -0.3280836 0
0.043653686 -1.3554175 -0.3268981 0
0.15012698 -1.3475884 -0.32682347 0
0.26070976 -1.3582475 -0.32631427 0
0.34415182 -1.3540962 -0.32645684 0
0.44117072 -1.337984 -0.32655361 0
0.53778058 -1.3375305 -0.32729828 0
0.65305883 -1.3528026 -0.32680258 0
0.74066687 -1.3477246 -0.32641575 0
0.85152388 -1.3528877 -0.32637969 0
0.95681977 -1.3557137 -0.32560217 0
1.0476196 -1.3326204 -0.32646108 0
1.1416632 -1.3421476 -0.32664883 0
1.2472752 -1.3446888 -0.32534239 0
1.35037 -1.3551606 -0.32479206 0
1.4644166 -1.356979 -0.32467872 0
1.551723 -1.3468314 -0.32652667 0
1.6579373 -1.3600918 -0.32566234 0
1.7653303 -1.3454858 -0.32381859 0
1.8569975 -1.3534021 -0.32294124 0
1.9565492 -1.3624235 -0.32314011 0
2.0530109 -1.3441075 -0.32349926 0
2.170764 -1.3554401 -0.32404113 0
2.2488937 -1.3469169 -0.32374462 0
-2.4231794 -1.2379566 -0.33419013 0
-2.3675692 -1.2635171 -0.33305708 0
-2.2604592 -1.251866 -0.33250418 0
-2.1440074 -1.24663 -0.33294582 0
-2.0481873 -1.2589326 -0.33247155 0
-1.9587231 -1.2490689 -0.33150452 0
-1.8461519 -1.2584258 -0.33213037 0
-1.7638564 -1.2662288 -0.33034548 0
-1.6630614 -1.2487309 -0.33081907 0
-1.5633934 -1.2454169 -0.33037901 0
-1.4641643 -1.2454202 -0.33028942 0
-1.3579127 -1.2504377 -0.33189279 0
-1.2410896 -1.2454916 -0.33071619 0
-1.1428429 -1.2469969 -0.33027527 0
-1.0470293 -1.2539301 -0.33147451 0
-0.94207591 -1.264007 -0.32998171 0
-0.85879481 -1.2456225 -0.33019605 0
-0.75425178 -1.2266468 -0.33001715 0
-0.65024602 -1.2573664 -0.32879746 0
-0.55788708 -1.2601235 -0.32919633 0
-0.44986337 -1.2534219 -0.32893074 0
-0.3514564 -1.2430032 -0.32826674 0
-0.23893239 -1.2571573 -0.32940117 0
-0.14335601 -1.2437613 -0.32758662 0
-0.049554102 -1.2599642 -0.32888258 0
0.04941931 -1.2561803 -0.32781899 0
0.15291677 -1.2484075 -0.32877302 0
0.25450444 -1.2535988 -0.32903543 0
0.34911489 -1.2434813 -0.32786813 0
0.44735396 -1.2487888 -0.32725841 0
0.5681721 -1.2619938 -0.32713515 0
0.65078431 -1.2473214 -0.32753015 0
0.74869692 -1.2318553 -0.32675171 0
0.85621846 -1.2445284 -0.3268995 0
0.95133215 -1.2391356 -0.32671103 0
1.0605203 -1.2601923 -0.32713741 0
1.1378245 -1.2424001 -0.32579428 0
1.2492758 -1.2358315 -0.32584599 0
1.3416286 -1.2534683 -0.32559013 0
1.4467034 -1.2396263 -0.32658753 0
1.5610142 -1.2435491 -0.32597631 0
1.6224581 -1.2550926 -0.32492721 0
1.7190411 -1.2528784 -0.32326847 0
1.8266571 -1.2526214 -0.32351804 0
1.9373021 -1.2486233 -0.32406455 0
2.0355332 -1.2508358 -0.32408598 0
2.139379 -1.2522438 -0.32370949 0
2.2557502 -1.2561393 -0.32296509 0
2.3264284 -1.2308595 -0.32317349 0
-2.4559104 -1.1414263 -0.33285999 0
-2.3550313 -1.1610059 -0.33305648 0
-2.2604313 -1.154801 -0.33340821 0
-2.1655252 -1.1455778 -0.33346525 0
-2.0590897 -1.1466154 -0.33279037 0
-1.9532703 -1.1621559 -0.33270311 0
-1.8629595 -1.1447608 -0.33264017 0
-1.754904 -1.1489969 -0.33226761 0
-1.6664536 -1.1631762 -0.33118409 0
-1.5646322 -1.1573212 -0.33104762 0
-1.4541488 -1.1583247 -0.33043036 0
-1.363169 -1.1514051 -0.33127227 0
-1.2524176 -1.1505808 -0.33229592 0
-1.1509845 -1.145571 -0.33146742 0
-1.0417259 -1.1558172 -0.33084187 0
-0.9360075 -1.1493987 -0.33177152 0
-0.84979522 -1.150586 -0.33041018 0
-0.75204825 -1.1435113 -0.33068299 0
-0.65443861 -1.1466368 -0.32944188 0
-0.54583812 -1.1516856 -0.33025077 0
-0.4528639 -1.1517235 -0.32931441 0
-0.35047102 -1.1750692 -0.32866248 0
-0.25974444 -1.190914 -0.32667875 0
0.24169748 -1.1963673 -0.32713866 0
0.35770407 -1.168805 -0.3276158 0
0.45742819 -1.1527559 -0.32734251 0
0.539482 -1.147797 -0.32799616 0
0.64946043 -1.1373905 -0.32634655 0
0.75959861 -1.1511891 -0.32722554 0
0.84522581 -1.1425852 -0.32847044 0
0.9490236 -1.1485208 -0.32717639 0
1.0540258 -1.15284 -0.32669547 0
1.1668638 -1.1710057 -0.32661813 0
1.2300148 -1.1490315 -0.32720551 0
1.3353157 -1.1441818 -0.32644981 0
1.4373515 -1.1450255 -0.32624623 0
1.5290394 -1.1482013 -0.32492504 0
1.6434828 -1.1620417 -0.32312864 0
1.7412947 -1.1500555 -0.32465976 0
1.8603717 -1.1556283 -0.32428351 0
1.941413 -1.1427099 -0.32461837 0
2.0473924 -1.1594253 -0.32380736 0
2.1428766 -1.140408 -0.32433859 0
2.2498841 -1.1494261 -0.32422861 0
2.3630986 -1.1440282 -0.32433152 0
-2.4649146 -1.0583359 -0.33372995 0
-2.3600636 -1.0535989 -0.33376083 0
-2.2536764 -1.051517 -0.33247349 0
-2.1424103 -1.056175 -0.33347717 0
-2.0312717 -1.0377234 -0.3338379 0
-1.9508289 -1.0412011 -0.33325431 0
-1.8286139 -1.056393 -0.33319873 0
-1.7460744 -1.0388808 -0.33288503 0
-1.6578305 -1.0551822 -0.33257589 0
-1.5423996 -1.0577909 -0.3323133 0
-1.4453138 -1.0531356 -0.33201331 0
-1.3439035 -1.0394075 -0.33099526 0
-1.2594249 -1.0567725 -0.33121699 0
-1.1467301 -1.0501395 -0.33206248 0
-1.0377316 -1.0414876 -0.33174455 0
-0.94915056 -1.0618259 -0.3311685 0
-0.84721494 -1.0557473 -0.331469 0
-0.75049967 -1.0556324 -0.33150586 0
-0.64979762 -1.0487301 -0.33070999 0
-0.57801658 -1.0828826 -0.32891354 0
0.56366122 -1.0841459 -0.32748467 0
0.66051382 -1.0454922 -0.32755926 0
0.75595784 -1.0454127 -0.32801655 0
0.85791135 -1.0637225 -0.32658854 0
0.95380038 -1.044156 -0.32761833 0
1.0514939 -1.055215 -0.32703975 0
1.1481347 -1.0573913 -0.32678035 0
1.2560521 -1.066829 -0.32623258 0
1.3299569 -1.0440029 -0.32646471 0
1.4386035 -1.0484072 -0.32509175 0
1.544066 -1.0493345 -0.32482594 0
1.6465008 -1.0512928 -0.32514817 0
1.7475332 -1.0566459 -0.32492033 0
1.8616147 -1.054159 -0.32503685 0
1.9598609 -1.0548444 -0.32479864 0
2.0624404 -1.0535899 -0.32528126 0
2.1573577 -1.0444362 -0.32476225 0
2.2469099 -1.0484067 -0.32406938 0
2.3352034 -1.0489988 -0.32382008 0
2.4189491 -1.0453719 -0.32357967 0
-2.5614204 -0.91617471 -0.33461681 0
-2.3475893 -0.99462694 -0.33371314 0
-2.2522833 -0.97323513 -0.33405223 0
-2.1613419 -0.95228332 -0.33333108 0
-2.0653532 -0.94570923 -0.33276555 0
-1.9476029 -0.9257288 -0.33333731 0
-1.8664597 -0.94987583 -0.33440256 0
-1.7493964 -0.94158018 -0.33238608 0
-1.6467571 -0.95743608 -0.33303601 0
-1.5480669 -0.9439556 -0.33296955 0
-1.4384161 -0.95398897 -0.33297324 0
-1.3511341 -0.95539218 -0.33254316 0
-1.258418 -0.94941711 -0.33268008 0
-1.1404661 -0.93817395 -0.3324894 0
-1.0580306 -0.95399064 -0.33246741 0
-0.95397037 -0.95739466 -0.33266816 0
-0.84775549 -0.95428717 -0.33099768 0
-0.76055592 -0.97601199 -0.33164641 0
0.75724316 -0.9577328 -0.32732272 0
0.85659349 -0.95043981 -0.32744563 0
0.95621806 -0.94599569 -0.32725284 0
1.0480257 -0.94822568 -0.32738137 0
1.1371169 -0.96027714 -0.32680553 0
1.2512947 -0.95360845 -0.32663634 0
1.3564752 -0.95909137 -0.32563794 0
1.4405423 -0.93480951 -0.32704398 0
1.5530584 -0.94840527 -0.32772174 0
1.659044 -0.94257164 -0.32658336 0
1.7696351 -0.9620232 -0.32556289 0
1.8347394 -0.93726277 -0.32635674 0
1.9362928 -0.97176015 -0.3259494 0
2.0318298 -0.94803774 -0.32435903 0
2.1495817 -0.94721538 -0.32434016 0
2.2624578 -0.95232558 -0.3240965 0
2.3585057 -0.95324677 -0.32392362 0
2.459754 -0.93975294 -0.32545504 0
-2.6016507 -0.80639517 -0.33443499 0
-2.5835488 -0.84969699 -0.33484772 0
-2.4667432 -0.8427273 -0.33476028 0
-2.3545141 -0.84216797 -0.3346836 0
-2.1115 -0.89460057 -0.33516455 0
-2.0328035 -0.86125845 -0.33564836 0
-1.9354942 -0.85935891 -0.33277649 0
-1.844698 -0.86060989 -0.33287668 0
-1.7620366 -0.85297668 -0.3338477 0
-1.6676104 -0.85184634 -0.33331141 0
-1.5557766 -0.8327508 -0.33281177 0
-1.4686189 -0.84938031 -0.33271602 0
-1.3467592 -0.85429847 -0.33154818 0
-1.2427659 -0.85253656 -0.3314752 0
-1.1494668 -0.8556295 -0.33279562 0
-1.0494601 -0.84838694 -0.33244202 0
-0.95238763 -0.85210782 -0.33151603 0
-0.87561262 -0.87873411 -0.3324613 0
0.86173028 -0.86476022 -0.32721364 0
0.94741553 -0.84777802 -0.32745859 0
1.0527694 -0.84024727 -0.32765299 0
1.1356747 -0.85380405 -0.32685572 0
1.2432151 -0.85259628 -0.3269023 0
1.3496348 -0.84862226 -0.32800931 0
1.4518567 -0.8498683 -0.32898754 0
1.545415 -0.84623313 -0.32689512 0
1.64615 -0.85582882 -0.32686093 0
1.7319981 -0.83854014 -0.32649928 0
1.8490075 -0.84107286 -0.32465267 0
1.9540193 -0.86095178 -0.32453316 0
2.0677054 -0.84121919 -0.32586947 0
2.1555083 -0.85906428 -0.32571912 0
2.2486112 -0.8591581 -0.32608059 0
2.3401167 -0.85601664 -0.32561961 0
2.4439926 -0.85448098 -0.32494557 0
2.5255442 -0.82261461 -0.32614058 0
-2.6151898 -0.75621772 -0.33474717 0
-2.5269339 -0.74374628 -0.33467928 0
-2.4279864 -0.75250292 -0.33481798 0
-2.3353989 -0.760665 -0.33467683 0
-2.2485089 -0.75021267 -0.33466643 0
-2.1601074 -0.73799449 -0.33445883 0
-2.0779643 -0.7265088 -0.33498996 0
-1.9903653 -0.71191835 -0.33480117 0
-1.7124338 -0.78406757 -0.33378625 0
-1.6266037 -0.77313179 -0.33434138 0
-1.5475211 -0.74910343 -0.33423951 0
-1.4600397 -0.74959916 -0.33311743 0
-1.3434095 -0.74804205 -0.33248171 0
-1.2432543 -0.74315333 -0.33151412 0
-1.1652621 -0.76287085 -0.33003199 0
-1.0522608 -0.74407536 -0.33267698 0
-0.96948051 -0.7722289 -0.3321766 0
0.96218312 -0.75519532 -0.32787779 0
1.0418621 -0.74532497 -0.32770252 0
1.1516935 -0.76685959 -0.32735664 0
1.2274851 -0.73901939 -0.32814023 0
1.3449011 -0.74163729 -0.32793978 0
1.4660556 -0.76824963 -0.3270098 0
1.543444 -0.74726486 -0.3280645 0
1.6565777 -0.73285455 -0.32674736 0
1.7571833 -0.74736631 -0.32671759 0
1.8528501 -0.75399399 -0.32665712 0
1.9313171 -0.75384116 -0.32701224 0
2.0388961 -0.74581951 -0.32673019 0
2.1474602 -0.75112873 -0.32592028 0
2.2515264 -0.74418509 -0.32615376 0
2.3733542 -0.75430912 -0.32591596 0
2.4671886 -0.74538308 -0.32538909 0
2.5376303 -0.7468909 -0.32480523 0
-2.6541698 -0.65078187 -0.33593243 0
-2.5629129 -0.65571225 -0.33586061 0
-2.4726477 -0.65146631 -0.33564243 0
-2.3598301 -0.64910108 -0.33581185 0
-2.260432 -0.64207274 -0.33538854 0
-2.1499832 -0.64958072 -0.33521134 0
-2.0356958 -0.6630466 -0.33467606 0
-1.9980949 -0.6508069 -0.33283049 0
-1.5167741 -0.69448137 -0.33526596 0
-1.4328971 -0.68097466 -0.33347118 0
-1.3536769 -0.64839613 -0.33329582 0
-1.2666759 -0.65430003 -0.33305252 0
-1.1466751 -0.66022861 -0.33228898 0
-1.0565265 -0.6493156 -0.33238366 0
1.0504766 -0.64808142 -0.32860383 0
1.1494277 -0.65683872 -0.32875443 0
1.2557876 -0.64529163 -0.3280555 0
1.3405374 -0.646227 -0.32907984 0
1.4516343 -0.65587902 -0.32834744 0
1.5447624 -0.65100497 -0.32821384 0
1.6382651 -0.63946873 -0.3265534 0
1.7469029 -0.65317041 -0.3268863 0
1.853748 -0.64836526 -0.32700756 0
1.9451027 -0.6451717 -0.32692724 0
2.0475242 -0.65075088 -0.32659528 0
2.1403906 -0.64664418 -0.32654598 0
2.248105 -0.65316665 -0.32584792 0
2.3202929 -0.64702129 -0.325914 0
2.4400814 -0.65399945 -0.32515693 0
2.5515325 -0.64319319 -0.32550061 0
-2.705338 -0.50925899 -0.3380073 0
-2.669661 -0.55016315 -0.33645907 0
-2.5712221 -0.56074691 -0.33597982 0
-2.4445903 -0.55119616 -0.33594099 0
-2.3184164 -0.54048544 -0.33610985 0
-2.2333348 -0.55441099 -0.33688438 0
-2.1446128 -0.54867184 -0.33682951 0
-2.0532284 -0.54879618 -0.33693618 0
-1.9693838 -0.53403437 -0.33640698 0
-1.8547015 -0.51717919 -0.33591127 0
-1.2446362 -0.59157032 -0.33270785 0
-1.1473085 -0.56561083 -0.33365393 0
-1.094512 -0.58912814 -0.33306664 0
1.0855346 -0.5644241 -0.32785857 0
1.1509559 -0.54703736 -0.32827905 0
1.2587063 -0.55839086 -0.32859054 0
1.3388585 -0.54482347 -0.33036703 0
1.4524163 -0.54314882 -0.32875201 0
1.5659577 -0.56772643 -0.32695627 0
1.6452011 -0.535887 -0.32850915 0
1.7660825 -0.54739451 -0.32805449 0
1.8489275 -0.54417008 -0.32768592 0
1.9664487 -0.56350118 -0.3271949 0
2.0542285 -0.53616101 -0.3270545 0
2.1669576 -0.55437589 -0.32663658 0
2.2615213 -0.54416418 -0.32701397 0
2.3445334 -0.56414002 -0.3267301 0
2.4392571 -0.55016232 -0.32729945 0
2.5514634 -0.56284374 -0.32717517 0
2.6087368 -0.52986872 -0.32686096 0
-2.7168803 -0.4513222 -0.33817053 0
-2.6452539 -0.43938774 -0.33789378 0
-2.5419409 -0.46610364 -0.33779445 0
-2.4202888 -0.45552298 -0.33671084 0
-2.3354108 -0.43954584 -0.33637586 0
-2.2409022 -0.45506731 -0.33538297 0
-2.1563635 -0.43789765 -0.33512393 0
-2.0527244 -0.44779021 -0.33504817 0
-1.9478279 -0.4600729 -0.33652467 0
-1.8449409 -0.45255738 -0.33588648 0
-1.7479397 -0.44717103 -0.33554327 0
-1.6564575 -0.42920521 -0.33527011 0
-1.5520148 -0.40892887 -0.33490941 0
1.1498852 -0.46037447 -0.3282021 0
1.2589707 -0.44450474 -0.32979411 0
1.3483764 -0.45384386 -0.32872203 0
1.4508545 -0.46109608 -0.3284421 0
1.556674 -0.45026681 -0.32908496 0
1.627236 -0.44958666 -0.3290135 0
1.7398742 -0.45842287 -0.32876262 0
1.8463738 -0.43889755 -0.32840851 0
1.95455 -0.45563382 -0.32809389 0
2.0223222 -0.45612183 -0.32837218 0
2.1510189 -0.45300758 -0.32764116 0
2.2814078 -0.44639507 -0.32725132 0
2.365401 -0.46282923 -0.32715273 0
2.4552393 -0.44394696 -0.32707235 0
2.5394924 -0.45918331 -0.32700774 0
2.6261678 -0.45550799 -0.32727528 0
-2.723552 -0.36607432 -0.33855656 0
-2.6417768 -0.36798656 -0.33841991 0
-2.5255256 -0.36394152 -0.3374441 0
-2.4400218 -0.35161972 -0.33710459 0
-2.3545182 -0.33929801 -0.33676514 0
-2.263814 -0.35940409 -0.33644557 0
-2.1784532 -0.34585312 -0.3360666 0
-2.071171 -0.35648414 -0.33607465 0
-1.937887 -0.35041463 -0.33582288 0
-1.8567222 -0.3494854 -0.3359476 0
-1.7766972 -0.34762636 -0.33622897 0
-1.6725487 -0.35219207 -0.33581194 0
-1.5617979 -0.35233384 -0.33614165 0
-1.4371731 -0.34259248 -0.33642134 0
-1.3442386 -0.33369932 -0.33610988 0
-1.2455482 -0.31863803 -0.33573282 0
1.1832564 -0.35748193 -0.3312735 0
1.2474616 -0.34384659 -0.33116159 0
1.360378 -0.35209969 -0.33030382 0
1.4433115 -0.35350779 -0.33090463 0
1.5442258 -0.35239443 -0.32939199 0
1.6472028 -0.34676236 -0.32949898 0
1.7389309 -0.3530682 -0.3292312 0
1.8441566 -0.34713009 -0.32849953 0
1.9580749 -0.34909201 -0.32813394 0
2.037508 -0.35335651 -0.32756802 0
2.1274319 -0.3533555 -0.32790211 0
2.2331421 -0.35783389 -0.32810849 0
2.3468282 -0.35563126 -0.32791945 0
2.4582605 -0.33635205 -0.32778805 0
2.5615146 -0.35048759 -0.32732415 0
2.6406012 -0.3516463 -0.32715297 0
-2.2761598 -0.2948361 -0.33675295 0
-2.1476994 -0.27819633 -0.33631182 0
-1.8687446 -0.29667035 -0.33638006 0
-1.7313557 -0.28744614 -0.3372294 0
-1.6512488 -0.28642803 -0.33725199 0
-1.5389466 -0.27829838 -0.33586895 0
-1.4270486 -0.26596484 -0.33527067 0
-1.3584604 -0.26580697 -0.335287 0
-1.2572635 -0.25533667 -0.3349492 0
1.2451575 -0.24855202 -0.33189294 0
1.3713164 -0.25187537 -0.32815412 0
1.4462048 -0.24486075 -0.32949281 0
1.5498564 -0.24609448 -0.32910538 0
1.6600167 -0.24709976 -0.32963905 0
1.7571185 -0.25313714 -0.32942456 0
1.8399311 -0.25170407 -0.32942608 0
1.9346521 -0.25350478 -0.32920152 0
2.0439672 -0.24629416 -0.32835099 0
2.1457276 -0.24677336 -0.32840383 0
2.2297542 -0.24020286 -0.32784143 0
2.332844 -0.25998431 -0.32747921 0
2.4488974 -0.24617228 -0.32781523 0
2.5826209 -0.24089535 -0.32850167 0
2.6669798 -0.23908305 -0.32890996 0
1.2507519 -0.1473389 -0.32890296 0
1.3451777 -0.14813614 -0.33014774 0
1.4305106 -0.15276037 -0.3305963 0
1.5533139 -0.14486194 -0.33091906 0
1.6672044 -0.15551187 -0.32971448 0
1.7464033 -0.13806908 -0.33024976 0
1.8484139 -0.15907192 -0.32970282 0
1.9292217 -0.15212698 -0.32981065 0
2.0550401 -0.14727269 -0.32994044 0
2.1661677 -0.13971816 -0.33012789 0
2.2516427 -0.14523271 -0.32999957 0
2.3371174 -0.15074725 -0.32987121 0
2.4225922 -0.1562618 -0.32974282 0
2.5419776 -0.15650176 -0.32933933 0
2.6739705 -0.15968397 -0.32898998 0
1.2520859 -0.048638366 -0.32996911 0
1.3486027 -0.05099887 -0.33153823 0
1.440194 -0.051565349 -0.33189476 0
1.546609 -0.04695807 -0.3316921 0
1.6759825 -0.047984451 -0.33060169 0
1.7431394 -0.049937855 -0.33119243 0
1.8597997 -0.053283669 -0.33048472 0
1.9389364 -0.055553053 -0.33026671 0
2.0603364 -0.044332776 -0.32976538 0
2.166446 -0.04662152 -0.32945344 0
2.2519329 -0.048454791 -0.32921705 0
2.3374197 -0.050288063 -0.32898059 0
2.4419985 -0.043562431 -0.32870477 0
2.5511756 -0.054542251 -0.32817018 0
2.6575694 -0.05686909 -0.32844764 0
1.2443048 0.04953843 -0.33129853 0
1.3417722 0.050076205 -0.33184439 0
1.4419538 0.053135034 -0.33096555 0
1.5511197 0.045973461 -0.33147222 0
1.6649278 0.035611968 -0.32991782 0
1.7344822 0.057069875 -0.33109856 0
1.8584837 0.053329278 -0.33011729 0
1.9375105 0.055583753 -0.32982185 0
2.0593319 0.044242136 -0.32980174 0
2.1672084 0.046538737 -0.32963422 0
2.2527854 0.048377767 -0.32947233 0
2.338362 0.050216798 -0.32931042 0
2.423939 0.052055821 -0.32914853 0
2.552304 0.054814368 -0.32890567 0
2.6781754 0.067176238 -0.32900041 0
1.253811 0.15795991 -0.33194977 0
1.341864 0.13986334 -0.33190453 0
1.4351301 0.15754385 -0.33116361 0
1.5550306 0.14510188 -0.3320775 0
1.6729393 0.15629829 -0.33173773 0
1.743137 0.13777289 -0.33206576 0
1.8591805 0.16003168 -0.33134201 0
1.9399716 0.15302931 -0.33107266 0
2.0577784 0.14760099 -0.32995269 0
2.1609099 0.13946259 -0.32941961 0
2.2465239 0.14498246 -0.32943878 0
2.3321378 0.15050232 -0.32945788 0
2.4502473 0.15090656 -0.32924899 0
2.560497 0.16481519 -0.3295528 0
2.6741874 0.14682679 -0.32950914 0
-2.2546492 0.2920498 -0.33975852 0
-2.1263151 0.27542639 -0.33958825 0
-1.8659446 0.29622585 -0.33741134 0
-1.730487 0.28732997 -0.33725694 0
-1.6596943 0.287893 -0.33821341 0
-1.5508165 0.2804651 -0.33826065 0
-1.4383546 0.26771137 -0.33804104 0
-1.342754 0.25860974 -0.33853349 0
-1.2460971 0.25634494 -0.33819303 0
1.2460712 0.24879079 -0.33252436 0
1.3498013 0.24412251 -0.33195418 0
1.4354556 0.2559419 -0.33224544 0
1.559031 0.24753541 -0.33120397 0
1.6620777 0.25165972 -0.33168918 0
1.7487631 0.2395093 -0.33271232 0
1.8541528 0.25363281 -0.33245367 0
1.9324434 0.25032431 -0.33183002 0
2.0541396 0.25118902 -0.33114716 0
2.1616833 0.24864224 -0.33110058 0
2.2464187 0.24205478 -0.33074746 0
2.3317778 0.25125384 -0.33077934 0
2.4171374 0.26045296 -0.33081123 0
2.5575252 0.24584155 -0.33087042 0
2.6801744 0.25977105 -0.33115047 0
-2.7422192 0.37523293 -0.34123945 0
-2.6455092 0.36200809 -0.34119678 0
-2.5600743 0.35031956 -0.34115976 0
-2.4697542 0.35593128 -0.34083474 0
-2.3658257 0.34095186 -0.34115237 0
-2.2411587 0.36247659 -0.34065333 0
-2.1140676 0.35626745 -0.33992365 0
-2.0442142 0.36237186 -0.33891663 0
-1.9454446 0.35187399 -0.33888415 0
-1.8664917 0.35135493 -0.33874488 0
-1.7391398 0.34796509 -0.33867621 0
-1.6546249 0.34847742 -0.33952677 0
-1.5483029 0.34438807 -0.33972564 0
-1.4380621 0.35153806 -0.33946657 0
-1.3584884 0.33721435 -0.33867303 0
-1.2670312 0.31825274 -0.33914423 0
1.1869779 0.3587895 -0.3323296 0
1.252005 0.3451677 -0.33298954 0
1.3603375 0.36573091 -0.33294007 0
1.4391578 0.34632918 -0.33402392 0
1.554075 0.35054246 -0.3336637 0
1.6594534 0.34514448 -0.33263999 0
1.7533059 0.35610023 -0.33217931 0
1.8444881 0.35568631 -0.33107609 0
1.953132 0.3532925 -0.33103997 0
2.0531068 0.33679086 -0.33114836 0
2.1456544 0.35636261 -0.33076125 0
2.2369065 0.33862114 -0.33095497 0
2.3383675 0.36277136 -0.33054292 0
2.4561071 0.34486437 -0.33069575 0
2.5640635 0.35082334 -0.33106822 0
2.6741033 0.34641677 -0.33145431 0
-2.7276411 0.45308229 -0.34121007 0
-2.6227767 0.45492032 -0.34093404 0
-2.5376487 0.44015273 -0.3406994 0
-2.4487259 0.46098042 -0.34100071 0
-2.3637607 0.44498634 -0.34072581 0
-2.2737954 0.46188012 -0.34077835 0
-2.1362741 0.44568595 -0.34067121 0
-2.0520804 0.46065503 -0.34068346 0
-1.9391295 0.45196152 -0.34051099 0
-1.8587947 0.4473103 -0.34059712 0
-1.7539629 0.43565431 -0.34098265 0
-1.6683273 0.43956459 -0.33922413 0
-1.5545086 0.42148721 -0.33871675 0
-1.4782101 0.41219544 -0.33754852 0
1.15768 0.45180145 -0.3330844 0
1.2468499 0.45899811 -0.33324721 0
1.3614351 0.45555472 -0.33437037 0
1.4502598 0.44958881 -0.33368754 0
1.5465847 0.45522419 -0.33316898 0
1.6475018 0.44462839 -0.33335999 0
1.74909 0.46361288 -0.33325833 0
1.8415296 0.45036623 -0.33293465 0
1.9481533 0.44520837 -0.33187076 0
2.0439289 0.44568634 -0.33137527 0
2.1304195 0.4485805 -0.33122692 0
2.2335579 0.45705357 -0.33113039 0
2.3518977 0.44272399 -0.33120462 0
2.476651 0.44795117 -0.3306599 0
2.5616331 0.44438678 -0.33009148 0
2.6468353 0.43966579 -0.32976115 0
-2.7265129 0.55384237 -0.34260461 0
-2.6546431 0.54897034 -0.34262949 0
-2.5250676 0.55058783 -0.34215626 0
-2.436574 0.54959077 -0.34191623 0
-2.3467817 0.54699332 -0.34144416 0
-2.2545879 0.55965632 -0.34105191 0
-2.1640317 0.55358815 -0.34044018 0
-2.0668492 0.54058367 -0.33999693 0
-1.9400915 0.53111237 -0.33937845 0
-1.83032 0.51038045 -0.33848324 0
-1.2308942 0.59564507 -0.34039372 0
-1.1474748 0.56963187 -0.33988246 0
1.096911 0.58036077 -0.3325277 0
1.1465502 0.54936886 -0.333215 0
1.2409971 0.54344654 -0.33339179 0
1.3362052 0.55486166 -0.33290121 0
1.4485027 0.54678476 -0.3334856 0
1.5552133 0.54023069 -0.33392295 0
1.6325985 0.55927539 -0.33377627 0
1.7468461 0.55519259 -0.33289075 0
1.8600309 0.54467231 -0.33350632 0
1.9579763 0.54597324 -0.33329779 0
2.0326188 0.55124539 -0.33358648 0
2.1483564 0.55639255 -0.33233684 0
2.2654548 0.54519093 -0.33157825 0
2.3752155 0.53576893 -0.3311117 0
2.4588916 0.55464238 -0.33105782 0
2.5502346 0.53697199 -0.33108005 0
2.6382875 0.54760534 -0.33121601 0
-2.7087948 0.65188956 -0.3421022 0
-2.6525025 0.63176048 -0.34188351 0
-2.5578609 0.64806944 -0.34203979 0
-2.4526944 0.64653575 -0.34169495 0
-2.3398244 0.65249467 -0.34137616 0
-2.2253973 0.6550135 -0.34073588 0
-2.1353247 0.66177559 -0.34075081 0
-2.0474858 0.65065372 -0.34031352 0
-1.4388751 0.67131913 -0.34103692 0
-1.32785 0.65653944 -0.34096763 0
-1.2393974 0.65563083 -0.33947703 0
-1.1530055 0.64474499 -0.3401981 0
-1.0860332 0.66215974 -0.34090051 0
1.0652392 0.65469617 -0.33516553 0
1.151003 0.65350342 -0.33451274 0
1.2669519 0.66044015 -0.3354696 0
1.342836 0.63110173 -0.33430094 0
1.4504497 0.65165716 -0.33318746 0
1.5598772 0.65289354 -0.33274952 0
1.6472057 0.63847268 -0.33306348 0
1.7558206 0.65647763 -0.33318904 0
1.8404899 0.65829748 -0.33309367 0
1.9707985 0.65760446 -0.33269131 0
2.0524793 0.63969988 -0.33237287 0
2.1622949 0.64495814 -0.33334616 0
2.2726481 0.65125871 -0.33299908 0
2.3632038 0.6408723 -0.33256313 0
2.4457123 0.64442188 -0.33205098 0
2.5314224 0.64768559 -0.33179832 0
2.6202469 0.65044063 -0.33191904 0
-2.7002244 0.71146208 -0.34286073 0
-2.6666207 0.75191152 -0.34277505 0
-2.557523 0.75276893 -0.34215918 0
-2.450969 0.7502448 -0.34235749 0
-2.3723664 0.75400496 -0.34141296 0
-2.2658818 0.7380622 -0.34118694 0
-2.1516497 0.75229686 -0.3413378 0
-2.0348163 0.76085186 -0.34074578 0
-1.8151406 0.79987061 -0.34004393 0
-1.7391577 0.78132498 -0.34005722 0
-1.663853 0.76190227 -0.3404566 0
-1.559129 0.75464481 -0.34076419 0
-1.4363483 0.74672526 -0.34017193 0
-1.3567394 0.7470839 -0.3384237 0
-1.2533448 0.75047326 -0.33920583 0
-1.1464846 0.7505492 -0.33985874 0
-1.0428962 0.74861586 -0.33958566 0
-0.98689735 0.78620279 -0.33809161 0
0.97188723 0.77427316 -0.33296263 0
1.0443135 0.74946219 -0.3355484 0
1.1490974 0.74062115 -0.3346931 0
1.2430519 0.74864161 -0.33441916 0
1.3499454 0.7553978 -0.33522576 0
1.4584086 0.75068992 -0.33454889 0
1.5427152 0.74439979 -0.33396855 0
1.6310385 0.74672115 -0.33336043 0
1.7424928 0.75776362 -0.33351782 0
1.8667685 0.74404627 -0.33270869 0
1.9534076 0.74190456 -0.33240238 0
2.0531757 0.75092238 -0.33282635 0
2.1474912 0.75082082 -0.33313122 0
2.2364361 0.74625164 -0.33252141 0
2.3264537 0.73938674 -0.3323079 0
2.4388599 0.7465024 -0.33237317 0
2.5621281 0.75813872 -0.33252904 0
2.6041439 0.70610672 -0.33129382 0
-2.6352446 0.84997064 -0.34337005 0
-2.5303614 0.84425652 -0.34352797 0
-2.4386988 0.85265899 -0.34356248 0
-2.3501976 0.84062654 -0.34250176 0
-2.2587345 0.84457868 -0.34219947 0
-2.1683877 0.84640694 -0.34193996 0
-2.0591633 0.83788276 -0.34206504 0
-1.9659073 0.87591732 -0.34115276 0
-1.8526814 0.85462064 -0.3415302 0
-1.7354963 0.85551012 -0.34136456 0
-1.6504849 0.85094172 -0.34138083 0
-1.535038 0.85305095 -0.33974466 0
-1.4555668 0.85213053 -0.3395052 0
-1.3499863 0.84298486 -0.34033793 0
-1.2385153 0.84212732 -0.3386932 0
-1.1681474 0.86678904 -0.34057319 0
-1.0451652 0.85453391 -0.34031776 0
-0.94579601 0.84640712 -0.34022716 0
-0.89294302 0.89614737 -0.33897662 0
0.89029127 0.89344871 -0.33797157 0
0.94672751 0.85126883 -0.33547285 0
1.0443774 0.84436947 -0.33559951 0
1.1545656 0.8541128 -0.3347497 0
1.2432513 0.83953577 -0.33607203 0
1.345948 0.85405815 -0.33449477 0
1.4542371 0.85888577 -0.33394584 0
1.5480373 0.84757513 -0.33533514 0
1.6592363 0.84488744 -0.33443424 0
1.7666131 0.8396315 -0.33415711 0
1.8485184 0.84631014 -0.33374676 0
1.9306284 0.84526277 -0.33387709 0
2.0228014 0.8400051 -0.33340558 0
2.1444879 0.84754926 -0.33309639 0
2.2632351 0.84021264 -0.33346161 0
2.3616142 0.83848065 -0.33343601 0
2.454062 0.84842104 -0.33293447 0
2.5648026 0.85578221 -0.33234969 0
-2.6408823 0.94451159 -0.34439722 0
-2.5648825 0.93137074 -0.34414577 0
-2.444392 0.94591206 -0.34302706 0
-2.3189344 0.94358295 -0.34290826 0
-2.2251482 0.94271636 -0.34258389 0
-2.1301811 0.93867993 -0.34199166 0
-2.0334902 0.9487741 -0.34214121 0
-1.9372416 0.95061839 -0.34197131 0
-1.8386093 0.95590907 -0.34118548 0
-1.7535275 0.9438166 -0.34091145 0
-1.6536996 0.95222551 -0.34055144 0
-1.5502175 0.93751043 -0.34125572 0
-1.4562199 0.95331681 -0.34076062 0
-1.344908 0.95912272 -0.3406387 0
-1.2352755 0.95548838 -0.34070787 0
-1.1267605 0.95162117 -0.34098148 0
-1.0538322 0.9613902 -0.34017807 0
-0.94779122 0.9512431 -0.33993196 0
-0.85379285 0.94934595 -0.33968645 0
-0.79240328 0.9730702 -0.33624834 0
0.77959502 0.985811 -0.33677149 0
0.84763777 0.9542461 -0.3374584 0
0.94441378 0.9573909 -0.33704776 0
1.0583994 0.95607138 -0.33678958 0
1.1317528 0.93949038 -0.33668441 0
1.2490721 0.94377905 -0.33534366 0
1.3608865 0.94768596 -0.33547702 0
1.4421448 0.94420689 -0.33513087 0
1.5277174 0.95399636 -0.33481112 0
1.6368906 0.95485657 -0.33467346 0
1.7434554 0.94676685 -0.3343569 0
1.8648317 0.94236934 -0.33464593 0
1.9777313 0.95747161 -0.33443812 0
2.0594144 0.93949401 -0.33403739 0
2.1645947 0.95385796 -0.33390221 0
2.261158 0.93898457 -0.33371353 0
2.3513803 0.93728381 -0.33371517 0
2.435143 0.95048493 -0.33400226 0
2.5408719 0.95003653 -0.33453077 0
-2.6157532 1.0209609 -0.34477115 0
-2.5691702 1.0540369 -0.34368998 0
-2.4642487 1.0440233 -0.34352049 0
-2.3679013 1.043437 -0.34305188 0
-2.2770207 1.0426434 -0.34321296 0
-2.1632149 1.0434664 -0.34317106 0
-2.0718343 1.0584354 -0.34215307 0
-1.9497283 1.0315652 -0.34141263 0
-1.8671677 1.0573077 -0.34165049 0
-1.7479904 1.050442 -0.34166557 0
-1.6529785 1.0487199 -0.342197 0
-1.540048 1.0495555 -0.34092328 0
-1.4283351 1.0409186 -0.34139997 0
-1.3504249 1.0687058 -0.34081188 0
-1.2406517 1.0477756 -0.34114727 0
-1.1517009 1.047599 -0.3404792 0
-1.0380646 1.0419832 -0.34006485 0
-0.95824975 1.0579555 -0.34090555 0
-0.8485952 1.0421063 -0.33987287 0
-0.75455534 1.0396668 -0.3405017 0
-0.66183031 1.0856738 -0.34073988 0
0.65719479 1.0779384 -0.33834916 0
0.74635577 1.0477178 -0.33813494 0
0.8465032 1.0547522 -0.33736771 0
0.95164376 1.0528727 -0.33528355 0
1.0424198 1.0371403 -0.33752421 0
1.1454717 1.0398958 -0.33732674 0
1.245193 1.0516508 -0.33639193 0
1.3529071 1.0506252 -0.33601791 0
1.4490526 1.0401816 -0.33577386 0
1.5688691 1.0432861 -0.33555999 0
1.6632335 1.0386127 -0.33519939 0
1.7431612 1.0541098 -0.33498371 0
1.8429099 1.0451719 -0.33578998 0
1.9347087 1.0413347 -0.33436742 0
2.047327 1.0645158 -0.33472407 0
2.1274495 1.0487766 -0.3347536 0
2.2420671 1.0460266 -0.33401248 0
2.3471661 1.0411798 -0.33391413 0
2.4528217 1.0497414 -0.3340441 0
2.5132818 1.022648 -0.33394653 0
-2.5309477 1.1500345 -0.34426242 0
-2.4194367 1.1499699 -0.34430084 0
-2.3249373 1.1460353 -0.34434247 0
-2.2264831 1.1374398 -0.34330094 0
-2.1190827 1.1602603 -0.34279338 0
-2.0284286 1.1486157 -0.34264073 0
-1.930845 1.1489264 -0.34261817 0
-1.8293009 1.1532344 -0.34279364 0
-1.7436574 1.1594051 -0.3422012 0
-1.646917 1.1504837 -0.34127825 0
-1.5312538 1.1497896 -0.34152633 0
-1.4351337 1.1432432 -0.34142822 0
-1.3325033 1.1418465 -0.34114477 0
-1.2595989 1.1599333 -0.34141207 0
-1.1435626 1.1478589 -0.34099248 0
-1.0465238 1.1446031 -0.34159353 0
-0.94236523 1.1349903 -0.34125474 0
-0.86168051 1.156202 -0.34201026 0
-0.74951851 1.1440325 -0.34049946 0
-0.64484203 1.153669 -0.34100661 0
-0.5521847 1.1509506 -0.34215391 0
-0.45837444 1.1869072 -0.34099251 0
0.39296108 1.1919667 -0.33629471 0
0.45417929 1.1761614 -0.33793283 0
0.56147939 1.1494632 -0.33834597 0
0.64320558 1.1480112 -0.3375206 0
0.7494666 1.1537658 -0.33908781 0
0.86129314 1.1630012 -0.33767909 0
0.94387597 1.1312966 -0.33752763 0
1.0381691 1.1471244 -0.3362309 0
1.1556078 1.1480105 -0.33770901 0
1.2630749 1.1531537 -0.33647949 0
1.3438083 1.1421643 -0.33624908 0
1.4469213 1.1526339 -0.33634222 0
1.5487865 1.145716 -0.33589816 0
1.6562922 1.1465219 -0.33632189 0
1.7657588 1.156085 -0.33606258 0
1.832001 1.1350273 -0.33462045 0
1.9509478 1.1420151 -0.33543119 0
2.0605812 1.166925 -0.33429408 0
2.14623 1.1551976 -0.33465141 0
2.2532921 1.13088 -0.33463085 0
2.3646152 1.1447603 -0.33449686 0
2.4603312 1.1478566 -0.33385524 0
-2.524771 1.2446634 -0.34564921 0
-2.4584563 1.2559465 -0.34502271 0
-2.3649213 1.2512426 -0.34412798 0
-2.2536087 1.2339149 -0.34368503 0
-2.1610391 1.2649645 -0.34361887 0
-2.0729961 1.2536376 -0.34372726 0
-1.9735665 1.2520764 -0.34358498 0
-1.8611381 1.2568038 -0.34246993 0
-1.7530212 1.2545873 -0.34174535 0
-1.6409762 1.247061 -0.34218228 0
-1.5501137 1.2531862 -0.3420175 0
-1.4549 1.2467299 -0.34217393 0
-1.3509361 1.2440259 -0.34188527 0
-1.2380716 1.2426391 -0.34212443 0
-1.1460216 1.2533865 -0.34263188 0
-1.0530527 1.2378491 -0.34212109 0
-0.95475119 1.2435704 -0.34232008 0
-0.84732145 1.2324026 -0.34149218 0
-0.74315262 1.2604606 -0.33994934 0
-0.64726442 1.2411246 -0.34136072 0
-0.55606163 1.2496923 -0.34153667 0
-0.44016361 1.2538582 -0.34088171 0
-0.34867504 1.249169 -0.33971718 0
-0.24911666 1.2497346 -0.34152335 0
-0.14964193 1.2618679 -0.34058687 0
-0.050023653 1.2694496 -0.34048098 0
0.049796563 1.2686148 -0.34028754 0
0.14943482 1.2593645 -0.33988181 0
0.2532135 1.2496216 -0.33917674 0
0.34355181 1.2499651 -0.33855245 0
0.44344541 1.2541155 -0.33868766 0
0.5410381 1.2534752 -0.33819416 0
0.66341954 1.2649418 -0.33806595 0
0.75070119 1.2502704 -0.33807614 0
0.84419596 1.2483004 -0.33974931 0
0.95409834 1.2504749 -0.33709452 0
1.0548227 1.2547028 -0.33814034 0
1.1507591 1.2585719 -0.3374151 0
1.2393271 1.243775 -0.33825245 0
1.3511944 1.2549779 -0.33667043 0
1.4500173 1.2424769 -0.33661771 0
1.5458812 1.2496636 -0.33620292 0
1.6533878 1.2601234 -0.33624783 0
1.7338941 1.2446024 -0.33614251 0
1.8332748 1.2380224 -0.33679566 0
1.938693 1.2591637 -0.33584487 0
2.054342 1.2490945 -0.33573094 0
2.1287098 1.246022 -0.33594665 0
2.2394526 1.2470282 -0.33448446 0
2.3500464 1.2507192 -0.33423352 0
2.4218078 1.2371882 -0.33464256 0
-2.4440701 1.3472421 -0.34485215 0
-2.3410494 1.3555065 -0.34451357 0
-2.2396345 1.3543875 -0.34461367 0
-2.1213319 1.3457818 -0.34462637 0
-2.0484517 1.3482509 -0.34403244 0
-1.962978 1.3601578 -0.34283194 0
-1.8665135 1.3602095 -0.34280166 0
-1.7482225 1.3421149 -0.34245032 0
-1.6689365 1.3617765 -0.34315369 0
-1.5536879 1.3507352 -0.34309644 0
-1.4509376 1.3516622 -0.34306747 0
-1.3518467 1.3412062 -0.34269586 0
-1.245597 1.3623097 -0.34354341 0
-1.15443 1.337538 -0.34350851 0
-1.0608383 1.361428 -0.34238225 0
-0.95188427 1.3403294 -0.34248781 0
-0.8491413 1.3490816 -0.34091458 0
-0.7471661 1.3532656 -0.34042549 0
-0.64525002 1.3320849 -0.34212783 0
-0.54678005 1.3573148 -0.34010991 0
-0.4617129 1.360652 -0.33980671 0
-0.34437004 1.3518771 -0.34122816 0
-0.24899808 1.3495108 -0.34110996 0
-0.15863106 1.3559953 -0.34159583 0
-0.046387862 1.3467607 -0.34027484 0
0.054425575 1.3560942 -0.33965313 0
0.14971074 1.3559723 -0.33984402 0
0.24362916 1.3510514 -0.33997634 0
0.35080609 1.3509512 -0.33854854 0
0.47074968 1.3620969 -0.33870739 0
0.55758297 1.3520869 -0.33792856 0
0.64195579 1.3381679 -0.33974728 0
0.74348652 1.3463995 -0.3384133 0
0.83873254 1.3581793 -0.33832321 0
0.94983417 1.3532896 -0.33932388 0
1.0577987 1.3531327 -0.33745828 0
1.1429145 1.3386078 -0.33826834 0
1.2512341 1.3489156 -0.33849204 0
1.3409615 1.3457909 -0.33808267 0
1.4509114 1.3555903 -0.33677337 0
1.5458862 1.3439264 -0.33685055 0
1.6425958 1.3474698 -0.33654135 0
1.7464526 1.3509288 -0.33624423 0
1.854449 1.3513794 -0.33647382 0
1.9659497 1.3482003 -0.33691508 0
2.0626838 1.3504848 -0.33644143 0
2.1695881 1.3331751 -0.33590069 0
2.2649181 1.3475469 -0.33571827 0
2.3608494 1.3503697 -0.33493677 0
-2.4160733 1.437541 -0.34520406 0
-2.3605187 1.4739802 -0.34580886 0
-2.2570601 1.4546551 -0.34535137 0
-2.1486931 1.451 -0.34436688 0
-2.0449841 1.4459149 -0.34382632 0
-1.9351474 1.4530693 -0.34359598 0
-1.830945 1.4586538 -0.34395337 0
-1.7321163 1.4416696 -0.34363309 0
-1.6281332 1.436092 -0.34462497 0
-1.5705235 1.4672343 -0.34451446 0
-1.4551439 1.4604462 -0.34313682 0
-1.3505254 1.4433941 -0.34437767 0
-1.2482731 1.4674258 -0.34380227 0
-1.1543626 1.4384365 -0.34322995 0
-1.0456213 1.4401618 -0.34220332 0
-0.95673281 1.4652764 -0.34335491 0
-0.84417534 1.4541801 -0.34147704 0
-0.75352037 1.4369509 -0.34120482 0
-0.65739679 1.4499896 -0.3419871 0
-0.54746729 1.4486736 -0.34095106 0
-0.44339323 1.4307548 -0.34234962 0
-0.35478342 1.439485 -0.3419953 0
-0.24730055 1.4571648 -0.34197262 0
-0.1433171 1.4651934 -0.34253573 0
-0.052892104 1.4543742 -0.34084067 0
0.04550077 1.4601502 -0.33988425 0
0.15500785 1.4612185 -0.34073955 0
0.2535437 1.4503256 -0.3403627 0
0.35817167 1.4326085 -0.33912605 0
0.43909591 1.4346406 -0.33991268 0
0.54371506 1.4386227 -0.33858865 0
0.63740772 1.4485339 -0.33867216 0
0.75126582 1.4502103 -0.33892986 0
0.85529631 1.4550238 -0.33850959 0
0.94658035 1.4535564 -0.33892277 0
1.047282 1.4384319 -0.3392449 0
1.1515505 1.4435397 -0.33728293 0
1.2523825 1.4468081 -0.33800927 0
1.3559103 1.4410028 -0.33848029 0
1.4533638 1.4586058 -0.33778974 0
1.5670016 1.4346894 -0.33659703 0
1.6708326 1.452599 -0.33716398 0
1.765676 1.4696962 -0.33674622 0
1.8567781 1.4575744 -0.3365812 0
1.9510201 1.4579087 -0.33655539 0
2.0510998 1.4502182 -0.33691734 0
2.1498082 1.4370745 -0.33709228 0
2.2514911 1.4511653 -0.3366653 0
2.3283308 1.4307783 -0.33611256 0
-2.3331354 1.551355 -0.34534565 0
-2.2480323 1.5576588 -0.34456286 0
-2.1756582 1.5617952 -0.34548077 0
-2.0560393 1.5438417 -0.34440652 0
-1.9501872 1.5536346 -0.34452614 0
-1.8533306 1.5651832 -0.34438965 0
-1.7583362 1.5509864 -0.3445594 0
-1.6514521 1.5426257 -0.34453484 0
-1.5346379 1.5402672 -0.34336948 0
-1.4621674 1.5626787 -0.344731 0
-1.3458893 1.5505474 -0.34390983 0
-1.2550296 1.5638785 -0.34385389 0
-1.1553847 1.5502907 -0.34324393 0
-1.0511943 1.5446676 -0.34417185 0
-0.94120789 1.551957 -0.34261736 0
-0.85637933 1.5480441 -0.34226501 0
-0.75350672 1.5600104 -0.34093955 0
-0.63739145 1.5565487 -0.34208322 0
-0.56027466 1.5491567 -0.3413831 0
-0.44621405 1.5498366 -0.34161589 0
-0.34498742 1.5476943 -0.34187594 0
-0.26027611 1.5545858 -0.34179512 0
-0.15013948 1.5499989 -0.34269696 0
-0.049774081 1.5466652 -0.34047014 0
0.049693115 1.5434071 -0.33991423 0
0.14805058 1.550997 -0.34011897 0
0.25403917 1.5402919 -0.34088883 0
0.34186426 1.5560105 -0.3397387 0
0.44200772 1.545758 -0.34062409 0
0.55831099 1.5434887 -0.33949831 0
0.66200548 1.5675083 -0.338467 0
0.73941922 1.5625622 -0.33884248 0
0.83893073 1.5422809 -0.33961183 0
0.94910365 1.5570053 -0.33931747 0
1.0463116 1.5519564 -0.3396084 0
1.1434736 1.5454395 -0.33906776 0
1.2558873 1.5467603 -0.33769241 0
1.3450998 1.558556 -0.33821666 0
1.455653 1.557169 -0.33898905 0
1.5488514 1.5323523 -0.33844522 0
1.6455665 1.5522842 -0.33619139 0
1.7413162 1.5504786 -0.33776364 0
1.8463908 1.5516621 -0.33677873 0
1.9303026 1.5377483 -0.3366617 0
2.0300701 1.5472078 -0.3368338 0
2.1438367 1.5388781 -0.33716977 0
2.2477033 1.5556419 -0.33695063 0
2.3005033 1.5060849 -0.33761477 0
-2.3042917 1.6292411 -0.34650847 0
-2.2453949 1.6610034 -0.34602037 0
-2.1393011 1.654824 -0.34496942 0
-2.0247402 1.6368082 -0.34505635 0
-1.9500955 1.646929 -0.34531727 0
-1.8685918 1.6559454 -0.34581542 0
-1.7492726 1.6577443 -0.34490922 0
-1.6523007 1.6583757 -0.34425405 0
-1.5411011 1.6615531 -0.34552485 0
-1.4439268 1.6252289 -0.34476176 0
-1.3662878 1.6777489 -0.34445503 0
-1.2561414 1.6605556 -0.34414223 0
-1.1413388 1.6515939 -0.34450909 0
-1.0486863 1.6399925 -0.34366524 0
-0.95194381 1.6671774 -0.3427698 0
-0.84337997 1.6361809 -0.34266853 0
-0.73451614 1.6612841 -0.34307036 0
-0.64598191 1.6379027 -0.34228605 0
-0.54721022 1.6637634 -0.34288329 0
-0.45886871 1.6685715 -0.34144741 0
-0.34425655 1.6530044 -0.34234825 0
-0.23932004 1.6539042 -0.34214416 0
-0.15609293 1.6495109 -0.34282076 0
-0.054857366 1.6499254 -0.34076768 0
0.052977953 1.6441928 -0.34029916 0
0.14840195 1.6574165 -0.34158137 0
0.24425898 1.6533834 -0.34139526 0
0.35370874 1.6509244 -0.34088999 0
0.45879969 1.668437 -0.34009585 0
0.55174887 1.6494335 -0.3403607 0
0.64968169 1.636979 -0.34026274 0
0.75356334 1.6612765 -0.33943799 0
0.85359854 1.6560453 -0.33952785 0
0.95642227 1.6474798 -0.33966053 0
1.0466737 1.6629972 -0.34031081 0
1.1553961 1.6465802 -0.33963737 0
1.2425249 1.6426214 -0.33826685 0
1.3439077 1.6529245 -0.33751801 0
1.4343185 1.6379324 -0.33810696 0
1.5559241 1.6535927 -0.33939615 0
1.6294827 1.6352594 -0.33856583 0
1.7314551 1.6410272 -0.33768553 0
1.8421197 1.6482538 -0.33765435 0
1.9535868 1.6499459 -0.33727938 0
2.0527387 1.6594278 -0.33676234 0
2.1570752 1.6522118 -0.33700123 0
2.2238872 1.6206141 -0.33787912 0
-2.2251859 1.7211977 -0.34541437 0
-2.162684 1.7636322 -0.34588528 0
-2.0522077 1.7331432 -0.34577271 0
-1.9431947 1.7388248 -0.34539554 0
-1.8607768 1.7469431 -0.34571731 0
-1.7612504 1.7506515 -0.34449932 0
-1.6581484 1.7452446 -0.34549358 0
-1.5478766 1.767566 -0.34538323 0
-1.4518757 1.7318043 -0.34461114 0
-1.3372381 1.7487558 -0.34510684 0
-1.2603668 1.7692119 -0.3452872 0
-1.1624631 1.7347223 -0.34470436 0
-1.0505478 1.7513489 -0.34354648 0
-0.94253814 1.7662532 -0.34365213 0
-0.85897732 1.733166 -0.34304985 0
-0.75538683 1.7654173 -0.34288263 0
-0.6596635 1.7372345 -0.34309623 0
-0.55309582 1.7620734 -0.34364665 0
-0.43822679 1.7560562 -0.34172145 0
-0.3564738 1.7238674 -0.34221852 0
-0.25731 1.7414502 -0.34222218 0
-0.15171893 1.7468475 -0.34320825 0
-0.055044152 1.7486377 -0.3410525 0
0.03888984 1.7492393 -0.34133136 0
0.14586517 1.7515494 -0.3417182 0
0.24433495 1.7403727 -0.34165502 0
0.35239932 1.7404693 -0.34213546 0
0.42896336 1.7429733 -0.33989781 0
0.54828042 1.7471302 -0.34075022 0
0.65522099 1.7333922 -0.34099245 0
0.74940336 1.7516003 -0.3401219 0
0.85046792 1.7729962 -0.34041181 0
0.94856733 1.7472718 -0.34072196 0
1.0384588 1.75969 -0.33959717 0
1.1610976 1.763278 -0.34098798 0
1.2564747 1.7372872 -0.33979934 0
1.3530807 1.7623985 -0.3385573 0
1.4592446 1.748733 -0.33845496 0
1.5483785 1.7514631 -0.33848739 0
1.6430268 1.7462615 -0.33920866 0
1.748353 1.7547379 -0.33853984 0
1.8659521 1.7431549 -0.3377721 0
1.972876 1.7653258 -0.3382799 0
2.0669763 1.758287 -0.33741632 0
2.1207316 1.7312273 -0.33687901 0
-2.1306121 1.8522234 -0.3466638 0
-2.0580263 1.8415649 -0.34594199 0
-1.9519199 1.8497828 -0.34574452 0
-1.8360916 1.8428217 -0.34567308 0
-1.7447515 1.8542798 -0.34616336 0
-1.6503352 1.8401459 -0.34639195 0
-1.5633326 1.8647375 -0.34540144 0
-1.4448531 1.8542604 -0.34563196 0
-1.3285135 1.8367752 -0.34569737 0
-1.2481532 1.8484534 -0.3465645 0
-1.1562659 1.8370342 -0.34422028 0
-1.0672626 1.8734038 -0.34430608 0
-0.95415318 1.8511394 -0.34413052 0
-0.84392279 1.8464476 -0.34328705 0
-0.74808353 1.8576803 -0.34407866 0
-0.65638715 1.8388656 -0.34367988 0
-0.54980367 1.8432276 -0.34332922 0
-0.4419772 1.8661273 -0.34234494 0
-0.34820953 1.8456007 -0.34318843 0
-0.25304857 1.8384151 -0.34264621 0
-0.15158528 1.8387756 -0.34325528 0
-0.059171401 1.8343428 -0.34165597 0
0.048941154 1.8460805 -0.34104326 0
0.15115583 1.8325673 -0.34230578 0
0.25554541 1.820168 -0.34213889 0
0.34327683 1.8598436 -0.34218717 0
0.45368898 1.8564292 -0.34122509 0
0.55988574 1.8296827 -0.34142303 0
0.64455986 1.8481028 -0.34053701 0
0.74266195 1.8442801 -0.34121901 0
0.84415436 1.8679798 -0.34060997 0
0.95887232 1.8281047 -0.34074014 0
1.0594068 1.8678335 -0.34045914 0
1.149852 1.8331816 -0.34138957 0
1.2590036 1.8502482 -0.34082329 0
1.3698878 1.8657211 -0.3396461 0
1.4543219 1.8389498 -0.3381491 0
1.5367339 1.8329164 -0.33874324 0
1.6488528 1.855873 -0.3391912 0
1.7735953 1.8581723 -0.33943644 0
1.8584214 1.8563432 -0.33924815 0
1.9453067 1.8435999 -0.33830446 0
2.0394549 1.8407876 -0.33846146 0
-2.0407891 1.9341853 -0.34646645 0
-1.9750018 1.9634055 -0.34582815 0
-1.8615655 1.9503381 -0.34650636 0
-1.7514311 1.9433026 -0.34682411 0
-1.6588309 1.9500654 -0.3457258 0
-1.5538179 1.9454266 -0.34558573 0
-1.443782 1.9663966 -0.34627914 0
-1.3529447 1.9282355 -0.34621358 0
-1.2525715 1.9588485 -0.34502333 0
-1.1489779 1.9469695 -0.34482932 0
-1.0308374 1.9268328 -0.34451953 0
-0.95375276 1.9524046 -0.34523481 0
-0.86118799 1.9634082 -0.34402937 0
-0.75144285 1.9458103 -0.34448567 0
-0.6512934 1.947122 -0.34425902 0
-0.5453614 1.9396193 -0.34288928 0
-0.4470644 1.9495344 -0.34315261 0
-0.34931988 1.9717803 -0.3435508 0
-0.24533133 1.9490274 -0.34371638 0
-0.15590601 1.9442955 -0.34353617 0
-0.048949715 1.9529696 -0.34201118 0
0.040312242 1.9478257 -0.34216517 0
0.15450034 1.9476395 -0.34285599 0
0.25167894 1.9521658 -0.3433781 0
0.3483803 1.9661258 -0.34260979 0
0.44575357 1.9441129 -0.34189147 0
0.55818182 1.9393526 -0.34210244 0
