# .PCD v0.7 - Point Cloud Data file format
VERSION 0.7
FIELDS x y z intensity
SIZE 4 4 4 4
TYPE F F F F
COUNT 1 1 1 1
WIDTH 1367
HEIGHT 1
VIEWPOINT 0 0 0 1 0 0 0
POINTS 1367
DATA ascii
2.2518928 0.24265753 -0.41217509 0
2.3367889 0.25180909 -0.414718 0
2.4216852 0.26096061 -0.41726097 0
2.5588508 0.24600704 -0.42027825 0
2.6581068 0.24811716 -0.42286113 0
1.7516155 0.35149792 -0.40202543 0
1.8519268 0.34877318 -0.40390447 0
1.9479533 0.34503162 -0.40651417 0
2.0606916 0.34828597 -0.4098472 0
2.1654704 0.35971943 -0.41275194 0
2.2530029 0.34117398 -0.41499773 0
2.3376224 0.35398769 -0.4176527 0
2.423075 0.34917802 -0.41981289 0
2.5487556 0.34874856 -0.42331123 0
2.6757042 0.34012759 -0.42723188 0
1.5467428 0.4915759 -0.40002632 0
1.6740696 0.44095722 -0.40267071 0
1.7606173 0.45030662 -0.40381482 0
1.8375167 0.45611331 -0.40572393 0
1.93748 0.44870836 -0.40857846 0
2.0632069 0.45287114 -0.41292205 0
2.1645286 0.45569643 -0.41605476 0
2.2525995 0.44079217 -0.41823304 0
2.3367062 0.45724878 -0.42091179 0
2.4231243 0.43831399 -0.42277145 0
2.5395265 0.4516809 -0.42606497 0
2.6709228 0.45156392 -0.42913097 0
1.5933176 0.55712003 -0.40108609 0
1.6490505 0.55905157 -0.40323031 0
1.7413156 0.53977525 -0.40535989 0
1.8482265 0.54668552 -0.40819511 0
1.9570562 0.56088531 -0.41257343 0
2.054549 0.55728364 -0.41531777 0
2.1480143 0.54960841 -0.41714016 0
2.2329185 0.53737855 -0.41872939 0
2.3163993 0.55746824 -0.42155662 0
2.448231 0.55223221 -0.42525634 0
2.5841935 0.54406911 -0.42973033 0
2.6681912 0.56177914 -0.43237469 0
1.3929956 0.69912577 -0.40002 0
1.4503027 0.66378927 -0.40138826 0
1.566602 0.65063387 -0.40256667 0
1.6348999 0.66528255 -0.4044672 0
1.7541219 0.6416412 -0.40796229 0
1.8661487 0.63461465 -0.4113161 0
1.9606013 0.65413541 -0.41439414 0
2.0431027 0.6493839 -0.41700673 0
2.1342285 0.64476395 -0.41961339 0
2.244432 0.65215355 -0.42336804 0
2.362541 0.64779198 -0.42642862 0
2.4786816 0.65312767 -0.42928797 0
2.5641012 0.65606904 -0.43127418 0
2.654464 0.64685595 -0.43312803 0
1.2843455 0.76417369 -0.4004882 0
1.3619417 0.76482588 -0.40144253 0
1.4477421 0.75272441 -0.40266508 0
1.5638477 0.76244771 -0.4061819 0
1.6474369 0.74009854 -0.40765017 0
1.760233 0.74586397 -0.41057616 0
1.8442314 0.75046563 -0.41334334 0
1.9397504 0.76038396 -0.41636437 0
2.0178645 0.75008601 -0.41872111 0
2.1412067 0.75567997 -0.42214584 0
2.2496192 0.74362379 -0.42462143 0
2.3720589 0.75390577 -0.42852399 0
2.4638858 0.74436313 -0.4314152 0
2.5539784 0.7517103 -0.43478328 0
2.647614 0.75054228 -0.43724266 0
1.2559488 0.87430644 -0.40145412 0
1.3533024 0.85852689 -0.40354228 0
1.4562353 0.8524003 -0.40648487 0
1.5463153 0.84520817 -0.40824071 0
1.6348028 0.84997809 -0.41010842 0
1.7377239 0.85980952 -0.41408142 0
1.8457855 0.85462058 -0.41682762 0
1.9766079 0.85426044 -0.42033929 0
2.0801468 0.8464213 -0.42291158 0
2.1645877 0.86272031 -0.42570114 0
2.2567713 0.86230725 -0.4283756 0
2.34642 0.8583293 -0.43076575 0
2.4362042 0.85177737 -0.43267539 0
2.5253801 0.84262449 -0.43470517 0
2.6253417 0.84260923 -0.43739533 0
1.1389101 0.97595692 -0.40192929 0
1.250977 0.93926316 -0.4021993 0
1.3318274 0.95602572 -0.40517646 0
1.460258 0.96187717 -0.40846696 0
1.5424783 0.93939441 -0.41031292 0
1.6679688 0.94765377 -0.41441399 0
1.7654108 0.95020241 -0.41665301 0
1.8572173 0.94883698 -0.42007864 0
1.9555541 0.94675475 -0.42295873 0
2.0451231 0.95412922 -0.42499694 0
2.136198 0.95967084 -0.42770115 0
2.2244551 0.96138382 -0.4300133 0
2.3318624 0.9683646 -0.43311718 0
2.4375231 0.9582296 -0.43592334 0
2.5556118 0.94298047 -0.43878469 0
2.6133339 0.95593315 -0.44076309 0
1.0727284 1.0462219 -0.40155685 0
1.1519691 1.0457586 -0.40277839 0
1.2491151 1.0398244 -0.40428498 0
1.3631874 1.0583758 -0.40791497 0
1.4362729 1.0467273 -0.41035587 0
1.5297121 1.0490708 -0.41279653 0
1.6402404 1.0537237 -0.41608477 0
1.7568191 1.0522133 -0.41931963 0
1.8699646 1.0563854 -0.42140201 0
1.9393125 1.0351546 -0.42443228 0
2.0476589 1.0523952 -0.42896339 0
2.1498818 1.0598954 -0.4314948 0
2.2599947 1.0543864 -0.43342733 0
2.3723216 1.0657488 -0.43671015 0
2.4660435 1.0448462 -0.43894124 0
2.5678515 1.0577059 -0.44228354 0
0.95486587 1.1555685 -0.40169215 0
1.0553857 1.1433548 -0.40265238 0
1.153753 1.1546234 -0.40636462 0
1.2533925 1.1423593 -0.40839604 0
1.3598045 1.1450663 -0.41068 0
1.4604459 1.1463735 -0.41319829 0
1.5572926 1.1520196 -0.4163034 0
1.6625676 1.1401782 -0.41901293 0
1.7443146 1.159893 -0.42186463 0
1.8539158 1.1466243 -0.42451888 0
1.9466184 1.1583101 -0.42682311 0
2.0505552 1.1418239 -0.42931512 0
2.147023 1.1555963 -0.43307075 0
2.2449999 1.1671821 -0.43665051 0
2.343534 1.1553547 -0.43902653 0
2.4365425 1.1367536 -0.44046614 0
2.5424266 1.1508893 -0.44348186 0
0.79645848 1.2653992 -0.40063328 0
0.88086891 1.2626292 -0.40104142 0
0.95184058 1.2581172 -0.40215611 0
1.0448936 1.248912 -0.40446973 0
1.1468672 1.2507296 -0.40717378 0
1.248516 1.2529548 -0.41080135 0
1.342634 1.2364569 -0.41361439 0
1.4582982 1.2495875 -0.41647255 0
1.5531098 1.2555166 -0.41831726 0
1.6487303 1.2492521 -0.42166442 0
1.7708942 1.2615597 -0.42506766 0
1.8302733 1.223375 -0.4258877 0
1.9501615 1.256928 -0.43054086 0
2.0535259 1.2418418 -0.43256298 0
2.1516473 1.2527239 -0.43488979 0
2.2590241 1.2579242 -0.43866536 0
2.3644316 1.2438555 -0.44125357 0
2.4775696 1.2525072 -0.44462028 0
2.5265965 1.245527 -0.44616672 0
0.75297046 1.363629 -0.40028352 0
0.85205036 1.3537785 -0.40298954 0
0.94970894 1.3491466 -0.40419167 0
1.0629575 1.3640133 -0.40757495 0
1.1475396 1.345675 -0.40918991 0
1.2384521 1.3481995 -0.41248834 0
1.3551284 1.3481659 -0.41630387 0
1.4511662 1.3560542 -0.41925928 0
1.5316322 1.3508937 -0.42107049 0
1.6583706 1.3629391 -0.42397356 0
1.7394372 1.3305898 -0.42633194 0
1.8412504 1.3418208 -0.42933744 0
1.9379587 1.3495417 -0.43197489 0
2.0482433 1.3409382 -0.43512714 0
2.1417446 1.3587946 -0.43833661 0
2.2388687 1.3539159 -0.44073927 0
2.3343911 1.3440634 -0.44317552 0
2.4504559 1.3552623 -0.44704437 0
0.67225766 1.4551816 -0.40087679 0
0.76063365 1.455162 -0.40189558 0
0.84250003 1.4512118 -0.40460742 0
0.95739233 1.451086 -0.40732446 0
1.0423522 1.4386721 -0.40847504 0
1.1585705 1.4436338 -0.41206393 0
1.2648888 1.4655527 -0.4163821 0
1.3553624 1.4530779 -0.41900778 0
1.4578164 1.4630067 -0.42162961 0
1.5538687 1.4516147 -0.42395064 0
1.644191 1.4501078 -0.42660856 0
1.7631929 1.4464728 -0.42976388 0
1.8700676 1.4464632 -0.43251875 0
1.9709592 1.4580721 -0.43583199 0
2.0633121 1.4368273 -0.43794793 0
2.1846485 1.4526317 -0.44204184 0
2.2552495 1.4461125 -0.44354263 0
2.3597865 1.4501752 -0.44646037 0
2.4345446 1.4485041 -0.44871297 0
0.59645045 1.5451708 -0.4011344 0
0.64715993 1.5488111 -0.4021824 0
0.76187652 1.5596749 -0.40443993 0
0.8638739 1.5382044 -0.40734571 0
0.94673598 1.5390002 -0.41037935 0
1.0545121 1.5495204 -0.41216338 0
1.1529605 1.5469711 -0.41449279 0
1.2484075 1.555572 -0.41810226 0
1.3415353 1.5542924 -0.42092037 0
1.4281979 1.5397576 -0.42371258 0
1.5472904 1.5528175 -0.42686033 0
1.6667401 1.5571896 -0.42984304 0
1.7453995 1.5544796 -0.43218279 0
1.8370138 1.5438071 -0.43467417 0
1.9491664 1.552743 -0.43712893 0
2.052145 1.5487913 -0.44084764 0
2.1480026 1.5418847 -0.44273978 0
2.2549527 1.5545393 -0.44666776 0
2.3571789 1.5527668 -0.44931951 0
0.497293 1.6675 -0.40172705 0
0.56027937 1.6462955 -0.40154848 0
0.65951383 1.6336735 -0.40503457 0
0.74358732 1.649547 -0.40726611 0
0.85634106 1.6384287 -0.40832463 0
0.93794745 1.6647289 -0.4131999 0
1.0461769 1.6486281 -0.41523734 0
1.1538447 1.6443305 -0.41749734 0
1.2485533 1.6504511 -0.41966838 0
1.3666285 1.6698726 -0.42533681 0
1.4559522 1.6388229 -0.42724481 0
1.5658067 1.6641576 -0.43066394 0
1.6531576 1.6513623 -0.43176374 0
1.7433882 1.6442283 -0.43401048 0
1.8430117 1.6254343 -0.43726119 0
1.9322847 1.6557282 -0.44052112 0
2.0400913 1.6492161 -0.44238445 0
2.1577861 1.6445309 -0.44561365 0
2.2678015 1.6610107 -0.44898471 0
2.3221622 1.6418297 -0.45044801 0
0.39185309 1.7666945 -0.40194374 0
0.42908162 1.7554867 -0.40130383 0
0.5627197 1.7400967 -0.40360445 0
0.64737338 1.7510341 -0.40748629 0
0.74035889 1.7650497 -0.41043288 0
0.84410304 1.7432259 -0.41233295 0
0.95464718 1.758108 -0.41546333 0
1.0574902 1.7461033 -0.41772714 0
1.1514094 1.745167 -0.41997954 0
1.2589895 1.7671843 -0.42381454 0
1.3442912 1.7306677 -0.42485908 0
1.4546651 1.7604303 -0.43035969 0
1.5518641 1.7550265 -0.43235216 0
1.6276784 1.7298175 -0.43449396 0
1.7341321 1.7403358 -0.43689957 0
1.8441314 1.7477636 -0.43973988 0
1.9440575 1.7647272 -0.44340244 0
2.0491929 1.7559025 -0.4463743 0
2.1426475 1.7492942 -0.44851482 0
2.2308948 1.7410691 -0.4502961 0
0.35315049 1.8400427 -0.40144643 0
0.44691926 1.8288546 -0.40320593 0
0.54461932 1.8538421 -0.40595189 0
0.64554638 1.8675627 -0.40953732 0
0.74438477 1.8483251 -0.41279632 0
0.8460744 1.8446354 -0.4152782 0
0.93704093 1.8506076 -0.41704211 0
1.0571724 1.871891 -0.42301631 0
1.1420026 1.8461553 -0.42223045 0
1.2372594 1.8463006 -0.4256551 0
1.3560386 1.8469198 -0.42869532 0
1.4505738 1.8614177 -0.43192169 0
1.5507363 1.8495687 -0.43524313 0
1.6466274 1.8269707 -0.4369781 0
1.7441543 1.8536946 -0.44061175 0
1.8687414 1.8487062 -0.44324335 0
1.9713247 1.8683183 -0.44595048 0
2.0402272 1.8520625 -0.44878596 0
2.1479106 1.8402524 -0.45114887 0
0.17832114 1.9881117 -0.400065 0
0.2586523 1.9419711 -0.40141231 0
0.35416225 1.9191458 -0.40388703 0
0.45499101 1.9569435 -0.40746975 0
0.55542058 1.9641666 -0.4091306 0
0.6428504 1.9498392 -0.41175699 0
0.74578869 1.9309351 -0.41511062 0
0.84553975 1.9661534 -0.41752437 0
0.9477663 1.9402045 -0.42009607 0
1.0428263 1.9375082 -0.42287168 0
1.16266 1.9384789 -0.4258599 0
1.2627233 1.9746304 -0.42866576 0
1.3400308 1.9390464 -0.431144 0
1.4596545 1.958558 -0.43480083 0
1.5610367 1.964457 -0.43825305 0
1.64783 1.9370629 -0.43952417 0
1.7625295 1.9555615 -0.44320735 0
1.8625197 1.9512908 -0.44638979 0
1.9602817 1.9581219 -0.44877616 0
2.0497303 1.9426112 -0.44990081 0
2.1366794 1.9118441 -0.45412284 0
0.095800415 2.0579898 -0.40046531 0
0.15533078 2.062041 -0.40199631 0
0.24603862 2.0461023 -0.40402886 0
0.35253331 2.052218 -0.40793926 0
0.45319435 2.0631075 -0.41067746 0
0.54970396 2.0416174 -0.41114062 0
0.65424401 2.0275505 -0.41429195 0
0.76648688 2.0278504 -0.41841576 0
0.85087365 2.0701168 -0.42132339 0
0.94254953 2.0391741 -0.42293826 0
1.0373319 2.0605247 -0.42584062 0
1.1493514 2.0466967 -0.42900559 0
1.2546024 2.0580697 -0.43131107 0
1.3581944 2.0267482 -0.43353662 0
1.4678541 2.0603592 -0.43812481 0
1.5534079 2.0534439 -0.44067791 0
1.6423441 2.0463986 -0.44245565 0
1.7463713 2.0529058 -0.44532722 0
1.851101 2.0538816 -0.44919699 0
1.9414055 2.063246 -0.45165271 0
2.0146303 2.0218592 -0.45207706 0
0.084270969 2.139081 -0.40194029 0
0.16139893 2.1430588 -0.40372908 0
0.25528088 2.1513641 -0.40705076 0
0.35024646 2.1558828 -0.41029504 0
0.44499728 2.1512499 -0.4129039 0
0.53708225 2.1309824 -0.41335604 0
0.65560651 2.1308219 -0.41681686 0
0.7475419 2.1628597 -0.42082611 0
0.85322827 2.1630979 -0.42412481 0
0.94581836 2.1254723 -0.42489171 0
1.0386702 2.165262 -0.42917019 0
1.1419024 2.1395662 -0.43064401 0
1.2484517 2.1622083 -0.43524161 0
1.3525763 2.1489589 -0.43624955 0
1.4430192 2.1533375 -0.4392373 0
1.5558085 2.1401141 -0.44295272 0
1.6456275 2.1433322 -0.44526434 0
1.7384626 2.1662054 -0.44857413 0
1.8379543 2.1482887 -0.44967189 0
1.9137027 2.1233411 -0.45273608 0
-0.057032246 2.2776556 -0.40098423 0
0.040120501 2.2406762 -0.40262839 0
0.13552433 2.2254324 -0.40539208 0
0.24912184 2.235894 -0.40908903 0
0.36388984 2.2398918 -0.41255105 0
0.46229616 2.2348814 -0.4153676 0
0.56323993 2.2347674 -0.4168404 0
0.64413291 2.2541492 -0.41993612 0
0.74878663 2.2710679 -0.42358312 0
0.85116863 2.2514827 -0.42603278 0
0.95541012 2.2327166 -0.42793077 0
1.0510982 2.2740169 -0.43194917 0
1.1582848 2.2473407 -0.43411788 0
1.2505412 2.2646122 -0.43759981 0
1.3404717 2.2346706 -0.43869454 0
1.4495157 2.2667465 -0.44217801 0
1.5490603 2.2415173 -0.44520155 0
1.6600747 2.2610087 -0.44959712 0
1.7522855 2.2487249 -0.45155835 0
-0.15979099 2.3469012 -0.40078428 0
-0.059187651 2.3634291 -0.40294567 0
0.042087432 2.3502445 -0.40581995 0
0.14329688 2.3529871 -0.40921995 0
0.24164891 2.3199506 -0.41095224 0
0.34325513 2.3225729 -0.41392767 0
0.44556198 2.3211794 -0.41659328 0
0.55646831 2.3480656 -0.42029431 0
0.65246856 2.3725536 -0.42337954 0
0.74035436 2.3585818 -0.42530361 0
0.84558988 2.3375952 -0.4280057 0
0.94980413 2.3419895 -0.43114486 0
1.0510734 2.3620434 -0.43420446 0
1.1400526 2.3336339 -0.43658072 0
1.2449889 2.3735876 -0.4401688 0
1.3363417 2.34038 -0.44166398 0
1.434902 2.3538303 -0.44446066 0
1.5368087 2.3511853 -0.44686976 0
1.6351819 2.3302236 -0.45088553 0
-0.31272283 2.484062 -0.40032396 0
-0.24006908 2.4735649 -0.40147379 0
-0.14817137 2.4329858 -0.40338075 0
-0.061307907 2.4481285 -0.40525755 0
0.044169154 2.4668343 -0.4087441 0
0.15106943 2.4805417 -0.41304782 0
0.25487837 2.4469509 -0.41453859 0
0.35336572 2.4403739 -0.41715965 0
0.45150563 2.4481232 -0.41961566 0
0.54581726 2.4607797 -0.42319715 0
0.65709049 2.4579442 -0.42572156 0
0.74780858 2.4435177 -0.42752796 0
0.8387022 2.426604 -0.43042132 0
0.93782341 2.459887 -0.43342867 0
1.0492419 2.4519856 -0.43645546 0
1.1693997 2.4377873 -0.44002062 0
1.2613577 2.4762144 -0.44340229 0
1.3432357 2.4491906 -0.44493598 0
1.4342899 2.4304163 -0.44700274 0
-0.31622407 2.5118735 -0.40098131 0
-0.23983631 2.5293624 -0.40323082 0
-0.14182442 2.5573795 -0.40726489 0
-0.053502657 2.5605469 -0.40834028 0
0.046019357 2.5708394 -0.41135868 0
0.15625113 2.5655782 -0.41559973 0
0.24926721 2.5721049 -0.41674787 0
0.34306729 2.575918 -0.42087129 0
0.4562434 2.5752516 -0.42262205 0
0.55038685 2.5680861 -0.42576519 0
0.64192772 2.5469506 -0.4275116 0
0.75441891 2.5296011 -0.43030843 0
0.862643 2.5549257 -0.43510079 0
0.95419329 2.5799963 -0.43650275 0
1.052079 2.5592825 -0.43972495 0
1.1456726 2.5259395 -0.44069606 0
1.2307384 2.5192447 -0.44408944 0
-0.43113458 2.6542747 -0.40133971 0
-0.34643635 2.649384 -0.40280247 0
-0.25587085 2.6412539 -0.40519106 0
-0.14283337 2.6607571 -0.40992665 0
-0.047676466 2.6717434 -0.4112466 0
0.040767007 2.6342669 -0.41333744 0
0.16038311 2.6316426 -0.41761246 0
0.25471336 2.6283243 -0.418246 0
0.34310573 2.6489248 -0.42308238 0
0.44741344 2.6353307 -0.42337829 0
0.54660851 2.6422241 -0.42737699 0
0.65048307 2.6338625 -0.42991462 0
0.74213201 2.624891 -0.43288478 0
0.83286375 2.6095827 -0.43424568 0
0.90475363 2.6177778 -0.43867964 0
-0.55620861 2.7897961 -0.40119717 0
-0.44553089 2.7429142 -0.40327507 0
-0.33679754 2.7541308 -0.40582278 0
-0.24791083 2.7616854 -0.40894222 0
-0.14767437 2.7508647 -0.41208908 0
-0.049294405 2.7621503 -0.41357481 0
0.059173435 2.7641201 -0.41716307 0
0.14593807 2.716321 -0.41894269 0
0.20581871 2.7339115 -0.42231807 0
0.32552665 2.7440231 -0.42572534 0
-0.61467737 2.8682921 -0.40214026 0
-0.55325973 2.8823991 -0.40349996 0
-0.45992723 2.8315537 -0.40521047 0
-0.36002219 2.8610935 -0.40780988 0
-0.25596437 2.8514705 -0.41109923 0
-0.15251537 2.8409727 -0.41425145 0
-0.050912343 2.8525572 -0.415903 0
0.051512375 2.8756609 -0.41993597 0
0.1532369 2.8521595 -0.4226222 0
0.21263249 2.8244195 -0.42477804 0
0.33622614 2.8342142 -0.42817831 0
-0.73284954 2.9981551 -0.40062356 0
-0.6523397 2.9414778 -0.40236607 0
-0.57017171 2.9705093 -0.40543589 0
-0.45312715 2.9215438 -0.40713882 0
-0.351513 2.9633367 -0.41116089 0
-0.26401794 2.9412556 -0.41325623 0
-0.15735637 2.9310806 -0.41641387 0
-0.052530278 2.9429643 -0.41823119 0
0.053135306 2.9662774 -0.4224157 0
0.16053574 2.987998 -0.42630166 0
0.21944627 2.9149275 -0.42723805 0
0.34692562 2.9244056 -0.43063125 0
-0.84130365 3.0593874 -0.40053657 0
-0.7742182 3.0721364 -0.40161008 0
-0.65075308 3.0371182 -0.40500841 0
-0.53398126 3.0564601 -0.40933827 0
-0.45676646 3.0400181 -0.40975842 0
-0.36210257 3.0526059 -0.41310173 0
-0.24289425 3.0506508 -0.4169232 0
-0.14102736 3.0297723 -0.41949019 0
-0.054148216 3.0333714 -0.42055941 0
0.054758232 3.0568941 -0.42489538 0
0.16540162 3.078557 -0.42875469 0
0.22966693 3.0506897 -0.43092805 0
0.35762513 3.0145967 -0.43308422 0
-0.95359552 3.1159863 -0.40010971 0
-0.84396362 3.1572604 -0.40254834 0
-0.74980181 3.1647546 -0.40454733 0
-0.64864773 3.1362109 -0.40797788 0
-0.5612272 3.1687107 -0.41134638 0
-0.45940903 3.1601856 -0.41265574 0
-0.3501716 3.14412 -0.41573551 0
-0.23966405 3.1834984 -0.42066139 0
-0.14522184 3.119889 -0.42159712 0
-0.063871533 3.1481197 -0.42304155 0
0.033753168 3.1438112 -0.42645675 0
0.14739071 3.1643803 -0.43054232 0
0.2398876 3.1864519 -0.43461803 0
0.37367433 3.1498833 -0.43676364 0
-0.74060452 3.2296002 -0.40683734 0
-0.67219591 3.2502141 -0.41029108 0
-0.55390829 3.2631881 -0.41386724 0
-0.43340266 3.2528656 -0.41595763 0
-0.33719277 3.2378106 -0.41857195 0
-0.24643266 3.2734213 -0.42280233 0
-0.15868102 3.2395542 -0.4243038 0
-0.05851711 3.2594144 -0.42644358 0
0.034726381 3.2343798 -0.42888343 0
0.15160877 3.2549903 -0.43303955 0
0.24670139 3.2769601 -0.43707803 0
0.38972357 3.2851701 -0.44044307 0
-0.61104774 3.3112705 -0.41343692 0
-0.54378104 3.3481302 -0.41649547 0
-0.43920466 3.3587866 -0.41859654 0
-0.34652251 3.3274109 -0.42071128 0
-0.25320125 3.3633437 -0.42494327 0
-0.14854066 3.3606911 -0.42731825 0
-0.060135044 3.3498216 -0.42877179 0
0.035699598 3.3249483 -0.43131015 0
0.13171966 3.3433108 -0.43483049 0
0.22877811 3.3588238 -0.43824366 0
0.40042305 3.3753614 -0.44289601 0
-0.3483077 3.4243324 -0.42342949 0
-0.26064235 3.4627476 -0.4273181 0
-0.17063399 3.4861288 -0.43004295 0
-0.061752982 3.4402285 -0.43109998 0
0.036672816 3.4155169 -0.43373686 0
0.13528739 3.4339201 -0.43730283 0
0.23494434 3.449384 -0.44074714 0
0.41112256 3.4655526 -0.44534898 0
-0.13812467 3.5076308 -0.43101606 0
-0.054568339 3.5198402 -0.43344006 0
0.038007956 3.5355287 -0.43696147 0
0.1402007 3.5594773 -0.44073391 0
0.24111058 3.5399442 -0.4432506 0
0.42182204 3.5557437 -0.44780192 0
0.24651429 3.6194086 -0.4454478 0
0.43184745 3.6402528 -0.45010033 0
1.4661467 -3.1133294 -0.3024486 0
1.5248185 -3.1212928 -0.30392864 0
1.6008991 -3.1061308 -0.3057211 0
1.4519142 -3.0267458 -0.30393907 0
1.5611385 -3.0649154 -0.30567133 0
1.6673367 -3.0712371 -0.30731964 0
1.7629362 -3.0535944 -0.31139192 0
1.8387476 -3.0489044 -0.31384981 0
1.9467404 -3.0443077 -0.31615064 0
2.0304766 -3.0300081 -0.31910875 0
1.3443397 -2.9638696 -0.30198541 0
1.4341767 -2.9357095 -0.30583584 0
1.5522184 -2.942112 -0.30833021 0
1.6670668 -2.9684536 -0.31043082 0
1.7637134 -2.9402769 -0.31430167 0
1.8688515 -2.9381866 -0.31696954 0
1.9599054 -2.9703751 -0.31851217 0
1.1621857 -2.8271923 -0.30098861 0
1.2600964 -2.8317146 -0.30294538 0
1.3528677 -2.872864 -0.30541292 0
1.4430983 -2.8496246 -0.30792236 0
1.5520371 -2.8423672 -0.30989882 0
1.6499701 -2.8574982 -0.31350163 0
1.7636641 -2.8469775 -0.31697059 0
1.8599367 -2.8188639 -0.31991422 0
1.9335637 -2.8853884 -0.32033473 0
1.083001 -2.7456682 -0.30088985 0
1.1482227 -2.7373285 -0.30253875 0
1.2370123 -2.7449844 -0.30470884 0
1.3549269 -2.7734849 -0.30750388 0
1.4475515 -2.7599521 -0.31039864 0
1.534263 -2.7319643 -0.31299523 0
1.6478592 -2.7617776 -0.31560871 0
1.7634103 -2.7575941 -0.31887466 0
1.832428 -2.734467 -0.32161415 0
1.0720749 -2.6618493 -0.30297244 0
1.1525615 -2.6410518 -0.30474013 0
1.266459 -2.6401551 -0.30860484 0
1.3564688 -2.6631076 -0.31065854 0
1.4441121 -2.6600547 -0.31183141 0
1.5566925 -2.6376879 -0.3166655 0
1.6596392 -2.6651125 -0.31867117 0
1.759968 -2.6673527 -0.32131627 0
0.86463809 -2.5017092 -0.30025494 0
0.93972206 -2.5593607 -0.30174884 0
1.0583328 -2.5743244 -0.30469915 0
1.1586767 -2.5545087 -0.3078095 0
1.2360524 -2.5301483 -0.3100059 0
1.3416086 -2.5428851 -0.31298944 0
1.4457271 -2.5743046 -0.31470484 0
1.5519084 -2.5455594 -0.31870112 0
1.6695579 -2.5437772 -0.32219255 0
1.7312921 -2.5835459 -0.32289356 0
0.79793054 -2.4203582 -0.30067629 0
0.85672784 -2.4222751 -0.30304563 0
0.95525968 -2.4422517 -0.30483612 0
1.0536757 -2.4623575 -0.30731148 0
1.160943 -2.4653246 -0.31045431 0
1.2582906 -2.4411304 -0.31320456 0
1.3638347 -2.4424188 -0.31557506 0
1.4363785 -2.4609334 -0.31797192 0
1.5464681 -2.4567311 -0.32100222 0
1.6301564 -2.4326246 -0.32417294 0
0.6994701 -2.3454313 -0.30075881 0
0.75175774 -2.3362908 -0.30135256 0
0.83903962 -2.3324165 -0.30451661 0
0.95327336 -2.318711 -0.30884773 0
1.0503027 -2.324656 -0.31078953 0
1.1400102 -2.3765552 -0.31163144 0
1.2552356 -2.3521674 -0.31536302 0
1.3543866 -2.3329458 -0.31927067 0
1.4530959 -2.3456268 -0.32113045 0
1.5600306 -2.3643303 -0.32412034 0
0.55466354 -2.2007527 -0.30086002 0
0.64717263 -2.2478099 -0.30177081 0
0.74462342 -2.2585585 -0.30334771 0
0.8474834 -2.242229 -0.30726767 0
0.95129514 -2.2230914 -0.3109614 0
1.0633484 -2.2637839 -0.3125245 0
1.1582743 -2.2700865 -0.31497878 0
1.2495102 -2.2531757 -0.31765071 0
1.3372849 -2.2365615 -0.32089239 0
1.4476513 -2.22841 -0.32460037 0
1.5290207 -2.2817035 -0.32545236 0
0.55783689 -2.1350636 -0.30216077 0
0.65645862 -2.1448424 -0.30421242 0
0.75455129 -2.1584311 -0.30740583 0
0.8505547 -2.1561499 -0.30948079 0
0.95053381 -2.1361847 -0.313039 0
1.0615017 -2.1340346 -0.3159014 0
1.154363 -2.1629574 -0.31743538 0
1.2609285 -2.136529 -0.32173946 0
1.3464537 -2.1622059 -0.32307875 0
1.4442827 -2.1550257 -0.32671621 0
1.5444102 -2.1548347 -0.32841372 0
1.6429915 -2.13976 -0.33125323 0
1.7136906 -2.1146441 -0.33443332 0
0.45196629 -2.0373507 -0.30130124 0
0.54498625 -2.0384367 -0.30467689 0
0.65888757 -2.0371234 -0.30701056 0
0.75127017 -2.0541372 -0.30972078 0
0.84453702 -2.054194 -0.31245115 0
0.9499101 -2.0548787 -0.31525877 0
1.0427853 -2.0233116 -0.31790152 0
1.1470401 -2.0496151 -0.32056612 0
1.2517561 -2.0533569 -0.32376409 0
1.3611443 -2.0438781 -0.32725373 0
1.4514108 -2.0683756 -0.32889718 0
1.5418627 -2.0381827 -0.33124447 0
1.6454555 -2.050307 -0.33395186 0
1.7476324 -2.0546858 -0.33700159 0
1.8503517 -2.0530336 -0.34042668 0
1.9377033 -2.0106156 -0.34402677 0
0.34824455 -1.9657359 -0.30116332 0
0.44895709 -1.9571061 -0.30343521 0
0.55202752 -1.9525843 -0.30672193 0
0.6403864 -1.9424003 -0.30928853 0
0.75254375 -1.9400343 -0.31242386 0
0.85013115 -1.9480438 -0.31502753 0
0.93832642 -1.95596 -0.31818229 0
1.050812 -1.9352877 -0.3205249 0
1.1458625 -1.9423456 -0.32402661 0
1.2360865 -1.9637631 -0.32530272 0
1.3370876 -1.9346451 -0.32984552 0
1.4369859 -1.9571494 -0.33121121 0
1.5461527 -1.9453393 -0.33403632 0
1.6641995 -1.9560776 -0.33744434 0
1.765764 -1.9591963 -0.3420521 0
1.8499669 -1.9378849 -0.34273699 0
1.9632337 -1.970222 -0.34584069 0
2.0390236 -1.9490778 -0.34863934 0
2.1131747 -1.9182824 -0.35042658 0
0.19458544 -1.8684828 -0.30022308 0
0.2425358 -1.8621057 -0.30063435 0
0.34601387 -1.8746352 -0.30294695 0
0.4479745 -1.8671268 -0.30553752 0
0.54544145 -1.8642029 -0.30905992 0
0.64516467 -1.8492941 -0.3124246 0
0.74298209 -1.8343152 -0.31485185 0
0.84302658 -1.8321116 -0.31830114 0
0.94028032 -1.8497393 -0.32014215 0
1.0601944 -1.8564628 -0.32426348 0
1.1575806 -1.8390676 -0.32653329 0
1.2432349 -1.8550642 -0.32912967 0
1.3484775 -1.836614 -0.33243883 0
1.4546787 -1.8667015 -0.33333346 0
1.556926 -1.8436321 -0.33729655 0
1.6573749 -1.8655841 -0.34005269 0
1.7603912 -1.8620367 -0.3424226 0
1.8548483 -1.8349944 -0.34594473 0
1.9500208 -1.8746142 -0.34799537 0
2.0549212 -1.8477926 -0.3509914 0
2.1561086 -1.8582964 -0.35357565 0
2.2463906 -1.8425808 -0.35674739 0
2.3033476 -1.8081391 -0.35954604 0
0.14992979 -1.7503163 -0.30178586 0
0.24792866 -1.7515802 -0.30378288 0
0.34900123 -1.7498111 -0.30552018 0
0.44370595 -1.7432165 -0.30946022 0
0.54120886 -1.768157 -0.31115878 0
0.64820158 -1.7522376 -0.31453285 0
0.75696671 -1.7343072 -0.31874609 0
0.85083377 -1.7609189 -0.32143888 0
0.95283997 -1.7732067 -0.32182735 0
1.0428458 -1.7599491 -0.32625034 0
1.1456894 -1.7361205 -0.32949349 0
1.2511425 -1.7412421 -0.33350405 0
1.3494139 -1.7316223 -0.33388796 0
1.435014 -1.7625544 -0.3358914 0
1.5323375 -1.7498096 -0.34064499 0
1.6437778 -1.7721453 -0.34191597 0
1.749516 -1.7557441 -0.34523225 0
1.8589407 -1.7364177 -0.34880462 0
1.9563175 -1.7757969 -0.3506116 0
2.050334 -1.7568659 -0.35378355 0
2.140517 -1.7302808 -0.35658956 0
2.243149 -1.760805 -0.3590776 0
2.348382 -1.7502764 -0.36234558 0
2.4267466 -1.7157848 -0.36502141 0
0.046859179 -1.6332536 -0.30111149 0
0.15929832 -1.6433156 -0.30458891 0
0.25464931 -1.642329 -0.30653998 0
0.351271 -1.6387923 -0.30935383 0
0.44807181 -1.638715 -0.31108648 0
0.54388046 -1.6503521 -0.313739 0
0.64207023 -1.6477081 -0.31804639 0
0.75149167 -1.6566832 -0.32108456 0
0.86260033 -1.6446795 -0.32319111 0
0.9431237 -1.6515061 -0.32611784 0
1.0495927 -1.6464344 -0.32890603 0
1.1406035 -1.6759781 -0.33116493 0
1.2605346 -1.6519575 -0.33383393 0
1.3596758 -1.6384088 -0.33751965 0
1.4345551 -1.6385523 -0.34037861 0
1.547617 -1.6494739 -0.34192768 0
1.6565493 -1.6623834 -0.34475154 0
1.763895 -1.648108 -0.34864283 0
1.8577391 -1.6384839 -0.3516514 0
1.9472283 -1.6684862 -0.3525629 0
2.0432539 -1.668035 -0.35575303 0
2.1337447 -1.6260595 -0.35910726 0
2.2517717 -1.6407356 -0.36216033 0
2.3546295 -1.6647902 -0.36435166 0
2.4519978 -1.6558781 -0.36709547 0
2.5215635 -1.6251006 -0.36901703 0
-0.11559469 -1.5354632 -0.30037221 0
-0.049730439 -1.5443262 -0.30143607 0
0.044590712 -1.5539842 -0.30315664 0
0.15127866 -1.5605656 -0.30633417 0
0.24590948 -1.5576211 -0.3085655 0
0.34875816 -1.5569277 -0.3117578 0
0.446962 -1.5385901 -0.31313446 0
0.54482549 -1.5269367 -0.31766379 0
0.64450556 -1.5327208 -0.32144061 0
0.73314929 -1.5397613 -0.3249706 0
0.8372705 -1.5420853 -0.32508177 0
0.94308156 -1.5568435 -0.32861361 0
1.0516231 -1.5452678 -0.33189961 0
1.1362489 -1.5662751 -0.33321679 0
1.2508059 -1.5405034 -0.33608952 0
1.3427738 -1.5512906 -0.33990076 0
1.4621528 -1.5594416 -0.34188706 0
1.5469477 -1.5304009 -0.34476545 0
1.6248249 -1.5445713 -0.34704667 0
1.7430584 -1.5373504 -0.3512105 0
1.8442496 -1.5349487 -0.35338619 0
1.9523526 -1.5550835 -0.35563859 0
2.0642164 -1.5730709 -0.35842475 0
2.1592972 -1.5345949 -0.36243582 0
2.2413919 -1.5370746 -0.36437905 0
2.3559396 -1.5422994 -0.36698714 0
2.4590845 -1.5599533 -0.36950859 0
2.5689759 -1.5536802 -0.37311655 0
2.6315081 -1.5318714 -0.37488469 0
-0.14042822 -1.4490857 -0.30139515 0
-0.054067306 -1.4460819 -0.30389529 0
0.046772599 -1.4486108 -0.30639902 0
0.15010813 -1.4410394 -0.30876681 0
0.24423125 -1.4382224 -0.3106378 0
0.34596035 -1.4401275 -0.3145248 0
0.45547715 -1.4508245 -0.31614926 0
0.55411363 -1.4345578 -0.32089275 0
0.64517206 -1.4504347 -0.323751 0
0.76163799 -1.4659472 -0.3256433 0
0.85292298 -1.445093 -0.32833588 0
0.94919759 -1.4538733 -0.33225739 0
1.0406903 -1.4607546 -0.33315867 0
1.1453825 -1.4487349 -0.33549443 0
1.2451825 -1.4425906 -0.33951604 0
1.345552 -1.4505776 -0.34167063 0
1.4549264 -1.4478037 -0.34519345 0
1.5569375 -1.4336749 -0.34864292 0
1.6576129 -1.4619316 -0.35083157 0
1.7316105 -1.4246271 -0.35250002 0
1.8468418 -1.4497229 -0.35540813 0
1.9551824 -1.4462355 -0.35883942 0
2.0427389 -1.4554564 -0.361058 0
2.147912 -1.4505236 -0.36428857 0
2.2411697 -1.4521347 -0.36601821 0
2.3411705 -1.4385824 -0.36965188 0
2.4461691 -1.4553022 -0.37228143 0
2.5630598 -1.4513779 -0.3754707 0
2.6572917 -1.455139 -0.3778345 0
2.7283745 -1.435167 -0.38014054 0
-0.34664863 -1.3351011 -0.30024451 0
-0.21134382 -1.3627741 -0.30076391 0
-0.14934303 -1.3414788 -0.3037174 0
-0.054365464 -1.3416789 -0.3060458 0
0.04349158 -1.3469676 -0.30958411 0
0.15074562 -1.3334408 -0.31057876 0
0.25820193 -1.335852 -0.31349674 0
0.35911375 -1.3361659 -0.31788513 0
0.45334563 -1.3325462 -0.3192544 0
0.53771353 -1.3440598 -0.3227824 0
0.65023237 -1.3469654 -0.32583341 0
0.74165088 -1.3498603 -0.32831529 0
0.85524458 -1.3524915 -0.33070114 0
0.95877153 -1.3662671 -0.33261457 0
1.0445192 -1.3549293 -0.33485317 0
1.1372676 -1.3368133 -0.33903891 0
1.2399118 -1.3560097 -0.341631 0
1.3373878 -1.353911 -0.34485784 0
1.4485352 -1.3378433 -0.34877303 0
1.5419178 -1.3403834 -0.35070321 0
1.6487913 -1.3524173 -0.35255882 0
1.7658052 -1.3657632 -0.35518724 0
1.8427442 -1.3278396 -0.35865927 0
1.9511316 -1.3379146 -0.36156905 0
2.0625679 -1.3502382 -0.36413488 0
2.1510956 -1.3540703 -0.36660755 0
2.2606685 -1.3598143 -0.36980626 0
2.3551896 -1.3412615 -0.37273514 0
2.4558232 -1.3523513 -0.37504911 0
2.5430818 -1.3453896 -0.37758976 0
2.6452737 -1.3514222 -0.38014367 0
2.759465 -1.3685713 -0.38259861 0
2.8228447 -1.3334619 -0.38480172 0
-0.34553847 -1.2439133 -0.30189931 0
-0.24639498 -1.2697037 -0.30154836 0
-0.14180118 -1.2609915 -0.30475146 0
-0.04911375 -1.2495592 -0.30794653 0
0.049599692 -1.2581309 -0.31068426 0
0.15250264 -1.25605 -0.31317678 0
0.25065768 -1.252872 -0.31586683 0
0.34796092 -1.249156 -0.31922758 0
0.4472385 -1.2439041 -0.32251143 0
0.55783546 -1.2688358 -0.32515618 0
0.64243793 -1.252514 -0.32774949 0
0.74330616 -1.2373527 -0.3303012 0
0.84342659 -1.258311 -0.3326523 0
0.95079672 -1.246299 -0.33681369 0
1.0534328 -1.2443863 -0.33919975 0
1.1589503 -1.2658585 -0.34169239 0
1.2551283 -1.2522818 -0.34592521 0
1.3350581 -1.2385114 -0.34815615 0
1.4487464 -1.2414252 -0.35132876 0
1.5493778 -1.2524366 -0.35261399 0
1.6524998 -1.2406931 -0.35563666 0
1.7512162 -1.2568712 -0.35815677 0
1.8763018 -1.267071 -0.36150688 0
1.9357408 -1.2279625 -0.36390045 0
2.054991 -1.2424544 -0.36727339 0
2.1680307 -1.2482109 -0.37014052 0
2.2692473 -1.263575 -0.37236774 0
2.3480668 -1.2425728 -0.37521136 0
2.4486165 -1.2509568 -0.37743312 0
2.547822 -1.2562926 -0.37952244 0
2.6434326 -1.2641777 -0.38212356 0
2.7367644 -1.25308 -0.38531089 0
2.8500624 -1.2641668 -0.38851583 0
2.937149 -1.2443681 -0.3918727 0
-0.65357977 -1.1258274 -0.30054113 0
-0.51480538 -1.1796776 -0.30047005 0
-0.42739335 -1.1317186 -0.30112243 0
-0.34737766 -1.1424491 -0.30381209 0
-0.2457736 -1.1479473 -0.30540898 0
-0.15796362 -1.1542428 -0.30772424 0
-0.053771514 -1.1560186 -0.31018171 0
0.045813303 -1.1620904 -0.31171569 0
0.14720619 -1.1692196 -0.31585839 0
0.24857283 -1.1604553 -0.3180908 0
0.35849217 -1.1580878 -0.32243484 0
0.45540589 -1.1544944 -0.3257077 0
0.54455435 -1.1478536 -0.32934061 0
0.65938997 -1.1455884 -0.33129448 0
0.756266 -1.1672071 -0.33177349 0
0.84838587 -1.1610589 -0.33691651 0
0.94064426 -1.138252 -0.34025756 0
1.0509969 -1.1493881 -0.34245691 0
1.1479151 -1.1488276 -0.34485716 0
1.2370316 -1.1394292 -0.34742227 0
1.3546231 -1.1607625 -0.35099429 0
1.4419973 -1.1321096 -0.35296485 0
1.5540957 -1.1566238 -0.35520062 0
1.6518166 -1.1326938 -0.35888615 0
1.7399844 -1.1568978 -0.360571 0
1.8484517 -1.1541866 -0.36345804 0
1.9677826 -1.1707245 -0.36694673 0
2.0332909 -1.1321939 -0.36941519 0
2.1395407 -1.1514794 -0.37187782 0
2.2507763 -1.149775 -0.37453935 0
2.349586 -1.1582177 -0.37649727 0
2.4469602 -1.1559058 -0.38065705 0
2.5624003 -1.1511532 -0.38372982 0
2.6702838 -1.1767076 -0.38592798 0
2.7485988 -1.1569122 -0.38850021 0
2.8546898 -1.1537606 -0.39134157 0
2.9581454 -1.1629988 -0.39471459 0
3.0345063 -1.1345546 -0.3990398 0
-0.6296801 -1.0846589 -0.30092964 0
-0.53552485 -1.0501096 -0.30134216 0
-0.46037668 -1.0549294 -0.30297354 0
-0.35322893 -1.0801893 -0.30463877 0
0.56923348 -1.0910569 -0.32984069 0
0.65421534 -1.0561646 -0.33299077 0
0.75091428 -1.0438294 -0.33663166 0
0.85327297 -1.0477164 -0.33951691 0
0.95799625 -1.0527097 -0.34285656 0
1.0451144 -1.05454 -0.344154 0
1.1439055 -1.0318059 -0.34665629 0
1.2628009 -1.0510051 -0.35008863 0
1.3516587 -1.0457749 -0.35271868 0
1.461028 -1.0568204 -0.35578415 0
1.5354134 -1.0398866 -0.35815212 0
1.6331099 -1.0360488 -0.36079147 0
1.7416782 -1.0566208 -0.36306 0
1.8415065 -1.0426359 -0.36643475 0
1.9377724 -1.060843 -0.36903593 0
2.0587759 -1.0580207 -0.37202731 0
2.1379993 -1.0403318 -0.37478423 0
2.2373157 -1.0436587 -0.37806335 0
2.3402965 -1.0513992 -0.38060597 0
2.4364641 -1.0528749 -0.38240144 0
2.5371425 -1.0534924 -0.38489166 0
2.6441944 -1.0538111 -0.38833344 0
2.756654 -1.0530773 -0.39235556 0
2.8660173 -1.0482075 -0.39572456 0
2.9644105 -1.0603257 -0.39789712 0
3.0625405 -1.0707499 -0.39931402 0
-0.72492939 -0.94416696 -0.30006248 0
-0.6261245 -0.93427432 -0.3013947 0
-0.55294365 -0.9780947 -0.30115125 0
0.78964967 -0.98398173 -0.3380582 0
0.84951657 -0.95604032 -0.34279314 0
0.94562036 -0.9488858 -0.34519044 0
1.0478438 -0.94726324 -0.346468 0
1.1552564 -0.95584756 -0.3493965 0
1.2366717 -0.93991929 -0.35233799 0
1.3531042 -0.94785261 -0.35497358 0
1.4441562 -0.94567615 -0.35747266 0
1.5594246 -0.95829982 -0.36006159 0
1.6419475 -0.93772775 -0.36453107 0
1.7553679 -0.95145321 -0.36697483 0
1.8439728 -0.93645984 -0.36780274 0
1.9353967 -0.95414019 -0.37142384 0
2.0411446 -0.95226085 -0.37540391 0
2.1650093 -0.95403618 -0.37759805 0
2.2450631 -0.94186473 -0.37933069 0
2.3597474 -0.95374703 -0.3821815 0
2.4483676 -0.95591044 -0.38510281 0
2.5436256 -0.95806772 -0.38903311 0
2.628767 -0.94027317 -0.39181802 0
2.7207661 -0.95124644 -0.39391708 0
2.8217125 -0.94137907 -0.39650396 0
2.916801 -0.95000589 -0.39926374 0
-0.74045014 -0.84982628 -0.30221185 0
-0.68828338 -0.89643824 -0.30283377 0
0.95353657 -0.87805963 -0.34736866 0
1.0407541 -0.8467772 -0.34946358 0
1.1456451 -0.85185963 -0.35268831 0
1.2534246 -0.85958481 -0.35365191 0
1.3308773 -0.8419174 -0.3575989 0
1.4527689 -0.85029769 -0.36080256 0
1.545023 -0.84338474 -0.36370665 0
1.6558712 -0.85553646 -0.36558849 0
1.7400358 -0.83364785 -0.36876106 0
1.8579688 -0.85895526 -0.37202451 0
1.9666469 -0.8498503 -0.37514791 0
2.0613391 -0.84758544 -0.3769691 0
2.1535144 -0.84958524 -0.37942433 0
2.2618871 -0.84351146 -0.38356212 0
2.3721328 -0.8483218 -0.38657576 0
2.4681542 -0.8629303 -0.38910112 0
2.5675592 -0.85658687 -0.39139509 0
2.6738865 -0.84968394 -0.39479426 0
2.7701592 -0.85855913 -0.39729211 0
2.8357611 -0.83496529 -0.39975843 0
-0.81509191 -0.77248091 -0.3009032 0
1.0721238 -0.76944876 -0.3536734 0
1.1543076 -0.75240296 -0.35614353 0
1.2474328 -0.7483809 -0.35830298 0
1.3573983 -0.75768131 -0.36040506 0
1.4348251 -0.74030614 -0.36356327 0
1.5586812 -0.7407642 -0.36544424 0
1.6619858 -0.75135088 -0.36919594 0
1.758371 -0.74488711 -0.37222049 0
1.8553952 -0.75490391 -0.37443057 0
1.9497356 -0.76076895 -0.377105 0
2.0564029 -0.75207645 -0.38097301 0
2.1482275 -0.75114769 -0.3832331 0
2.2343962 -0.74552768 -0.38470685 0
2.3309791 -0.74071342 -0.38771182 0
2.438446 -0.73660541 -0.39105678 0
2.5240476 -0.76246768 -0.39280215 0
2.6296549 -0.75352603 -0.395946 0
2.7243729 -0.75965643 -0.39820379 0
-0.94342375 -0.64277923 -0.30198494 0
1.1624125 -0.6580857 -0.35802475 0
1.2547141 -0.65245885 -0.36109993 0
1.3416144 -0.64949256 -0.36329076 0
1.4421287 -0.64928162 -0.36569986 0
1.5376664 -0.65131962 -0.36899143 0
1.6384403 -0.65302962 -0.37158942 0
1.7468792 -0.64471132 -0.37528592 0
1.8242756 -0.6466347 -0.37695068 0
1.94181 -0.66342944 -0.37928534 0
2.0471773 -0.65087438 -0.38135901 0
2.153827 -0.64410639 -0.38504943 0
2.2787778 -0.65299857 -0.388657 0
2.3775408 -0.6550805 -0.39138675 0
2.4421394 -0.63426435 -0.39347544 0
2.5615263 -0.64572895 -0.39691848 0
2.6636539 -0.68147182 -0.39888683 0
-1.0893866 -0.51778078 -0.30348155 0
-0.97953433 -0.5547145 -0.30175266 0
1.2420152 -0.56155348 -0.36229852 0
1.3415329 -0.55706447 -0.36545166 0
1.4682088 -0.55514622 -0.36875215 0
1.5395385 -0.53860313 -0.37238252 0
1.652916 -0.53843766 -0.37393844 0
1.7596753 -0.54538339 -0.37592226 0
1.8604997 -0.54748064 -0.37851825 0
1.96463 -0.54770982 -0.38202751 0
2.0602071 -0.54263824 -0.38517803 0
2.1497686 -0.54989201 -0.38771704 0
2.2355688 -0.55483699 -0.38987437 0
2.324888 -0.5594573 -0.39238349 0
2.4321463 -0.54853266 -0.39587748 0
2.5344791 -0.55260503 -0.39860338 0
2.6138883 -0.58957791 -0.39994252 0
-1.0221213 -0.49471265 -0.30427688 0
1.2774425 -0.4722721 -0.36501378 0
1.3537476 -0.44639862 -0.37062493 0
1.451003 -0.44967747 -0.37109783 0
1.5460889 -0.44631228 -0.37303692 0
1.6416531 -0.44487542 -0.37636098 0
1.7486362 -0.46065876 -0.37904298 0
1.8621407 -0.4425928 -0.38256928 0
1.9208859 -0.44291836 -0.383663 0
2.0421448 -0.45432639 -0.38661632 0
2.1629603 -0.44753349 -0.39026031 0
2.2761166 -0.4452838 -0.39392099 0
2.3588214 -0.46146503 -0.39607096 0
2.4619055 -0.47260028 -0.39928299 0
-1.2619488 -0.31325728 -0.30018544 0
1.3576099 -0.35640267 -0.37122369 0
1.455296 -0.35033402 -0.37481779 0
1.5745075 -0.35761544 -0.37825483 0
1.6494151 -0.33499497 -0.38032877 0
1.7606459 -0.35755929 -0.38173583 0
1.8419393 -0.34678197 -0.38377559 0
1.9447501 -0.35164034 -0.38636577 0
2.043776 -0.35442904 -0.38902742 0
2.1325605 -0.35418788 -0.39173737 0
2.2243984 -0.35297221 -0.39497796 0
2.3456717 -0.37239045 -0.39757341 0
-1.3567413 -0.2553961 -0.30054367 0
-1.2705506 -0.24462295 -0.3024098 0
-1.1687695 -0.22341254 -0.30726877 0
1.3781326 -0.24929023 -0.37533867 0
1.4523771 -0.24124286 -0.37674361 0
1.5470908 -0.25697187 -0.37802532 0
1.630458 -0.24689327 -0.38003036 0
1.7541893 -0.24735536 -0.38392565 0
1.8715518 -0.24235213 -0.38784042 0
1.9734135 -0.26422 -0.39019302 0
2.0585177 -0.23996773 -0.39430717 0
2.1719768 -0.26550663 -0.39681515 0
2.2507327 -0.27517426 -0.39825523 0
-1.1337265 -0.19665784 -0.30831695 0
1.397193 -0.17081976 -0.37718949 0
1.4516445 -0.13914783 -0.37913415 0
1.5476482 -0.14432988 -0.38158026 0
1.6442573 -0.14597562 -0.38416612 0
1.7383366 -0.14958793 -0.38697743 0
1.8318818 -0.15492594 -0.38934219 0
1.9474024 -0.15363103 -0.39385566 0
2.0402229 -0.14790279 -0.39611599 0
2.1384208 -0.1534099 -0.39888948 0
1.4536779 -0.056709424 -0.3821044 0
1.557586 -0.038036771 -0.38562888 0
1.6660091 -0.047611225 -0.38746157 0
1.7570544 -0.05022002 -0.38980898 0
1.8354571 -0.052468691 -0.39186335 0
1.9462576 -0.05768213 -0.39469001 0
2.0368648 -0.043713052 -0.39714691 0
2.1267471 -0.060872227 -0.39944294 0
1.4460109 0.048246797 -0.38483348 0
1.5438801 0.052361269 -0.38748828 0
1.6696333 0.040593632 -0.38886428 0
1.7454896 0.062255397 -0.39279231 0
1.8461505 0.052970566 -0.3949573 0
1.9518341 0.047636218 -0.39721003 0
-1.1501194 0.19950138 -0.31277502 0
1.4491005 0.14694843 -0.38563466 0
1.5579548 0.15470929 -0.39019224 0
1.6522833 0.14226553 -0.39348036 0
1.7329173 0.14919117 -0.39628255 0
1.863536 0.13356867 -0.39939857 0
-1.7535191 0.27837786 -0.30183327 0
-1.6550866 0.27903715 -0.3041254 0
-1.5482031 0.27503687 -0.30660057 0
-1.4507352 0.26792163 -0.30949181 0
-1.3408231 0.26231754 -0.31194437 0
-1.2472003 0.25334463 -0.31327051 0
-1.1550421 0.25188309 -0.31683081 0
1.437304 0.24931914 -0.39092505 0
1.5390466 0.25057739 -0.39264396 0
1.6713513 0.24867564 -0.39442959 0
1.7450606 0.2491006 -0.39771357 0
1.852823 0.21305174 -0.39925641 0
-1.9477385 0.3955915 -0.3000274 0
-1.8620006 0.36434805 -0.30139384 0
-1.7419355 0.35368687 -0.30440304 0
-1.6308444 0.34352398 -0.30751503 0
-1.5455352 0.34863171 -0.31000942 0
-1.4549758 0.35029149 -0.31123799 0
-1.3458953 0.33005744 -0.31310028 0
-1.2492309 0.31965122 -0.31793219 0
-1.1616004 0.30606145 -0.32187206 0
1.4412671 0.35009894 -0.39273056 0
1.5495193 0.34629253 -0.3959811 0
1.6709089 0.35168859 -0.39856592 0
-1.9419781 0.45265386 -0.30095783 0
-1.8567029 0.44684684 -0.30336553 0
-1.7684586 0.45251244 -0.3056902 0
-1.6551405 0.43616763 -0.30820593 0
-1.5385461 0.4113217 -0.31049672 0
1.388806 0.45614719 -0.39174935 0
1.4538583 0.43924925 -0.39466593 0
1.5469971 0.44326535 -0.39623132 0
1.636528 0.45615911 -0.39680642 0
-2.0336885 0.56710327 -0.30108887 0
-1.9337817 0.55427605 -0.3038131 0
-1.8503342 0.53322136 -0.30554748 0
-1.2416344 0.5789848 -0.32428592 0
-1.1396568 0.56191164 -0.32711351 0
-1.0868279 0.56057179 -0.32774213 0
1.3685067 0.54548383 -0.39482707 0
1.4442978 0.55185568 -0.39701632 0
1.5210332 0.54411173 -0.39873806 0
1.6574823 0.50076813 -0.39974257 0
-2.1705208 0.67276418 -0.3009479 0
-2.0438032 0.65912622 -0.30475086 0
-1.9276539 0.65853322 -0.30801693 0
-1.8450201 0.64509958 -0.309609 0
-1.5200123 0.68273962 -0.31987235 0
-1.4484935 0.67171121 -0.32152155 0
-1.3489584 0.66148853 -0.32423925 0
-1.2465936 0.64401019 -0.32660538 0
-1.1461763 0.64619601 -0.32770815 0
-1.0500684 0.65591222 -0.32966018 0
1.3379434 0.64768827 -0.39837942 0
1.4581299 0.6175074 -0.39851594 0
1.5082139 0.60114241 -0.39970642 0
-2.3201284 0.79260182 -0.30128795 0
-2.2425592 0.76611948 -0.302169 0
-2.1638329 0.73922294 -0.30363098 0
-2.0567284 0.73569423 -0.30607122 0
-1.9506676 0.72937417 -0.30818844 0
-1.8447363 0.78157818 -0.31029537 0
-1.7373986 0.77542847 -0.3156561 0
-1.6367117 0.74940681 -0.31743059 0
-1.5579164 0.75424898 -0.32019159 0
-1.4673527 0.74519056 -0.32229593 0
-1.3557653 0.74235004 -0.3250201 0
-1.2377224 0.7461884 -0.3274132 0
-1.164984 0.76283771 -0.3304885 0
-1.0556568 0.74056923 -0.33205846 0
-0.98464727 0.77301723 -0.33547014 0
1.278484 0.7607407 -0.398736 0
1.3376069 0.71997261 -0.39852494 0
-2.3228881 0.85604388 -0.30203727 0
-2.2605252 0.86406714 -0.30332863 0
-2.1311388 0.84951067 -0.30648011 0
-2.0384905 0.86366796 -0.30850571 0
-1.9619174 0.86466235 -0.3108004 0
-1.8317771 0.84582376 -0.31480414 0
-1.7655327 0.85237044 -0.31642839 0
-1.6420201 0.84297997 -0.31956401 0
-1.5333961 0.85693419 -0.32252604 0
-1.4368639 0.83885902 -0.32470191 0
-1.3468144 0.85772872 -0.32787034 0
-1.2443252 0.85347807 -0.33124048 0
-1.155372 0.85099411 -0.33325639 0
-1.0473897 0.85353947 -0.33609328 0
-0.94791371 0.86064023 -0.3387377 0
-0.8932445 0.89644992 -0.33909106 0
1.1954508 0.88432866 -0.3984372 0
1.2403188 0.82474965 -0.39911926 0
-2.3544266 0.94485646 -0.30314931 0
-2.2874577 0.96915036 -0.30620608 0
-2.1510072 0.96609527 -0.30871645 0
-2.0319126 0.94814736 -0.31177533 0
-1.9423879 0.95756692 -0.31445715 0
-1.8595767 0.95003015 -0.3163422 0
-1.7599621 0.95182329 -0.31892923 0
-1.6508735 0.95061266 -0.32245266 0
-1.5515002 0.95051926 -0.32511303 0
-1.4338145 0.9434154 -0.32836273 0
-1.3661653 0.97253948 -0.33127069 0
-1.2525936 0.94451231 -0.33280683 0
-1.1324277 0.94866937 -0.33671153 0
-1.0572078 0.96800023 -0.33947182 0
-0.94616741 0.96109635 -0.34109703 0
-0.84883118 0.95565182 -0.3426314 0
1.1566885 0.92816764 -0.39746943 0
1.2035786 0.97297484 -0.3986001 0
-2.5426843 1.0772849 -0.30169067 0
-2.456919 1.0409988 -0.30268934 0
-2.3632858 1.0414239 -0.30484059 0
-2.2727213 1.0407528 -0.30768612 0
-2.151263 1.0476724 -0.31153396 0
-2.0512969 1.0605308 -0.31354645 0
-1.9477432 1.0591078 -0.31675115 0
-1.8306408 1.0541687 -0.32031363 0
-1.7351362 1.0451158 -0.32274336 0
-1.6412656 1.0511166 -0.32510763 0
-1.5382271 1.0678312 -0.32888898 0
-1.4414498 1.0504901 -0.33091122 0
-1.3467236 1.0555533 -0.33318293 0
-1.2581831 1.0470279 -0.33540067 0
-1.1536576 1.0580275 -0.33935362 0
-1.0392622 1.0571337 -0.34158063 0
-0.95276642 1.0550295 -0.34309635 0
-0.85605764 1.0424707 -0.34609571 0
-0.75916821 1.0656953 -0.35070243 0
1.0281552 1.0771269 -0.39899233 0
-2.6169076 1.1308881 -0.30049583 0
-2.5444701 1.1505415 -0.30240962 0
-2.4325459 1.1563088 -0.30632326 0
-2.3477364 1.1573764 -0.30914468 0
-2.2457199 1.147356 -0.31059107 0
-2.1464505 1.1357207 -0.3133761 0
-2.0555499 1.1641021 -0.31687406 0
-1.9544103 1.1440389 -0.3192476 0
-1.8542843 1.1454602 -0.32145986 0
-1.7326745 1.1476082 -0.32563111 0
-1.6614676 1.1630051 -0.32690239 0
-1.550284 1.150182 -0.33076403 0
-1.4488912 1.1543707 -0.3329441 0
-1.3400062 1.140954 -0.33537024 0
-1.2634759 1.1561284 -0.33849812 0
-1.1474819 1.1516345 -0.34123755 0
-1.0524902 1.1512314 -0.34318531 0
-0.95308739 1.1536617 -0.34601262 0
-0.84938633 1.1436528 -0.35010326 0
-0.75112057 1.1440943 -0.35181144 0
-0.6563679 1.1640112 -0.3559334 0
0.88993865 1.1764065 -0.39525151 0
0.96026641 1.1290613 -0.39734188 0
1.0204494 1.1653491 -0.39860886 0
-2.6581404 1.2478575 -0.30306742 0
-2.5366232 1.2355741 -0.30580372 0
-2.4578762 1.2556827 -0.30823547 0
-2.3465955 1.2557915 -0.31059268 0
-2.2244039 1.2386804 -0.31395879 0
-2.1363382 1.2505304 -0.31677783 0
-2.020242 1.2615975 -0.32040751 0
-1.9355458 1.2475519 -0.32207879 0
-1.8458321 1.2465827 -0.3246575 0
-1.758556 1.2434729 -0.32708919 0
-1.6631852 1.2488846 -0.33070177 0
-1.5622438 1.2518294 -0.33306473 0
-1.4426011 1.2600093 -0.33579072 0
-1.3329403 1.2454132 -0.3388778 0
-1.243197 1.2477666 -0.34102771 0
-1.1660371 1.2619101 -0.34252444 0
-1.0562447 1.244324 -0.34574264 0
-0.93521607 1.237869 -0.35106477 0
-0.84250534 1.2695689 -0.35292286 0
-0.75275898 1.2378687 -0.35473377 0
-0.65958732 1.2502345 -0.35801733 0
-0.55836409 1.2426581 -0.36060333 0
-0.45352092 1.2828816 -0.36466873 0
0.74395573 1.2814357 -0.39708087 0
0.83557904 1.2277908 -0.39799428 0
0.93477559 1.2356763 -0.39839849 0
-2.8374813 1.373584 -0.30119503 0
-2.7504079 1.3558854 -0.30293512 0
-2.652194 1.3550366 -0.3048816 0
-2.5675235 1.334947 -0.3064872 0
-2.4545617 1.3440158 -0.31029055 0
-2.3522897 1.3471411 -0.31274021 0
-2.241195 1.3335024 -0.31622323 0
-2.1754594 1.3584832 -0.31824741 0
-2.0778043 1.3392386 -0.32044137 0
-1.9624943 1.3458843 -0.32421142 0
-1.8511053 1.3487328 -0.32750067 0
-1.7399783 1.3459624 -0.33079016 0
-1.6380756 1.3437588 -0.33360201 0
-1.5557545 1.3655834 -0.33528027 0
-1.4490542 1.3538947 -0.33825013 0
-1.3580604 1.3435619 -0.34021136 0
-1.2533115 1.3514462 -0.34298843 0
-1.1495404 1.3535028 -0.34663689 0
-1.0560161 1.3450426 -0.34888396 0
-0.95090282 1.34324 -0.35285267 0
-0.84672147 1.3669627 -0.35491005 0
-0.74978405 1.3515478 -0.35773948 0
-0.66027862 1.3516874 -0.36087346 0
-0.54886311 1.3507451 -0.36345905 0
-0.44873688 1.3614912 -0.36662492 0
-0.35912699 1.3440048 -0.36846495 0
-0.25202292 1.3653275 -0.37209463 0
-0.15476197 1.3900315 -0.3748354 0
-0.07513427 1.3985734 -0.37528643 0
0.37296128 1.395232 -0.38697708 0
0.45605081 1.3833787 -0.39037713 0
0.54890078 1.3631246 -0.39379835 0
0.65449065 1.3361622 -0.39632604 0
0.74982971 1.3579637 -0.39863238 0
-2.9041412 1.4316339 -0.30092067 0
-2.8578625 1.4600281 -0.30207348 0
-2.7432849 1.4680961 -0.30508009 0
-2.6267586 1.4627241 -0.30869031 0
-2.5429001 1.4400669 -0.31048492 0
-2.448189 1.4566627 -0.31383526 0
-2.3553832 1.4474635 -0.31570807 0
-2.2611456 1.4574143 -0.31846583 0
-2.1664622 1.4462385 -0.32148898 0
-2.0512519 1.4503953 -0.32437405 0
-1.9410261 1.4575243 -0.32801491 0
-1.8500791 1.4524654 -0.33026701 0
-1.7512249 1.4576991 -0.3329443 0
-1.6590475 1.4423326 -0.33445203 0
-1.5513539 1.4517404 -0.33772492 0
-1.4482496 1.4534442 -0.34082836 0
-1.3574545 1.4427049 -0.342821 0
-1.2528882 1.4444847 -0.34580985 0
-1.1444219 1.4472578 -0.34935668 0
-1.058543 1.4475099 -0.35193703 0
-0.94258612 1.4510593 -0.35528222 0
-0.84934843 1.4633228 -0.35786542 0
-0.75928193 1.4480064 -0.36080059 0
-0.64963698 1.4395808 -0.36333427 0
-0.55392992 1.4705726 -0.36658332 0
-0.44154468 1.442968 -0.36905956 0
-0.34368643 1.4502751 -0.37265399 0
-0.25328609 1.4548532 -0.37383661 0
-0.14208099 1.466749 -0.37754169 0
-0.049070973 1.4482027 -0.37964898 0
0.046994172 1.4577272 -0.38235813 0
0.15973367 1.4458551 -0.38497519 0
0.25218132 1.4511979 -0.3871851 0
0.34995687 1.4470997 -0.38953316 0
0.4479813 1.463652 -0.39290762 0
0.54449046 1.4400982 -0.39566678 0
0.6288625 1.4273937 -0.39707458 0
0.72151065 1.4505153 -0.39988565 0
-2.9662805 1.5422783 -0.30062336 0
-2.8755896 1.5479141 -0.30380172 0
-2.7842121 1.5504045 -0.3066279 0
-2.6639371 1.5421807 -0.30956808 0
-2.5384943 1.5514904 -0.31381088 0
-2.4232869 1.5374954 -0.31664169 0
-2.3456326 1.5598415 -0.31922302 0
-2.2357049 1.5568454 -0.32261193 0
-2.1381443 1.5583383 -0.32488093 0
-2.0606008 1.5473026 -0.32708138 0
-1.9604654 1.5464445 -0.32883593 0
-1.8582458 1.5540923 -0.33242759 0
-1.7534791 1.553867 -0.3347297 0
-1.654124 1.5453069 -0.33801666 0
-1.5368932 1.549468 -0.3410944 0
-1.463914 1.5707003 -0.34341598 0
-1.3464549 1.5508673 -0.3467254 0
-1.2411904 1.5389867 -0.34861824 0
-1.1543082 1.5578467 -0.35191682 0
-1.0385808 1.5394908 -0.35448673 0
-0.95513529 1.5687963 -0.35877517 0
-0.84829044 1.5629936 -0.36086002 0
-0.75354135 1.5426233 -0.36314744 0
-0.65739536 1.554378 -0.3660723 0
-0.54119229 1.5457531 -0.36895406 0
-0.44952482 1.5364629 -0.37135512 0
-0.35657933 1.5633422 -0.37428248 0
-0.25062957 1.5530325 -0.37689725 0
-0.153845 1.5482637 -0.37922657 0
-0.04997988 1.5550556 -0.38219818 0
0.05051285 1.5667926 -0.38604021 0
