# .PCD v0.7 - Point Cloud Data file format
VERSION 0.7
FIELDS x y z intensity
SIZE 4 4 4 4
TYPE F F F F
COUNT 1 1 1 1
WIDTH 210
HEIGHT 1
VIEWPOINT 0 0 0 1 0 0 0
POINTS 210
DATA ascii
-25.738541 -8.3216171 2.3688304 10
-25.604979 -8.2771683 5.232532 13
-25.29295 -8.5759687 3.2815804 11
-25.244349 -8.5590525 4.2240701 12
-25.160374 -8.5296946 6.1353993 14
-24.580835 -9.1220932 1.3772141 9
-23.977154 -9.2848854 6.8921218 15
-23.43754 -9.8530226 2.2281682 10
-22.61334 -10.270441 4.8316669 13
-22.586454 -10.257681 5.7308955 14
-22.312887 -10.519422 3.9114835 12
-22.003242 -10.758678 3.0122046 11
-21.744663 -11.018886 1.2831061 9
-21.389656 -11.223139 2.11902 10
-20.364616 -11.816973 3.7355595 12
-20.29995 -11.778158 5.4245062 14
-20.278812 -11.765243 6.2880411 15
-19.840395 -12.281084 1.230545 9
-19.431976 -12.410828 4.4892583 13
-19.191477 -12.645966 2.8300757 11
-18.309538 -13.216215 3.5856392 12
-18.227083 -13.154453 6.031847 15
-18.063637 -13.43455 1.9793831 10
-17.965231 -13.358362 5.1778789 14
-17.537848 -13.835054 1.1815759 9
-16.695751 10.344212 1.0385543 9
-16.669367 -14.341611 2.7118733 11
-16.724497 10.360548 3.1263418 12
-16.381517 -14.503098 3.4775159 12
-16.36224 -14.485188 4.2598724 13
-16.313444 -14.440268 5.8497086 15
-16.053463 10.590604 0.3452237 8
-16.08028 10.606793 2.3758669 11
-15.813347 -8.296545 0.31617767 8
-15.808742 -14.816249 5.0151463 14
-15.808737 10.751528 5.1355867 15
-15.75757 10.719333 1.6779011 10
-15.790775 10.740374 3.7239554 13
-15.499778 10.867723 4.3830514 14
-15.384559 -15.266829 1.1504148 9
-15.369394 -15.250896 1.908668 10
-14.83173 -15.577217 2.6561768 11
-14.616529 11.209732 2.9302258 12
-14.791704 -15.533309 4.1844354 13
-14.303398 11.298664 0.32958481 8
-14.302732 11.297606 0.96700007 9
-14.261182 -15.853574 4.9392066 14
-13.84341 -16.302397 1.1383971 9
-13.771029 11.52857 1.5841428 10
-13.775708 11.531937 2.2192018 11
-13.464524 -10.012534 0.30049357 8
-13.526831 11.65394 3.4853017 13
-13.277022 11.771538 4.1121759 14
-12.706052 11.931864 0.31762135 8
-12.720342 11.944709 0.92828178 9
-12.744555 11.965714 2.78404 12
-12.75854 11.977057 4.7060094 15
-12.230099 -11.140779 0.29882008 8
-11.982932 12.255116 2.120301 11
-11.995504 12.266772 3.3519044 13
-11.763514 12.376647 3.9600365 14
-11.261239 -12.166956 0.30184653 8
-11.022673 12.639144 1.4839092 10
-10.80101 12.745697 2.6642339 12
-10.783728 12.727159 0.89079016 9
-10.789265 51.803703 10.388105 13
-10.584731 12.855354 4.4825163 15
-9.4294109 13.27818 1.4440118 10
-9.2752762 2.8553302 0.17091793 8
-9.3012466 3.7583883 0.17753412 8
-9.2686625 2.8531618 0.50993359 9
-9.2771235 3.7484684 0.52702248 9
-9.2686377 2.8530221 0.85031331 10
-9.2629261 3.742559 0.87691253 10
-9.3699474 3.9416146 1.2514607 11
-9.2571545 2.8492198 1.5362949 12
-9.3433151 3.9302287 1.608999 12
-9.1917439 2.9730198 1.1883631 11
-9.0212564 13.500163 3.1779642 13
-9.0183773 13.495185 3.7698083 14
-8.1366186 13.822071 1.4246802 10
-8.135973 13.820311 1.9911371 11
-8.1550121 13.851924 2.5685813 12
-6.2541418 -9.0390062 1.3603561 11
-6.0181098 -8.9684858 0.19974814 8
-5.9963713 -8.9348755 0.95233333 10
-5.9946723 -8.9312019 1.7144076 12
-5.97962 -8.9081335 2.0961738 13
-5.9784169 -8.9057579 2.4870265 14
-5.7531133 -8.8410759 0.56390917 9
-5.7288108 -8.8001881 2.8243976 15
-5.2504544 -21.908514 6.0784383 15
-5.0064721 -22.297033 1.237813 9
-4.9995685 -22.26417 2.0367258 10
-4.9864173 -22.201359 3.6449625 12
-4.4736772 -8.3494406 0.17702033 8
-4.466352 -8.3351526 0.50713933 9
-4.4694781 -8.3404551 0.8393442 10
-4.4641123 -8.3298388 1.1718068 11
-4.45228 -8.3071022 1.5041349 12
-4.4537072 -8.309206 1.8438987 13
-4.4488292 -8.2994881 2.1854043 14
-4.4434357 -8.2887964 2.5314302 15
-4.4112468 -22.634916 2.8739176 11
-4.393321 -22.535955 5.3447747 14
-3.8150628 -10.016471 0.20300497 8
-3.808337 -9.9979792 0.57655638 9
-3.8021808 -22.965841 4.5701246 13
-3.7964888 -9.9659643 0.94885302 10
-3.7921231 -9.9536972 1.3237036 11
-3.7791216 -9.9186373 1.6970114 12
-3.7796814 -9.9193583 2.0793822 13
-3.7732694 -9.9016762 2.4625077 14
-3.7631805 -9.87428 2.8477805 15
-3.1821918 -23.313547 6.3536143 15
-2.5792451 -23.989599 0.4683452 8
-2.5769053 -23.964745 1.3105726 9
-2.5743024 -23.937418 2.1540349 10
-2.5701797 -23.895819 2.999069 11
-2.5657737 -23.851543 3.8481352 12
-2.5581334 -23.773909 5.5703897 14
1.1435306 25.229164 1.164398 9
1.3175263 -26.670912 0.52493876 8
1.3148448 -26.61874 1.4558774 9
1.3124695 -26.572647 2.3872635 10
1.3010273 -26.350937 7.1336598 15
1.7061933 -26.799873 3.3587739 11
1.6974595 -26.665941 6.2331829 14
2.1076064 -27.032564 4.3581395 12
2.1033535 -26.978613 5.3246078 13
5.9488206 -2.1093166 -0.1011454 7
5.9527321 -2.1098833 0.12084362 8
5.9444146 -2.1053011 0.5655387 10
5.9317031 -2.0999815 0.78807354 11
5.9532118 -2.1067512 1.017388 12
5.9626203 -2.1083746 1.4808464 14
5.9664502 -2.1088564 1.7182264 15
6.003643 -2.3225968 0.35025343 9
6.0022659 -2.2204669 1.263291 13
6.340169 -3.2160192 -0.11135796 7
6.248589 -2.9456849 0.6208415 10
6.2557688 -2.9481952 0.8672207 11
6.2151232 -2.8202989 1.1003538 12
6.281507 -2.9585307 1.3711449 13
6.3522358 -3.1026156 1.655793 14
6.5885849 -3.828661 0.1491451 8
6.5084596 -1.894128 0.36700949 9
6.575026 -3.8199027 0.41608229 9
6.606854 -3.8374243 0.68760085 10
6.6118088 -3.8393755 0.95949054 11
6.627697 -3.8476446 1.2361552 12
6.6383457 -3.8528678 1.5160034 13
6.66922 -3.8688014 2.0935781 15
6.8479033 -1.7838342 -0.11525849 7
6.8264422 -1.7772927 0.1329844 8
6.9518256 -1.6981704 1.6722147 14
7.1326599 -1.6355528 1.4405358 13
7.4839993 -1.4898602 2.0661955 15
9.1280317 20.725252 0.278983 8
9.3702478 20.485884 1.0662459 9
9.371192 20.49309 1.8568875 10
9.3820248 20.521782 2.6553578 11
9.3835812 20.530399 3.4591727 12
9.4000072 20.571362 4.2789578 13
9.4047976 20.587141 5.1064844 14
9.4113874 20.606926 5.9494529 15
15.101704 9.1366978 0.88681275 9
15.280849 1.3428184 0.267528 8
15.398993 8.4358587 0.2709997 8
15.301603 1.3469745 0.80648255 9
15.327024 1.3515513 1.3492914 10
15.357279 1.3565718 1.8978213 11
15.380164 1.3609787 2.4520459 12
15.515662 0.69362438 -0.27013761 7
15.643726 1.6117738 3.0641313 13
15.87545 -0.19481604 0.28363395 8
15.891286 -0.19267564 0.84110773 9
15.924663 -0.19074677 1.4032855 10
15.935034 -0.18850186 1.9684262 11
15.953715 -0.1863375 2.5404918 12
16.00363 -0.1820582 3.7121508 14
16.030056 -0.17986792 4.3146014 15
17.928951 14.252016 0.33332941 8
27.448124 8.9498882 1.482374 9
27.474403 8.9632559 2.4991302 10
27.501026 8.9767733 3.5241206 11
27.537794 8.9936466 4.5616031 12
27.579004 9.0120344 5.6142688 13
27.982714 7.3854637 0.48090541 8
28.309063 6.6195364 1.5048083 9
28.494287 6.2406888 2.5366571 10
28.528082 6.2527971 3.5720959 11
28.416739 6.6589017 4.6082797 12
28.455124 6.6727214 5.668139 13
31.734699 31.682549 2.1944854 9
31.773808 31.730349 3.7730696 10
31.809986 31.775318 5.3647547 11
32.56472 29.87385 6.8555465 12
33.127243 27.85854 2.1368182 9
33.178459 27.909794 3.661901 10
33.232105 27.963167 5.2014413 11
33.950939 26.185484 6.6709008 12
34.937862 23.167187 3.565397 10
34.999641 23.215824 5.0550404 11
35.259903 22.68029 6.5420237 12
36.221939 19.794031 3.5289471 10
36.49789 19.289986 6.4605842 12
36.963909 18.216908 7.9392867 13
37.075874 17.606091 4.9706473 11
37.446796 16.485544 3.5159106 10
