# .PCD v0.7 - Point Cloud Data file format
VERSION 0.7
FIELDS x y z intensity
SIZE 4 4 4 4
TYPE F F F F
COUNT 1 1 1 1
WIDTH 1366
HEIGHT 1
VIEWPOINT 0 0 0 1 0 0 0
POINTS 1366
DATA ascii
1.428739 -0.74770427 -0.37177941 0
1.5421271 -0.75104576 -0.37211052 0
1.6534014 -0.74764943 -0.37562907 0
1.7731208 -0.75815713 -0.3776601 0
1.8510259 -0.73778456 -0.37856406 0
1.9681538 -0.75203753 -0.38037756 0
2.0538573 -0.75127059 -0.38146544 0
2.1439106 -0.74954969 -0.3828198 0
2.2326949 -0.74491566 -0.38421282 0
2.3209159 -0.73767465 -0.38578966 0
2.4516411 -0.75993168 -0.38783479 0
2.5472212 -0.75003046 -0.38968843 0
2.6370151 -0.74219966 -0.39240703 0
2.7600634 -0.76263666 -0.3950673 0
2.8587453 -0.74609488 -0.39613238 0
2.978878 -0.73946482 -0.39728951 0
3.0653057 -0.76091874 -0.39870131 0
3.1550333 -0.759247 -0.39986548 0
-2.5732691 -0.63873857 -0.30094048 0
-2.4784815 -0.65306288 -0.30246031 0
-2.3654504 -0.64753562 -0.3043336 0
-2.2325978 -0.65715122 -0.30756658 0
-2.1245868 -0.65855914 -0.30884019 0
-2.0417666 -0.64897567 -0.31032878 0
-1.953874 -0.65187931 -0.31171352 0
-1.8686018 -0.65338707 -0.31356844 0
-1.4627761 -0.67481339 -0.32039109 0
-1.3417432 -0.65804893 -0.32289702 0
-1.2427998 -0.65552622 -0.32457587 0
-1.146551 -0.6433391 -0.32477915 0
-1.043052 -0.66022187 -0.3281143 0
1.1910623 -0.6857667 -0.36826199 0
1.2489773 -0.64913923 -0.3682867 0
1.3559477 -0.64213651 -0.36912945 0
1.4533731 -0.66055834 -0.37084404 0
1.5452136 -0.64169496 -0.37446281 0
1.6475227 -0.64312649 -0.37498936 0
1.737009 -0.65245861 -0.37560123 0
1.8263012 -0.65087253 -0.37677398 0
1.933409 -0.65299225 -0.37832519 0
2.0427554 -0.64928788 -0.38015881 0
2.1598756 -0.64426762 -0.38271627 0
2.2682104 -0.64989519 -0.38489547 0
2.361285 -0.63569123 -0.3875221 0
2.4464641 -0.66329521 -0.38893142 0
2.5441568 -0.65094376 -0.39062843 0
2.6331666 -0.65364897 -0.39164227 0
2.720598 -0.65476853 -0.39271903 0
2.852571 -0.66493297 -0.39468369 0
2.9617755 -0.63855106 -0.39693168 0
3.0818818 -0.64891106 -0.39935467 0
-2.586504 -0.56398809 -0.30017027 0
-2.4344807 -0.55623621 -0.30298215 0
-2.3425119 -0.55508488 -0.3047249 0
-2.2331343 -0.55429256 -0.30629617 0
-2.1496081 -0.54996419 -0.30783525 0
-2.0641966 -0.5439052 -0.30905104 0
-1.9457219 -0.54257721 -0.31129184 0
-1.8810797 -0.55386633 -0.31259075 0
-1.2403696 -0.5893693 -0.3223455 0
-1.1441752 -0.56401539 -0.32395282 0
-1.0733608 -0.55805725 -0.32425201 0
1.2538836 -0.55260634 -0.367268 0
1.3464921 -0.56239617 -0.36910647 0
1.4521062 -0.54795438 -0.37087944 0
1.5271219 -0.54972595 -0.37151763 0
1.6614087 -0.53854972 -0.3734507 0
1.7576711 -0.54472065 -0.37541223 0
1.854857 -0.54586333 -0.37726751 0
1.9507451 -0.5439055 -0.3790291 0
2.0396154 -0.55310684 -0.3814027 0
2.1284485 -0.54453188 -0.38309148 0
2.2277067 -0.55643052 -0.38467804 0
2.3598375 -0.53665191 -0.38587978 0
2.4646168 -0.55595016 -0.38766113 0
2.5575912 -0.53851885 -0.3891165 0
2.6449728 -0.55691749 -0.39082286 0
2.7372293 -0.55592453 -0.3927694 0
2.8301115 -0.55371219 -0.39434776 0
2.9230075 -0.55021453 -0.39597028 0
3.0395362 -0.5492931 -0.39798975 0
3.1476088 -0.56921232 -0.39915362 0
-2.6118803 -0.47237957 -0.30080557 0
-2.5226505 -0.43767703 -0.30192041 0
-2.4264109 -0.45220032 -0.30336204 0
-2.3396695 -0.44037184 -0.30446619 0
-2.251611 -0.45734039 -0.30574718 0
-2.1698506 -0.44073758 -0.30707729 0
-2.0439317 -0.44573998 -0.30937383 0
-1.9289128 -0.4539094 -0.31179902 0
-1.8623405 -0.4623757 -0.31224164 0
-1.7424839 -0.45402318 -0.31454042 0
-1.6513263 -0.43508169 -0.31575635 0
-1.5650725 -0.4243553 -0.31708905 0
-1.4765444 -0.41173097 -0.31848374 0
1.2862811 -0.47053084 -0.36701894 0
1.3493372 -0.4472087 -0.36836976 0
1.4419889 -0.458258 -0.37002081 0
1.5366154 -0.45230266 -0.37174597 0
1.6489968 -0.4598662 -0.3736234 0
1.7573928 -0.43622962 -0.37534189 0
1.8767315 -0.4597688 -0.37805438 0
1.9396975 -0.42936012 -0.37976477 0
2.0702138 -0.45139602 -0.38186705 0
2.1542966 -0.45359501 -0.38277864 0
2.2396252 -0.43820861 -0.38385558 0
2.3491931 -0.45964408 -0.38540229 0
2.4507797 -0.44323379 -0.38700783 0
2.5728984 -0.44635111 -0.38865292 0
2.6674469 -0.44304028 -0.39082277 0
2.7554808 -0.45766172 -0.39246604 0
2.8448877 -0.45156288 -0.39415556 0
2.9377353 -0.44477424 -0.39594415 0
3.0260179 -0.45814309 -0.39764026 0
3.1228347 -0.45004863 -0.39959991 0
-2.5270629 -0.3457208 -0.30076325 0
-2.4359887 -0.34597632 -0.3023009 0
-2.3523738 -0.33904496 -0.30361113 0
-2.2699018 -0.36038604 -0.30539545 0
-2.1465533 -0.34080279 -0.30760631 0
-2.0366721 -0.36101618 -0.30962169 0
-1.9258014 -0.34695804 -0.31109715 0
-1.8374456 -0.35673875 -0.31241295 0
-1.7465649 -0.34178483 -0.313804 0
-1.6482755 -0.34310701 -0.31647345 0
-1.5706522 -0.34924677 -0.31738302 0
-1.4395084 -0.35459107 -0.3186563 0
-1.3466115 -0.34450197 -0.32094294 0
1.3455036 -0.35982871 -0.36880469 0
1.4472668 -0.34829691 -0.36971903 0
1.5609244 -0.35203525 -0.37105769 0
1.650758 -0.34750217 -0.37341657 0
1.7308757 -0.35150853 -0.37538633 0
1.8497189 -0.34821299 -0.37770331 0
1.9309748 -0.34922925 -0.37934762 0
2.0449183 -0.34461164 -0.38073465 0
2.166647 -0.35986677 -0.38227311 0
2.2545812 -0.34139213 -0.3835226 0
2.3586102 -0.37118158 -0.38442051 0
2.4162397 -0.34822106 -0.38665792 0
2.5414782 -0.35528621 -0.38895231 0
2.6575353 -0.33791891 -0.39100647 0
2.7819557 -0.34003714 -0.39359975 0
2.8704748 -0.35086051 -0.39514327 0
2.9649925 -0.34093243 -0.39700049 0
3.0535636 -0.35111928 -0.39850256 0
3.1513906 -0.33958697 -0.39993769 0
3.2318306 -0.30153126 -0.3992202 0
-2.543031 -0.25564232 -0.30114639 0
-2.4438291 -0.2632851 -0.30180812 0
-2.2689159 -0.29389778 -0.30491838 0
-2.1445222 -0.27778476 -0.30659339 0
-2.02314 -0.27683315 -0.30888817 0
-1.9405156 -0.26553053 -0.31021899 0
-1.8483139 -0.29342693 -0.31329843 0
-1.773097 -0.28148594 -0.31532004 0
-1.6639876 -0.27235863 -0.31690922 0
-1.5685828 -0.27671999 -0.31549633 0
-1.454771 -0.27392113 -0.31957033 0
-1.354947 -0.26064047 -0.32239458 0
-1.2498008 -0.23530632 -0.32291424 0
-1.1854776 -0.22319098 -0.32324997 0
1.3505983 -0.2443172 -0.36783969 0
1.4564492 -0.25248116 -0.36956504 0
1.5810889 -0.25104567 -0.3716906 0
1.6702384 -0.24064243 -0.37329075 0
1.7463944 -0.25162503 -0.37471175 0
1.8416852 -0.25884414 -0.37637579 0
1.9214653 -0.2451376 -0.37755683 0
2.0516999 -0.25086814 -0.37994328 0
2.1784601 -0.2505281 -0.38237658 0
2.2616088 -0.24365795 -0.38394883 0
2.3445673 -0.25259945 -0.38560972 0
2.4296927 -0.26621503 -0.38747525 0
2.5239782 -0.25378984 -0.3890726 0
2.6345873 -0.24583559 -0.39053935 0
2.7491708 -0.24644308 -0.39269948 0
2.8784077 -0.24775054 -0.39412093 0
2.9671192 -0.25538746 -0.39552963 0
3.0558305 -0.26302439 -0.39693829 0
3.1475079 -0.24823499 -0.39846456 0
-2.5522773 -0.10966247 -0.30095199 0
-2.4540391 -0.14054854 -0.30184233 0
1.3631678 -0.14684761 -0.36744761 0
1.4444593 -0.15924181 -0.36917281 0
1.5596662 -0.14549986 -0.37087438 0
1.6328732 -0.1483438 -0.37310633 0
1.7579104 -0.15134251 -0.37435949 0
1.8342699 -0.15791671 -0.37553644 0
1.925802 -0.15190536 -0.37686679 0
2.0340066 -0.14877614 -0.37909776 0
2.1472669 -0.14348257 -0.38175973 0
2.2698324 -0.1463051 -0.38393447 0
2.3531034 -0.15167974 -0.38560018 0
2.4385161 -0.1616661 -0.38744599 0
2.5295579 -0.16319014 -0.38880983 0
2.6177731 -0.15005785 -0.38995305 0
2.7511463 -0.15770139 -0.39209834 0
2.8834455 -0.14461005 -0.39419365 0
2.9724457 -0.14907117 -0.39568773 0
3.061446 -0.15353228 -0.39718187 0
3.1489491 -0.13529897 -0.39866412 0
3.2380826 -0.16234332 -0.39985305 0
-2.5475252 -0.072949521 -0.30032533 0
-2.4539833 -0.052733317 -0.30138811 0
1.3723664 -0.049169343 -0.36803532 0
1.4423751 -0.051666774 -0.36896992 0
1.5432947 -0.050217077 -0.37029982 0
1.6324989 -0.046676952 -0.37163904 0
1.7605522 -0.050352555 -0.37394434 0
1.8373843 -0.052557915 -0.37532753 0
1.9310156 -0.055299405 -0.37702802 0
2.0396519 -0.051281329 -0.37832811 0
2.1538072 -0.04018601 -0.38045773 0
2.2694166 -0.048690658 -0.38244924 0
2.3525889 -0.050477359 -0.38391826 0
2.4322248 -0.057192355 -0.38542074 0
2.5214059 -0.054128412 -0.38698003 0
2.6303668 -0.056471065 -0.38869992 0
2.7553756 -0.059150863 -0.39151809 0
2.8766911 -0.041116752 -0.39327985 0
2.965914 -0.04239434 -0.39493299 0
3.0551369 -0.043671936 -0.39658615 0
3.1443598 -0.044949524 -0.39823931 0
3.2253382 -0.06925454 -0.39947307 0
-2.5473804 0.054682072 -0.30034322 0
-2.4560077 0.035179909 -0.30161086 0
1.3778038 0.04933095 -0.3694931 0
1.4475048 0.0518151 -0.37013727 0
1.5487236 0.050375342 -0.37125576 0
1.6310163 0.049953297 -0.3722769 0
1.751487 0.042797133 -0.37440017 0
1.8404381 0.052641921 -0.37509724 0
1.9289913 0.055205163 -0.37624931 0
2.039402 0.05130735 -0.37839457 0
2.1533341 0.040223669 -0.3805021 0
2.2692215 0.04872806 -0.38266504 0
2.3524837 0.050517216 -0.38421488 0
2.4346652 0.05231557 -0.3859002 0
2.5240366 0.054244284 -0.38725021 0
2.6335359 0.056583375 -0.38882801 0
2.7465148 0.049021833 -0.3908903 0
2.8763592 0.041148979 -0.39256495 0
2.9654272 0.042423915 -0.39406109 0
3.0544953 0.043698855 -0.39555725 0
3.1435633 0.044973791 -0.39705339 0
3.2400947 0.046358153 -0.39867496 0
-2.444664 0.12259928 -0.30055147 0
1.3613338 0.1467202 -0.36695543 0
1.4499944 0.15316761 -0.367973 0
1.5729883 0.14490409 -0.37001592 0
1.640379 0.1527947 -0.37230355 0
1.7510409 0.15070237 -0.37330908 0
1.8416955 0.1612488 -0.37505415 0
1.9302257 0.14879727 -0.37756467 0
2.0441372 0.14655703 -0.37866065 0
2.1530583 0.14493652 -0.38043493 0
2.2677994 0.14630248 -0.38181725 0
2.350436 0.15163125 -0.38292861 0
2.4184124 0.15598825 -0.3838605 0
2.528481 0.16308397 -0.38579613 0
2.6566677 0.14602561 -0.38822809 0
2.7823598 0.13937595 -0.39121664 0
2.8714314 0.14384298 -0.39283085 0
2.9605026 0.14831002 -0.39444506 0
3.0495741 0.15277706 -0.3960593 0
3.1446693 0.13504057 -0.39775127 0
3.2376072 0.14681451 -0.39917406 0
-2.4299235 0.27945474 -0.30032325 0
-2.2547061 0.29205719 -0.3019734 0
-2.1721494 0.2813634 -0.30331844 0
-2.0327966 0.27304173 -0.3055501 0
-1.9217882 0.2629244 -0.30722421 0
-1.8156892 0.28824762 -0.30943853 0
-1.7394596 0.27614588 -0.31040713 0
-1.6634609 0.27631527 -0.3118552 0
-1.5780956 0.28037208 -0.31324694 0
-1.44628 0.26782236 -0.31545717 0
-1.3363413 0.25881568 -0.31729031 0
-1.2471858 0.25643596 -0.31956276 0
-1.1741121 0.24708755 -0.32158902 0
1.3409249 0.25245747 -0.3657206 0
1.4484469 0.25103331 -0.36723441 0
1.5711279 0.24936849 -0.36901748 0
1.659454 0.25113693 -0.37101537 0
1.7509129 0.26015311 -0.37247592 0
1.8667142 0.25194085 -0.37345806 0
1.9231894 0.24565254 -0.37554258 0
2.0498013 0.24477062 -0.377534 0
2.1659226 0.2489934 -0.37945163 0
2.2550223 0.2430063 -0.3815566 0
2.3375294 0.25189474 -0.38285258 0
2.4222338 0.26096135 -0.38408852 0
2.5637968 0.23915951 -0.38685989 0
2.6617389 0.24830838 -0.38873473 0
2.7706935 0.25846267 -0.3903397 0
2.8654592 0.2467005 -0.39243674 0
2.9541974 0.25433949 -0.39392436 0
3.0429358 0.26197848 -0.39541203 0
3.1299822 0.24696201 -0.39710578 0
3.2235653 0.23885925 -0.39869294 0
-2.4189467 0.34860143 -0.30034298 0
-2.3348408 0.31944132 -0.30107006 0
-2.2500739 0.35726991 -0.30222413 0
-2.1680117 0.34424484 -0.30372342 0
-2.0567398 0.34165525 -0.3058306 0
-1.9270329 0.35018009 -0.30863932 0
-1.8584608 0.34191996 -0.30991396 0
-1.7475764 0.34998876 -0.31091112 0
-1.6583307 0.34923854 -0.3132008 0
-1.5692463 0.35396668 -0.3150208 0
-1.4481777 0.33753878 -0.31558812 0
-1.3385193 0.33529738 -0.31609532 0
-1.2607291 0.3167057 -0.31838518 0
-1.1651496 0.30699661 -0.3228555 0
1.3487195 0.35514566 -0.36481494 0
1.4589622 0.35101071 -0.36630654 0
1.548233 0.34917873 -0.36801335 0
1.632394 0.35588992 -0.36941439 0
1.747586 0.34925303 -0.3715826 0
1.8803685 0.36238495 -0.37389094 0
1.9525765 0.33399549 -0.37527904 0
2.0639083 0.34281111 -0.37720045 0
2.1458023 0.35641274 -0.37858501 0
2.230016 0.33773032 -0.37957025 0
2.3615487 0.35764048 -0.38185272 0
2.4809096 0.33939829 -0.38406384 0
2.5691476 0.35146919 -0.38561034 0
2.6593804 0.34441787 -0.38724279 0
2.747777 0.35586762 -0.38886422 0
2.8398428 0.3471469 -0.39053786 0
2.9282875 0.35796043 -0.39212593 0
3.02354 0.34772855 -0.39426571 0
3.1413219 0.36901021 -0.3965914 0
3.2184002 0.33748737 -0.39788911 0
-2.4013495 0.45203552 -0.30009195 0
-2.3262975 0.43793234 -0.30123773 0
-2.2340991 0.45373622 -0.30259088 0
-2.1526089 0.43718526 -0.30404559 0
-2.0525405 0.44006464 -0.30657983 0
-1.9488299 0.45427436 -0.30818385 0
-1.8723259 0.45191574 -0.30820018 0
-1.7518786 0.45280004 -0.31129798 0
-1.6505482 0.43487883 -0.31168401 0
-1.5458045 0.41327423 -0.31232533 0
1.2843202 0.44904342 -0.36463481 0
1.3550521 0.45205134 -0.36478764 0
1.4472977 0.46328443 -0.36596778 0
1.5302961 0.44590107 -0.36653027 0
1.6588856 0.44117689 -0.36970425 0
1.7658731 0.43826264 -0.37190995 0
1.8591019 0.45296067 -0.37395993 0
1.9559458 0.45591795 -0.37565818 0
2.0413384 0.44514811 -0.37672761 0
2.1425183 0.45937508 -0.37808886 0
2.244658 0.44602355 -0.3799181 0
2.357692 0.45641303 -0.38185841 0
2.4631097 0.4454082 -0.38385534 0
2.5506775 0.46124339 -0.3853341 0
2.6460822 0.43948606 -0.38694295 0
2.7338448 0.45406291 -0.38839284 0
2.8263767 0.44869304 -0.39021415 0
2.9426289 0.47449112 -0.39240202 0
3.0481482 0.43929875 -0.39334473 0
3.1853461 0.45904419 -0.39569619 0
-2.3471611 0.56175452 -0.30068916 0
-2.2444611 0.545901 -0.30253276 0
-2.1434779 0.55174577 -0.30359578 0
-2.0439527 0.53860533 -0.30537868 0
-1.9607614 0.54686266 -0.30760649 0
-1.8760679 0.54058981 -0.31038019 0
-1.2461107 0.58677506 -0.3208777 0
-1.1374148 0.56416208 -0.32206467 0
-1.0612538 0.56154811 -0.3217825 0
1.2486819 0.55173028 -0.36344674 0
1.3522215 0.55513322 -0.36607757 0
1.4687842 0.54927844 -0.36579069 0
1.5478734 0.53427005 -0.36641243 0
1.6489735 0.55004698 -0.36882132 0
1.7421457 0.55834955 -0.37072751 0
1.8374672 0.54461902 -0.37369764 0
1.9325209 0.5538044 -0.37580076 0
2.0373039 0.5604642 -0.37718815 0
2.1487839 0.5497455 -0.37925816 0
2.2749798 0.54749525 -0.3811824 0
2.3474891 0.56492394 -0.38244584 0
2.4412746 0.55070484 -0.38374448 0
2.5282197 0.55127358 -0.38461542 0
2.6200604 0.55167252 -0.38625857 0
2.7388916 0.56320983 -0.38832176 0
2.8520155 0.53686243 -0.39004552 0
2.9831195 0.56154203 -0.39218998 0
3.080843 0.53438032 -0.39430469 0
3.1728249 0.55030531 -0.39585805 0
-2.350142 0.69173115 -0.30080065 0
-2.253747 0.6285544 -0.30157116 0
-2.1521535 0.65020591 -0.30381924 0
-2.0436049 0.64164317 -0.30607408 0
-1.9414942 0.65093899 -0.30670029 0
-1.8379574 0.64258617 -0.30842146 0
-1.459253 0.68078047 -0.31450352 0
-1.3475393 0.65068829 -0.31718627 0
-1.2383097 0.65336734 -0.31928155 0
-1.1589667 0.65221059 -0.32073003 0
-1.0497732 0.65096945 -0.32119989 0
-0.98973793 0.67872792 -0.32158861 0
1.1637228 0.66995293 -0.35987276 0
1.2520235 0.63947868 -0.36338216 0
1.344515 0.65090078 -0.36452934 0
1.4412014 0.64741117 -0.36646998 0
1.5354307 0.65050119 -0.36834496 0
1.6512644 0.6579324 -0.36903825 0
1.7785746 0.65882003 -0.37037891 0
1.8404895 0.63525158 -0.37209103 0
1.9530979 0.64416122 -0.37371248 0
2.0464826 0.64244652 -0.37598494 0
2.156172 0.65136182 -0.378032 0
2.2701869 0.66487789 -0.38028437 0
2.3343081 0.65461302 -0.38144654 0
2.442138 0.64981806 -0.38312182 0
2.5528808 0.65340286 -0.3854337 0
2.6643436 0.64117205 -0.38748369 0
2.7573786 0.64954531 -0.38938403 0
2.8750641 0.64854544 -0.39089155 0
2.9628592 0.64604425 -0.39199024 0
3.0553818 0.64333344 -0.3936471 0
3.1523268 0.64022958 -0.39545816 0
-2.3280354 0.75827301 -0.30062687 0
-2.2374473 0.76437885 -0.30090049 0
-2.1521392 0.75244248 -0.30279315 0
-2.050359 0.73339915 -0.30459821 0
-1.9749657 0.73845947 -0.30558586 0
-1.8846346 0.75128806 -0.30701861 0
-1.7804174 0.76931477 -0.30719692 0
-1.6553975 0.7676205 -0.31167534 0
-1.5398026 0.7550568 -0.31275442 0
-1.4275689 0.74937928 -0.31460354 0
-1.3469416 0.75901979 -0.31680647 0
-1.24642 0.75374591 -0.31870365 0
-1.1526656 0.74753261 -0.32094157 0
-1.0440327 0.7608332 -0.32132021 0
-0.948183 0.75539005 -0.32271513 0
1.0863838 0.7916584 -0.36019385 0
1.1468877 0.7539978 -0.36027631 0
1.2526175 0.74826247 -0.3619296 0
1.3679723 0.75264072 -0.36332682 0
1.44616 0.73334837 -0.36538118 0
1.55299 0.7472598 -0.36740956 0
1.6519365 0.7562905 -0.36931106 0
1.7536491 0.74295157 -0.3710618 0
1.8428683 0.74985665 -0.37198508 0
1.9304203 0.75348771 -0.37317514 0
2.0533211 0.75779712 -0.37503779 0
2.1552598 0.74507552 -0.37649882 0
2.2523396 0.75150317 -0.37827957 0
2.3657339 0.7517969 -0.38051638 0
2.4666665 0.745161 -0.38272762 0
2.5617867 0.75400245 -0.38457817 0
2.6531599 0.76029968 -0.3858408 0
2.7527626 0.74637538 -0.38785985 0
2.8449326 0.74956048 -0.38909313 0
2.9404075 0.75219566 -0.39121592 0
3.0357199 0.7535187 -0.39353037 0
3.1284132 0.74337399 -0.3949326 0
-2.3020942 0.86077607 -0.30177426 0
-2.2603397 0.85763907 -0.3018395 0
-2.102664 0.89085698 -0.30326205 0
-2.026036 0.85839128 -0.30468702 0
-1.9482052 0.85853171 -0.30495271 0
-1.8446364 0.84471607 -0.30689254 0
-1.7506207 0.84746569 -0.30992603 0
-1.6396232 0.85254335 -0.31042796 0
-1.5557281 0.85189277 -0.3123695 0
-1.4471371 0.84703964 -0.31446996 0
-1.3641578 0.86026639 -0.31542099 0
-1.2642517 0.84066606 -0.31777075 0
-1.1558994 0.83741462 -0.32086086 0
-1.0661194 0.85759437 -0.32033437 0
-0.95318747 0.8529129 -0.32239157 0
-0.86776555 0.8495149 -0.32336161 0
-0.79797155 0.89823371 -0.32193825 0
0.98485178 0.89402163 -0.35640287 0
1.0442895 0.85482293 -0.35929742 0
1.1444602 0.84659666 -0.3603754 0
1.2564769 0.8602429 -0.36124638 0
1.3313662 0.84475422 -0.36232692 0
1.4439878 0.84518117 -0.36425602 0
1.5599809 0.85411143 -0.36645234 0
1.6736419 0.86199629 -0.36838233 0
1.7422411 0.83209765 -0.36992005 0
1.8610787 0.84686095 -0.37307891 0
1.9593046 0.84672093 -0.37439501 0
2.0533996 0.84428668 -0.37563154 0
2.1562595 0.85945463 -0.3771579 0
2.2271843 0.85098761 -0.37764934 0
2.3251688 0.85048985 -0.37960139 0
2.4202697 0.84614712 -0.3809686 0
2.5194616 0.84060651 -0.38288713 0
2.635957 0.86566728 -0.38493571 0
2.7369659 0.8556003 -0.38676301 0
2.8426592 0.8441928 -0.38844404 0
2.9618652 0.86423212 -0.39077148 0
3.0541899 0.84396672 -0.39165553 0
-2.2417781 0.97256643 -0.30045325 0
-2.1616042 0.95257598 -0.30184326 0
-2.0556002 0.94127297 -0.30368191 0
-1.946136 0.94214463 -0.30593508 0
-1.8506198 0.94571191 -0.30730295 0
-1.7198639 0.94754297 -0.30858815 0
-1.6502705 0.94065285 -0.31120926 0
-1.5588264 0.95292091 -0.31237182 0
-1.4539493 0.95156258 -0.31389421 0
-1.321951 0.94427037 -0.31559566 0
-1.2523497 0.95830595 -0.31699917 0
-1.1576056 0.94959569 -0.31933728 0
-1.0454582 0.9490115 -0.32015476 0
-0.96552962 0.96437579 -0.32318857 0
-0.8494283 0.95325923 -0.32441401 0
-0.75329435 0.95260018 -0.32554439 0
-0.6942696 0.98942906 -0.32387239 0
0.89106798 0.974585 -0.35384536 0
0.96081591 0.95450675 -0.35791841 0
1.0561764 0.94696039 -0.35916975 0
1.1650289 0.9586013 -0.36010179 0
1.2420863 0.94262516 -0.36085686 0
1.3338253 0.95737278 -0.36250973 0
1.4490042 0.94860286 -0.36435243 0
1.5488876 0.95181322 -0.36596757 0
1.6350632 0.95177412 -0.36718258 0
1.7425162 0.93796492 -0.36987042 0
1.8488619 0.94793749 -0.37117782 0
1.9474052 0.95156384 -0.37329262 0
2.0439739 0.95358729 -0.37618023 0
2.167613 0.95521551 -0.37848249 0
2.2545521 0.93624705 -0.37902683 0
2.3744636 0.96619213 -0.38060069 0
2.4572854 0.93889892 -0.38208282 0
2.5757198 0.94213676 -0.38418493 0
2.6640873 0.95285356 -0.38534409 0
2.7657013 0.94481146 -0.38709009 0
2.8567302 0.95313102 -0.38879141 0
2.9481907 0.96025455 -0.39057255 0
3.0444317 0.95163274 -0.39190206 0
-2.2135775 1.0521278 -0.30095246 0
-2.1270988 1.0486177 -0.3023605 0
-2.0345867 1.039342 -0.30363217 0
-1.9494965 1.0530417 -0.30504444 0
-1.8480071 1.046617 -0.30738845 0
-1.7567526 1.0451798 -0.30908716 0
-1.6486464 1.0459586 -0.31113485 0
-1.5482111 1.0488316 -0.31266493 0
-1.4476123 1.0549812 -0.31331441 0
-1.3501499 1.0444492 -0.31551105 0
-1.2436231 1.0502449 -0.31641617 0
-1.1609981 1.0625398 -0.31710035 0
-1.0523652 1.0609037 -0.32107323 0
-0.94454062 1.0414129 -0.32347026 0
-0.8476069 1.0543313 -0.32474038 0
-0.75125754 1.0545361 -0.32505125 0
-0.65755683 1.0446781 -0.32615274 0
-0.5786916 1.0845041 -0.32941562 0
0.75518775 1.0760986 -0.35236326 0
0.85833639 1.0455937 -0.35453594 0
0.95706743 1.0468231 -0.35649893 0
1.0589201 1.0519903 -0.35933286 0
1.1470788 1.0513456 -0.3590712 0
1.257254 1.0464761 -0.36109656 0
1.3552556 1.048252 -0.36233452 0
1.4568877 1.0457085 -0.36425561 0
1.5568919 1.0513723 -0.36599225 0
1.6529185 1.0653043 -0.36739737 0
1.7436613 1.0511022 -0.36896721 0
1.8507627 1.044596 -0.37160584 0
1.9480299 1.0664816 -0.37273008 0
2.0701783 1.0639021 -0.37455308 0
2.142468 1.037043 -0.37702098 0
2.2448924 1.0472565 -0.37938061 0
2.3434703 1.0527953 -0.38102356 0
2.4389133 1.0539831 -0.38215294 0
2.5317581 1.0513717 -0.38328695 0
2.630543 1.0484676 -0.38523078 0
2.7254169 1.0413448 -0.38667068 0
2.817941 1.0536914 -0.38901854 0
2.9541967 1.0687499 -0.39093909 0
3.0192587 1.0233738 -0.39149714 0
-2.1659479 1.1509584 -0.30166727 0
-2.073837 1.1355652 -0.30263326 0
-1.965405 1.1504424 -0.30512196 0
-1.8621382 1.1383301 -0.3062968 0
-1.76017 1.1414446 -0.30861396 0
-1.652797 1.1423295 -0.31088886 0
-1.5719191 1.1524045 -0.31066677 0
-1.4549015 1.1589807 -0.31247827 0
-1.3617016 1.1499927 -0.31385726 0
-1.2544916 1.1553986 -0.31562179 0
-1.1474891 1.1515572 -0.31700847 0
-1.054302 1.1481931 -0.31922823 0
-0.95668358 1.1460202 -0.3221553 0
-0.84744686 1.1370076 -0.32481101 0
-0.75814831 1.1627845 -0.32470697 0
-0.64777696 1.1449451 -0.32623649 0
-0.54213488 1.1514685 -0.32962883 0
-0.46086341 1.1558233 -0.32909808 0
-0.36318433 1.1870854 -0.33271676 0
0.47238177 1.1976014 -0.34495673 0
0.54408467 1.1767632 -0.34745479 0
0.65789944 1.1478471 -0.35055336 0
0.75949246 1.1509767 -0.35165706 0
0.85100746 1.1542332 -0.35288623 0
0.9657355 1.1636411 -0.35536593 0
1.0543443 1.1410289 -0.35860026 0
1.1609871 1.1486572 -0.36009628 0
1.2630364 1.1465505 -0.36058015 0
1.354986 1.1608975 -0.36217323 0
1.4572318 1.1596099 -0.363664 0
1.538766 1.1382905 -0.36474547 0
1.6641917 1.1588504 -0.36801511 0
1.7666646 1.1566021 -0.36941496 0
1.8570448 1.153576 -0.37054196 0
1.9608361 1.1539603 -0.37220421 0
2.0635533 1.149011 -0.37546256 0
2.1806037 1.1337932 -0.37644622 0
2.2766244 1.1425275 -0.37780225 0
2.3676438 1.1671255 -0.37949729 0
2.4524701 1.1585785 -0.38240907 0
2.5660915 1.1527975 -0.38378325 0
2.6827478 1.1593453 -0.38553795 0
2.7775519 1.1534401 -0.38724199 0
2.8780301 1.1471082 -0.38944396 0
2.970638 1.1512154 -0.39139858 0
-2.2250094 1.2599233 -0.30133206 0
-2.1291361 1.2259518 -0.30167216 0
-2.0536845 1.2591118 -0.30205527 0
-1.9290165 1.2433201 -0.30453578 0
-1.835912 1.239755 -0.30647814 0
-1.7294718 1.2414286 -0.30799815 0
-1.6362296 1.2286559 -0.3095583 0
-1.5358044 1.227469 -0.31064272 0
-1.4729182 1.2699642 -0.31011948 0
-1.3628763 1.2406864 -0.31388909 0
-1.2513704 1.2558041 -0.31546167 0
-1.141279 1.2483133 -0.31751055 0
-1.048036 1.2500422 -0.31910276 0
-0.94408816 1.2442439 -0.32183897 0
-0.85451353 1.2448511 -0.3232685 0
-0.73523545 1.2457523 -0.32546386 0
-0.64035058 1.250244 -0.32613572 0
-0.56220686 1.257221 -0.32872868 0
-0.45244959 1.2509389 -0.32907256 0
-0.3523764 1.2463366 -0.33315781 0
-0.2497648 1.2544334 -0.33371851 0
-0.15311058 1.2515491 -0.33355823 0
-0.049291994 1.2530866 -0.33609131 0
0.049777698 1.2639971 -0.33905038 0
0.14942378 1.2590539 -0.33979908 0
0.24927561 1.2494293 -0.34148315 0
0.3522667 1.2458342 -0.34400427 0
0.44778988 1.2483722 -0.34578326 0
0.55583143 1.2490418 -0.34830219 0
0.65400863 1.246889 -0.35026887 0
0.76524156 1.2599008 -0.35021681 0
0.85421509 1.2572869 -0.35293573 0
0.94337517 1.2349195 -0.35373825 0
1.057025 1.2423681 -0.35685584 0
1.1649657 1.2559253 -0.35837075 0
1.2587032 1.2453051 -0.36058459 0
1.3657821 1.2577591 -0.36119959 0
1.4438204 1.244496 -0.36512408 0
1.5336294 1.239791 -0.36437947 0
1.6367184 1.2473788 -0.36601543 0
1.7430408 1.251139 -0.36840492 0
1.8361741 1.2399993 -0.37055421 0
1.9536439 1.2590995 -0.37224302 0
2.0278544 1.2303327 -0.37310791 0
2.1490855 1.2456433 -0.37534964 0
2.2406571 1.2268276 -0.37870592 0
2.3227727 1.250338 -0.37916258 0
2.4343662 1.2657275 -0.38008371 0
2.5263948 1.2453833 -0.38179922 0
2.6340437 1.2518797 -0.3846907 0
2.7396104 1.2543668 -0.38592604 0
2.8463545 1.2624855 -0.38658404 0
2.9253669 1.2393706 -0.39010525 0
-2.1643677 1.3514966 -0.30075318 0
-2.0546656 1.3451375 -0.30157483 0
-1.9521576 1.3593801 -0.30366933 0
-1.864818 1.3385893 -0.30516058 0
-1.7577 1.3395537 -0.30665973 0
-1.6439726 1.34849 -0.30809793 0
-1.5477604 1.3457248 -0.310406 0
-1.4395264 1.3448433 -0.31344607 0
-1.3631607 1.3626207 -0.31298119 0
-1.2580001 1.3601671 -0.3157008 0
-1.1539923 1.3604594 -0.31767234 0
-1.0363742 1.3499382 -0.31936809 0
-0.94626659 1.3426987 -0.32107005 0
-0.8500402 1.3574554 -0.32182586 0
-0.73901105 1.3614661 -0.32335374 0
-0.65820199 1.3476173 -0.32658064 0
-0.54772705 1.3344434 -0.32777178 0
-0.44781578 1.3416004 -0.32871491 0
-0.36091763 1.3647892 -0.33148906 0
-0.2584044 1.3628937 -0.33270913 0
-0.14325798 1.3504456 -0.33449525 0
-0.053219199 1.3524882 -0.33557484 0
0.045972258 1.3587779 -0.33879292 0
0.15069817 1.3527541 -0.33938867 0
0.24895331 1.3499889 -0.34127361 0
0.34550485 1.3443599 -0.34385201 0
0.44563714 1.3520758 -0.34545934 0
0.55525482 1.3635951 -0.34782776 0
0.64944983 1.35645 -0.34968716 0
0.74491322 1.3315905 -0.34998819 0
0.8518405 1.353032 -0.3523472 0
0.95091009 1.3425895 -0.35308537 0
1.0532805 1.3358691 -0.35644227 0
1.1626276 1.3665799 -0.35716391 0
1.2425405 1.3566957 -0.35767084 0
1.3313694 1.3445425 -0.36140364 0
1.4443887 1.3414961 -0.36220258 0
1.5545883 1.3419731 -0.36488092 0
1.6376848 1.3434653 -0.36612007 0
1.739723 1.3456328 -0.3670947 0
1.8568724 1.3599583 -0.36925861 0
1.9371088 1.3488786 -0.37202734 0
2.0423975 1.3370882 -0.37370646 0
2.1355798 1.3548149 -0.37473026 0
2.2511437 1.3393711 -0.37621036 0
2.3547261 1.3556213 -0.37861344 0
2.4566679 1.3679026 -0.3807421 0
2.5731585 1.3378948 -0.38228396 0
2.6721642 1.3410449 -0.38373554 0
2.7645216 1.36277 -0.38525212 0
2.8387623 1.3409953 -0.38797984 0
-2.121835 1.4109181 -0.30033913 0
-2.0445027 1.4366329 -0.30204612 0
-1.9685582 1.4561087 -0.3026807 0
-1.852878 1.4475031 -0.30513614 0
-1.7592719 1.443162 -0.30629578 0
-1.6695151 1.4515476 -0.30748555 0
-1.5672389 1.4641501 -0.3104049 0
-1.4638313 1.448225 -0.31162938 0
-1.3441242 1.4491142 -0.31444925 0
-1.2638451 1.4641013 -0.31470874 0
-1.149452 1.4535464 -0.31637079 0
-1.0576899 1.4622821 -0.31911159 0
-0.95161879 1.4424607 -0.32010636 0
-0.84947085 1.4371582 -0.32227719 0
-0.75930089 1.4605145 -0.32418299 0
-0.64547002 1.4447726 -0.32709205 0
-0.54736555 1.4542148 -0.32723334 0
-0.45835978 1.4482321 -0.32786667 0
-0.32922837 1.4346113 -0.33129033 0
-0.25197318 1.4460958 -0.33239031 0
-0.15812396 1.4360371 -0.33397985 0
-0.060885407 1.4497273 -0.33526599 0
0.047220323 1.4624122 -0.33921114 0
0.14985266 1.4534595 -0.33874947 0
0.25795233 1.4561133 -0.34202856 0
0.3557615 1.4430236 -0.34347141 0
0.44817328 1.436167 -0.34471747 0
0.53864014 1.4375591 -0.34761232 0
0.64351255 1.4461768 -0.3482646 0
0.74287689 1.4562298 -0.35074705 0
0.85296267 1.4453095 -0.3514789 0
0.94551843 1.4491707 -0.35354751 0
1.0522448 1.4651656 -0.35454538 0
1.1413627 1.4431676 -0.35794351 0
1.2446039 1.4631157 -0.35828421 0
1.3505111 1.4559705 -0.36022764 0
1.4528136 1.4372861 -0.36350894 0
1.5512516 1.4492525 -0.36388695 0
1.6566305 1.4400598 -0.36589944 0
1.7701782 1.4592763 -0.36739993 0
1.8285323 1.4353429 -0.36820421 0
1.9355276 1.4532557 -0.3704111 0
2.0571506 1.4543132 -0.37311485 0
2.1661675 1.462849 -0.37508783 0
2.2542913 1.4454169 -0.37662745 0
2.3503315 1.4600105 -0.37807694 0
2.4615324 1.4485416 -0.379114 0
2.5599627 1.4498876 -0.38195673 0
2.6283932 1.4391197 -0.38396516 0
2.7468019 1.4532511 -0.38495648 0
2.8065941 1.4085919 -0.38557231 0
-2.0436742 1.5346055 -0.30143926 0
-1.9397852 1.5402751 -0.30306423 0
-1.8457009 1.5438467 -0.30497539 0
-1.7455517 1.5529175 -0.30622464 0
-1.6455637 1.5448638 -0.30849943 0
-1.5554072 1.5459388 -0.30877239 0
-1.461458 1.5531886 -0.31214988 0
-1.3621935 1.5556819 -0.31292403 0
-1.2421169 1.5417064 -0.31519079 0
-1.1508882 1.5532353 -0.31749871 0
-1.0475503 1.5632391 -0.318627 0
-0.95355666 1.5393231 -0.32004756 0
-0.8479141 1.5511065 -0.32110298 0
-0.74232906 1.5475597 -0.32544464 0
-0.64398962 1.5351291 -0.32542187 0
-0.54726917 1.5697687 -0.32620257 0
-0.44151497 1.5620164 -0.32830063 0
-0.35328251 1.5408336 -0.33069474 0
-0.25397626 1.5636071 -0.33185565 0
-0.15031879 1.5516258 -0.33425993 0
-0.050194584 1.5587062 -0.33464974 0
0.049708687 1.5406544 -0.33870634 0
0.15206316 1.5455551 -0.33865425 0
0.24994949 1.5564421 -0.34066713 0
0.3501257 1.5487942 -0.34225819 0
0.44007984 1.5565535 -0.34426761 0
0.54939055 1.5533036 -0.34630048 0
0.65647709 1.5431713 -0.34759921 0
0.75068206 1.5646498 -0.34896088 0
0.86594188 1.5529405 -0.3514072 0
0.95208943 1.5468688 -0.35328203 0
1.0418785 1.5547256 -0.35466903 0
1.1428123 1.5331529 -0.35644862 0
1.2531588 1.5615108 -0.35840496 0
1.3570206 1.5496622 -0.35916522 0
1.4540012 1.5343865 -0.36307478 0
1.5423557 1.5477761 -0.36498445 0
1.6578161 1.5635887 -0.36536369 0
1.7405481 1.5351236 -0.36671433 0
1.850058 1.5399269 -0.36831865 0
1.9548169 1.5571907 -0.36999649 0
2.0723667 1.5560832 -0.37143469 0
2.1549423 1.5626258 -0.37402427 0
2.2488525 1.5502777 -0.37636337 0
2.3247821 1.5458913 -0.37736225 0
2.4338298 1.5440259 -0.37895083 0
2.5336545 1.5570015 -0.38059422 0
2.6641684 1.5466638 -0.38262579 0
2.7227087 1.5416803 -0.384188 0
-2.0711658 1.6499461 -0.3003298 0
-1.9576272 1.6533023 -0.30224612 0
-1.8563051 1.6372904 -0.30419064 0
-1.7387462 1.6478146 -0.30597532 0
-1.6435132 1.6494453 -0.30727136 0
-1.5472698 1.6443846 -0.31000826 0
-1.4428712 1.6477656 -0.31083399 0
-1.3471217 1.6542513 -0.31236514 0
-1.2540772 1.6578623 -0.31477088 0
-1.1455283 1.6366938 -0.31790975 0
-1.0572182 1.6708761 -0.31710398 0
-0.95510769 1.6451532 -0.31977245 0
-0.84372699 1.6542714 -0.32173911 0
-0.73597354 1.660228 -0.32401234 0
-0.65005153 1.6408514 -0.32401147 0
-0.55067599 1.670195 -0.32616454 0
-0.45092252 1.631602 -0.32768992 0
-0.34502301 1.6458379 -0.33021358 0
-0.25404322 1.6695315 -0.33223692 0
-0.14892516 1.6610949 -0.33371842 0
-0.053716548 1.6681105 -0.33448607 0
0.047710039 1.6454676 -0.33798173 0
0.1511701 1.6535203 -0.33901647 0
0.25557593 1.6633148 -0.34066203 0
0.34768873 1.6562231 -0.34245592 0
0.45391506 1.6505381 -0.34421167 0
0.54475093 1.6660889 -0.34456384 0
0.63899946 1.6547487 -0.3471356 0
0.75436348 1.632084 -0.34817794 0
0.84898365 1.6411983 -0.35254723 0
0.95095086 1.6378522 -0.35272056 0
1.042598 1.6564913 -0.3539353 0
1.156145 1.6476402 -0.35582313 0
1.2536293 1.6570572 -0.35777202 0
1.3442589 1.6507034 -0.359864 0
1.4378128 1.6419225 -0.36053345 0
1.5639144 1.6619934 -0.36512625 0
1.6479019 1.6302873 -0.36716977 0
1.7418106 1.6507403 -0.36700246 0
1.8544307 1.659215 -0.36817837 0
1.9746811 1.6676997 -0.37030336 0
2.0416267 1.6345285 -0.37140051 0
2.1209819 1.6406109 -0.37273508 0
2.2463818 1.6616689 -0.37434414 0
2.3613584 1.6442987 -0.37794468 0
2.4586322 1.6603552 -0.37907624 0
2.577245 1.6697878 -0.38051006 0
2.6302559 1.6337943 -0.38220358 0
-2.1003268 1.773805 -0.30046919 0
-2.031965 1.7160709 -0.30184317 0
-1.9629754 1.7565224 -0.30173981 0
-1.8390207 1.7428958 -0.30371827 0
-1.7563188 1.7526268 -0.30503234 0
-1.6466293 1.7499794 -0.30731311 0
-1.5522804 1.7473078 -0.30858561 0
-1.4522221 1.7574592 -0.30942559 0
-1.3579956 1.7511441 -0.31247479 0
-1.2491338 1.7586305 -0.3149184 0
-1.1498549 1.7426125 -0.31617555 0
-1.0478693 1.739869 -0.31813413 0
-0.94463068 1.7621169 -0.31847903 0
-0.85348338 1.7595783 -0.32091564 0
-0.75098997 1.7549839 -0.32284796 0
-0.65033209 1.7429253 -0.32388872 0
-0.54985631 1.7518452 -0.32570216 0
-0.45468029 1.7511902 -0.32785532 0
-0.35994196 1.7403486 -0.32963189 0
-0.24561357 1.7464963 -0.33216223 0
-0.15560387 1.7349321 -0.33333078 0
-0.055830278 1.7341827 -0.33422285 0
0.042238597 1.7417116 -0.33699533 0
0.14341861 1.7383294 -0.33908799 0
0.2434755 1.7330192 -0.34021616 0
0.34637183 1.736936 -0.34123191 0
0.44615647 1.7321826 -0.34347776 0
0.54110491 1.7681154 -0.34404403 0
0.64757597 1.7507809 -0.34747109 0
0.749569 1.7515508 -0.34745708 0
0.84519368 1.761939 -0.34959093 0
0.95112669 1.7459253 -0.35246068 0
1.0477879 1.7522392 -0.35377955 0
1.1593201 1.7570232 -0.35605335 0
1.2469152 1.7501903 -0.35714266 0
1.3578969 1.7596546 -0.3583107 0
1.4431224 1.7465078 -0.36022556 0
1.5390803 1.7432468 -0.3626582 0
1.6565558 1.7353674 -0.3666558 0
1.7419742 1.7733914 -0.36717498 0
1.8480116 1.7596817 -0.368994 0
1.9530089 1.7475712 -0.36960298 0
2.0605171 1.7488104 -0.37155506 0
2.1485946 1.736846 -0.37302175 0
2.2445848 1.7619543 -0.37440109 0
2.3540809 1.7676148 -0.37518615 0
2.441556 1.752624 -0.37875837 0
2.5391476 1.7412677 -0.38055405 0
-2.0345886 1.8469362 -0.30026481 0
-1.9433913 1.8592809 -0.3014172 0
-1.8458722 1.8524961 -0.30244976 0
-1.7386975 1.8477975 -0.30548465 0
-1.6505702 1.8647116 -0.30624837 0
-1.5439091 1.8414708 -0.30733895 0
-1.4512743 1.8531109 -0.31066886 0
-1.3564502 1.8474329 -0.31183124 0
-1.2565185 1.8749204 -0.31340575 0
-1.1454722 1.8494298 -0.31587082 0
-1.0480684 1.8457962 -0.31720963 0
-0.961088 1.8648076 -0.31809741 0
-0.84602845 1.8344035 -0.32067946 0
-0.75669968 1.8636293 -0.32164723 0
-0.64300805 1.8605351 -0.32521331 0
-0.5476827 1.8366213 -0.32577047 0
-0.43904406 1.8651435 -0.32756627 0
-0.35002562 1.8236254 -0.32939491 0
-0.246773 1.8532071 -0.33140194 0
-0.14086619 1.871558 -0.33302808 0
-0.051413111 1.848568 -0.33458292 0
0.055474829 1.8552195 -0.33710921 0
0.15464489 1.8507246 -0.33863902 0
0.25341076 1.8458499 -0.33970669 0
0.35178098 1.8575592 -0.34115013 0
0.44231299 1.8672038 -0.34218821 0
0.5384047 1.8539549 -0.34416038 0
0.64760852 1.830941 -0.34678566 0
0.73667246 1.8677695 -0.34817275 0
0.84028363 1.8525826 -0.34972969 0
0.94696796 1.8503317 -0.35150269 0
1.0462886 1.8632665 -0.35356942 0
1.1455641 1.8392601 -0.35533699 0
1.254108 1.8600299 -0.3570556 0
1.3447208 1.8314816 -0.35886902 0
1.4475485 1.8575331 -0.35989657 0
1.5506932 1.8583245 -0.3613348 0
1.6549877 1.8360772 -0.3648611 0
1.7604017 1.8709087 -0.36700228 0
1.8426498 1.8403219 -0.36835253 0
1.9344528 1.8334186 -0.36959222 0
2.0356781 1.8478756 -0.3706142 0
2.1608837 1.8515464 -0.37284052 0
2.268841 1.8611443 -0.37450272 0
2.3541241 1.8479989 -0.37683392 0
2.4346242 1.8446085 -0.37660405 0
2.5125282 1.8035703 -0.37975252 0
-1.9428216 1.9498566 -0.30081928 0
-1.8451612 1.9330856 -0.30316615 0
-1.7578638 1.9500299 -0.30394834 0
-1.6723275 1.965817 -0.3047533 0
-1.5593108 1.9510498 -0.30719492 0
-1.44371 1.9371139 -0.30965173 0
-1.3535042 1.9483957 -0.31025764 0
-1.2592454 1.9692435 -0.31283069 0
-1.1494448 1.9478221 -0.3153252 0
-1.0446088 1.9460331 -0.31631514 0
-0.94647574 1.9732852 -0.31838828 0
-0.85878664 1.9302483 -0.32033077 0
-0.74110985 1.9516283 -0.32207447 0
-0.65669131 1.9451617 -0.32518837 0
-0.55357438 1.9585513 -0.32532761 0
-0.46458238 1.9734255 -0.32620507 0
-0.35162038 1.951013 -0.32875347 0
-0.25714099 1.9310997 -0.33065289 0
-0.14678042 1.9501858 -0.33243632 0
-0.048942626 1.9569496 -0.33398375 0
0.04092022 1.9587046 -0.33647832 0
0.14733356 1.9573586 -0.33860046 0
0.24832036 1.9722598 -0.33909035 0
0.34753576 1.9616617 -0.3398788 0
0.4469811 1.9491159 -0.34219444 0
0.5475713 1.9369969 -0.34411487 0
0.64967483 1.9439522 -0.34608927 0
0.75896442 1.9653984 -0.34813476 0
0.85852224 1.9295574 -0.34934402 0
0.95717472 1.9709662 -0.35144126 0
1.0524528 1.9586847 -0.3531118 0
1.1501472 1.9172668 -0.35459101 0
1.2448478 1.9776238 -0.35680327 0
1.3436575 1.9442629 -0.35774505 0
1.4573921 1.9554543 -0.35987622 0
1.558947 1.9618555 -0.36200967 0
1.6583817 1.9494418 -0.36268499 0
1.7412586 1.9507524 -0.36511198 0
1.8515983 1.9397241 -0.36813244 0
1.9593954 1.9384497 -0.36997676 0
2.0460498 1.9670767 -0.37072635 0
2.1505561 1.9521722 -0.37228858 0
2.2638276 1.9587506 -0.37446675 0
2.3459988 1.9413754 -0.37567967 0
-1.9519485 2.0744171 -0.30023411 0
-1.8490959 2.0517087 -0.30213577 0
-1.7461796 2.0230939 -0.30364224 0
-1.6438931 2.038388 -0.30530712 0
-1.5665277 2.0707831 -0.30668157 0
-1.4558297 2.0407462 -0.30813706 0
-1.3463622 2.0404963 -0.31074589 0
-1.2432512 2.0502021 -0.31306419 0
-1.1507909 2.0491447 -0.31487182 0
-1.0579273 2.0526595 -0.31599313 0
-0.95538998 2.0672579 -0.31816548 0
-0.85063225 2.0278566 -0.31937471 0
-0.75249839 2.0569439 -0.32196522 0
-0.65362865 2.0312483 -0.32371438 0
-0.5531379 2.0691907 -0.32506013 0
-0.43991917 2.0323856 -0.32737908 0
-0.34616685 2.0390949 -0.32760361 0
-0.24755906 2.0534799 -0.33014166 0
-0.15477215 2.0563085 -0.33141407 0
-0.050938684 2.0364697 -0.33392909 0
0.051429182 2.0518365 -0.33576229 0
0.15466332 2.0548618 -0.3381331 0
0.24331476 2.0511677 -0.33819544 0
0.34681568 2.0426898 -0.33976024 0
0.45014235 2.0295641 -0.34229246 0
0.55715019 2.060986 -0.34312129 0
0.65226197 2.0778873 -0.34549591 0
0.74612153 2.062598 -0.34794584 0
0.84088773 2.0291617 -0.34884796 0
0.93627977 2.0255351 -0.35152131 0
1.0453937 2.0643275 -0.35297713 0
1.1603496 2.0320439 -0.35405433 0
1.2577596 2.0630934 -0.35630965 0
1.3586074 2.048254 -0.35826746 0
1.4638048 2.0545371 -0.35972261 0
1.5499694 2.0488987 -0.36073363 0
1.6411456 2.0449376 -0.36268321 0
1.7582983 2.0668843 -0.36391425 0
1.8642956 2.0489447 -0.36706385 0
1.9588398 2.052052 -0.36925212 0
2.0667267 2.0742035 -0.37065971 0
2.1658356 2.0623219 -0.37245572 0
2.2494411 2.0419123 -0.37369144 0
-1.8633308 2.1588342 -0.30114275 0
-1.74692 2.1454403 -0.30314022 0
-1.6378576 2.1331065 -0.30578744 0
-1.5478369 2.1618545 -0.30633342 0
-1.4626349 2.1494193 -0.30714616 0
-1.3451916 2.1373949 -0.3109225 0
-1.2550114 2.1617985 -0.31331804 0
-1.1446772 2.1451745 -0.31397074 0
-1.03675 2.1479175 -0.31673026 0
-0.94655961 2.1691239 -0.31727695 0
-0.86009109 2.135613 -0.31766513 0
-0.75296342 2.1530359 -0.32164598 0
-0.65517807 2.1408668 -0.32301655 0
-0.55965108 2.1552267 -0.32422802 0
-0.44951183 2.1578238 -0.32677764 0
-0.34565288 2.1286469 -0.32769704 0
-0.24015307 2.1564233 -0.32967398 0
-0.1340069 2.1464279 -0.33224136 0
-0.05646316 2.1332002 -0.3338553 0
0.051502187 2.1265395 -0.33539242 0
0.15748525 2.1447611 -0.3372182 0
0.25264627 2.12957 -0.33773476 0
0.34997326 2.126569 -0.33944315 0
0.44938958 2.1307542 -0.34144574 0
0.53033024 2.1549869 -0.34334525 0
0.64591831 2.1655791 -0.34442845 0
0.74455899 2.1541846 -0.34746727 0
0.85457134 2.1220157 -0.34884715 0
0.9356094 2.1653571 -0.34999865 0
1.0503166 2.1499722 -0.3520821 0
1.1490805 2.1167598 -0.35423875 0
1.2359649 2.164438 -0.35500336 0
1.3494699 2.1438909 -0.35794377 0
1.4490412 2.1624086 -0.35904408 0
1.5435234 2.1450489 -0.36063632 0
1.6475725 2.1457465 -0.36289504 0
1.7507691 2.1815431 -0.36410853 0
1.8436197 2.1465609 -0.36528125 0
1.9478663 2.1610408 -0.3674753 0
2.0558605 2.1537826 -0.36959147 0
2.1488295 2.1258221 -0.37164798 0
-1.9241991 2.2294297 -0.3006095 0
-1.8561109 2.2793019 -0.30040029 0
-1.7602382 2.2590404 -0.30290687 0
-1.6607094 2.2283218 -0.30484486 0
-1.552706 2.2464027 -0.30520082 0
-1.4539868 2.2499304 -0.30851108 0
-1.3535495 2.2567408 -0.31087211 0
-1.2457967 2.227586 -0.3123081 0
-1.1564837 2.2608347 -0.31384927 0
-1.0440465 2.2444689 -0.31651592 0
-0.94824439 2.2605517 -0.3159306 0
-0.85361624 2.2418904 -0.31837651 0
-0.75047982 2.2487741 -0.32144052 0
-0.65160751 2.242384 -0.32287082 0
-0.54855049 2.2442219 -0.32360902 0
-0.45131734 2.2636061 -0.32697523 0
-0.35544625 2.2487152 -0.32722369 0
-0.24958603 2.2411101 -0.32916659 0
-0.15381952 2.2604115 -0.33085504 0
-0.057074834 2.2783511 -0.3331255 0
0.032095775 2.2489123 -0.33518159 0
0.13615768 2.2398236 -0.33709764 0
0.24763326 2.2547588 -0.33731824 0
0.33991677 2.2566128 -0.33969352 0
0.43692437 2.2759166 -0.33996454 0
0.5384323 2.2732542 -0.34253812 0
0.63741088 2.2546313 -0.34408334 0
0.73940343 2.2426255 -0.34701476 0
0.83960193 2.2210379 -0.34882346 0
0.93568748 2.2763021 -0.34923115 0
1.0406795 2.2513883 -0.35195491 0
1.1468488 2.2410018 -0.35319477 0
1.2477233 2.2597201 -0.35484263 0
1.3515626 2.2407942 -0.35736132 0
1.4652113 2.2556145 -0.35935178 0
1.5531416 2.2474627 -0.35990435 0
1.6505054 2.2479365 -0.36210343 0
1.7513855 2.2810307 -0.36357838 0
1.8468189 2.2566698 -0.36500716 0
1.9482872 2.2573018 -0.36667216 0
2.032881 2.2126496 -0.36909071 0
-1.8447644 2.3555212 -0.3017242 0
-1.7657036 2.3691378 -0.30207574 0
-1.6477566 2.3482831 -0.3039749 0
-1.5377493 2.330795 -0.30633068 0
-1.4525154 2.3447995 -0.30821532 0
-1.3676237 2.3558381 -0.31002668 0
-1.2593122 2.3460612 -0.31078056 0
-1.1533986 2.3394051 -0.31412914 0
-1.0536509 2.3341441 -0.31557974 0
-0.95327693 2.3671665 -0.31455234 0
-0.85482693 2.3453887 -0.31928289 0
-0.75720406 2.3532131 -0.32019565 0
-0.64676875 2.3519347 -0.32228222 0
-0.53632903 2.3391247 -0.32397979 0
-0.43792081 2.3728218 -0.32609639 0
-0.34378198 2.3648882 -0.32754901 0
-0.25901899 2.3257968 -0.32865924 0
-0.1596157 2.3455017 -0.33035865 0
-0.0592134 2.3638074 -0.33273202 0
0.05049783 2.3587396 -0.3350327 0
0.14995441 2.351815 -0.33702052 0
0.24708551 2.3722439 -0.33639809 0
0.35109785 2.3758748 -0.33965889 0
0.45318523 2.3606343 -0.34007215 0
0.55828625 2.3570633 -0.34243235 0
0.66093796 2.337851 -0.34426343 0
0.74883246 2.3272262 -0.34651625 0
0.84285021 2.3300385 -0.34838986 0
0.93502301 2.3705673 -0.34928679 0
1.0390869 2.3351777 -0.35093486 0
1.147777 2.3489206 -0.35294539 0
1.2541476 2.3500559 -0.35452989 0
1.3489046 2.3366134 -0.35682169 0
1.4396024 2.3613946 -0.35881829 0
1.5515779 2.3392017 -0.36031878 0
1.6472551 2.3474894 -0.36078942 0
1.7428595 2.3736334 -0.3637566 0
1.8461014 2.3343639 -0.36600187 0
-1.9104508 2.4882212 -0.30016997 0
-1.8375612 2.4290631 -0.30112231 0
-1.7572452 2.4543152 -0.30214521 0
-1.6649851 2.4467537 -0.30291513 0
-1.5557927 2.4331691 -0.30574158 0
-1.4507627 2.4448054 -0.3080796 0
-1.3419241 2.4719281 -0.30909929 0
-1.2363018 2.4416754 -0.31168577 0
-1.1471804 2.4668055 -0.31373629 0
-1.0615519 2.4324658 -0.31388009 0
-0.97366536 2.4686723 -0.3140226 0
-0.85624504 2.4348135 -0.31800705 0
-0.76680994 2.4692874 -0.32018963 0
-0.64476526 2.483041 -0.32093218 0
-0.55532163 2.4219544 -0.32340506 0
-0.45336199 2.456502 -0.32555115 0
-0.33669513 2.4596672 -0.32743973 0
-0.25587657 2.4569521 -0.32784051 0
-0.16541186 2.4305918 -0.32986227 0
-0.061351966 2.449264 -0.33233854 0
0.044138063 2.4630315 -0.33398297 0
0.15044579 2.4678183 -0.33614066 0
0.25597751 2.4575963 -0.33619526 0
0.36369935 2.4611607 -0.33972955 0
0.45122415 2.4450679 -0.33975714 0
0.54275638 2.4467084 -0.34175798 0
0.6483916 2.4254923 -0.34361422 0
0.75088882 2.4542921 -0.34566095 0
0.85083449 2.4617028 -0.3483426 0
0.9667964 2.4511213 -0.34941483 0
1.0566134 2.4210656 -0.35104156 0
1.1498994 2.4416685 -0.35240877 0
1.2372682 2.4433405 -0.35397434 0
1.3333176 2.4419043 -0.35488284 0
1.4467639 2.4514527 -0.35849333 0
1.5620997 2.442867 -0.36014646 0
1.6562181 2.4336836 -0.36146015 0
-1.843029 2.5482082 -0.301303 0
-1.7191434 2.5261517 -0.30279201 0
-1.6489626 2.5516624 -0.30359754 0
-1.5384306 2.5649598 -0.30596051 0
-1.4415815 2.5245571 -0.30814159 0
-1.3670411 2.5617375 -0.30816862 0
-1.244814 2.5482838 -0.31142035 0
-1.1357698 2.5519176 -0.31277639 0
-1.0402277 2.530514 -0.31231374 0
-0.96115607 2.5610278 -0.31600839 0
-0.85829449 2.5422699 -0.31748092 0
-0.75057769 2.549593 -0.32035825 0
-0.65596318 2.5263278 -0.32050133 0
-0.54848504 2.559891 -0.32398373 0
-0.44985539 2.5395606 -0.32485211 0
-0.35999402 2.5633528 -0.32686183 0
-0.23963541 2.5660214 -0.32783791 0
-0.16132648 2.5471098 -0.32964787 0
-0.063490532 2.5347207 -0.33194506 0
0.045666475 2.5484326 -0.33345938 0
0.15565406 2.5533879 -0.33585083 0
0.24663901 2.5443919 -0.3353858 0
0.33916 2.5460589 -0.33888343 0
0.44884133 2.533699 -0.33992732 0
0.56138676 2.5307095 -0.34158432 0
0.66371065 2.5559027 -0.34399399 0
0.74985337 2.5815618 -0.34469399 0
0.84788179 2.571656 -0.34786057 0
0.94268835 2.5488615 -0.34895667 0
1.0423782 2.5358038 -0.34971851 0
1.1368165 2.5548618 -0.3517465 0
1.2613227 2.5542891 -0.35368261 0
1.3571701 2.5432265 -0.35511625 0
1.4669876 2.5268207 -0.35875976 0
1.5246974 2.5011139 -0.35966125 0
-1.8580601 2.6479998 -0.30049121 0
-1.73572 2.6308362 -0.30173603 0
-1.6419251 2.6505642 -0.3036527 0
-1.5481585 2.6668282 -0.30525205 0
-1.4458714 2.6184866 -0.30665854 0
-1.357216 2.6486285 -0.30871996 0
-1.2470217 2.6481044 -0.31058058 0
-1.1462513 2.6614382 -0.31160977 0
-1.0579046 2.6270444 -0.31225762 0
-0.95905674 2.6504722 -0.3161827 0
-0.85082603 2.6447172 -0.31713134 0
-0.74508876 2.6592124 -0.31919709 0
-0.64253843 2.6290138 -0.32047155 0
-0.55369037 2.6771538 -0.32375628 0
-0.45143595 2.6300466 -0.32470998 0
-0.35138899 2.6388781 -0.32688135 0
-0.25685558 2.6514285 -0.32710037 0
-0.13495377 2.6522813 -0.32920608 0
-0.053729594 2.6449082 -0.33172867 0
0.047194887 2.6338336 -0.33293572 0
0.16086233 2.6389577 -0.33556095 0
0.25055069 2.6518805 -0.3341676 0
0.35053369 2.63147 -0.33893919 0
0.44502336 2.6213102 -0.33997905 0
0.53978521 2.6483591 -0.34077841 0
0.64436084 2.663161 -0.34236598 0
0.75678557 2.6768944 -0.3447184 0
0.86036825 2.6738856 -0.34709007 0
0.95131266 2.653914 -0.34929723 0
1.0418545 2.6414218 -0.34962991 0
1.145847 2.6256666 -0.35176194 0
1.2033999 2.6036282 -0.35218042 0
-1.7327216 2.7529321 -0.30155218 0
-1.6522095 2.7544603 -0.30222693 0
-1.5545651 2.7682178 -0.30453646 0
-1.4348606 2.735944 -0.30654803 0
-1.3425119 2.7481313 -0.30780536 0
-1.2474874 2.7505388 -0.31005159 0
-1.1433758 2.7814415 -0.31018078 0
-1.0568839 2.737175 -0.31281504 0
-0.94894373 2.7455313 -0.31487414 0
-0.84248751 2.7531345 -0.31749728 0
-0.72982973 2.7560797 -0.31824365 0
-0.64535022 2.7248054 -0.32020384 0
-0.55227971 2.7701283 -0.3230297 0
-0.44669056 2.7484827 -0.32417959 0
-0.3633709 2.7288558 -0.3261568 0
-0.029068898 2.7082536 -0.33255041 0
0.048519444 2.7072628 -0.33248571 0
0.13965784 2.7204125 -0.33538762 0
0.25764135 2.7256482 -0.33658305 0
0.34337929 2.726953 -0.33895004 0
0.44202223 2.7214108 -0.3398051 0
0.56138355 2.7143755 -0.34079432 0
0.64207453 2.7102802 -0.34201428 0
0.72618228 2.7166164 -0.34526971 0
0.80528706 2.7002516 -0.34597853 0
-1.7409078 2.8558297 -0.30056944 0
-1.64301 2.8301759 -0.30329147 0
-1.5567518 2.8676546 -0.30392691 0
-1.4396019 2.8431456 -0.30600187 0
-1.34577 2.8577957 -0.30793852 0
-1.2637401 2.8403184 -0.30914587 0
-1.1777585 2.8650837 -0.30946982 0
-1.0536388 2.8492613 -0.31335527 0
-0.93919134 2.8480518 -0.31420887 0
-0.84960681 2.848968 -0.31718662 0
-0.74698257 2.8768768 -0.31737411 0
-0.64760369 2.8246672 -0.32025352 0
-0.54985237 2.8645959 -0.32252622 0
-0.45703641 2.8563154 -0.32364854 0
-0.3753528 2.8188334 -0.3254323 0
-1.7267909 2.974493 -0.30090734 0
-1.6645846 2.9151099 -0.30233762 0
-1.5790508 2.9590285 -0.30300498 0
-1.4422016 2.9523354 -0.3052572 0
-1.3382189 2.9505994 -0.30766729 0
-1.2573452 2.9382627 -0.30835122 0
-1.1559514 2.9510057 -0.31023777 0
-1.0663799 2.9481263 -0.31314591 0
-0.96595687 2.9534633 -0.31329742 0
-0.85424805 2.9411678 -0.31630814 0
-0.74869776 2.9706919 -0.31675869 0
-0.64870799 2.9250093 -0.32034594 0
-0.5456239 2.9566467 -0.32176366 0
-0.43016839 2.9590886 -0.32363302 0
-0.3669951 2.9151645 -0.32521719 0
-1.6446224 3.0295804 -0.30199316 0
-1.5430961 3.0473545 -0.30334473 0
-1.4610937 3.0460329 -0.30407315 0
-1.3556771 3.0461495 -0.30662578 0
-1.2465239 3.0323687 -0.30804783 0
-1.1528335 3.04918 -0.31094328 0
-1.0523107 3.0446126 -0.3119179 0
-0.95370132 3.0636094 -0.31376436 0
-0.85820889 3.035655 -0.31572491 0
-0.7501145 3.0691395 -0.31683657 0
-0.64755136 3.0221329 -0.32011768 0
-0.54014045 3.049099 -0.32098827 0
-0.45468286 3.0771909 -0.32263273 0
-0.38400939 3.0503149 -0.32417014 0
-1.5160877 3.103442 -0.30218232 0
-1.4500813 3.1571596 -0.30467352 0
-1.3554417 3.1548753 -0.30575359 0
-1.2391871 3.1418366 -0.30828243 0
-1.1455818 3.143198 -0.31108221 0
-1.0378795 3.1484313 -0.31092742 0
-0.94041091 3.1523216 -0.31418264 0
-0.83750075 3.1330991 -0.31465685 0
-0.74984968 3.1659932 -0.31681496 0
