# .PCD v0.7 - Point Cloud Data file format
VERSION 0.7
FIELDS x y z intensity
SIZE 4 4 4 4
TYPE F F F F
COUNT 1 1 1 1
WIDTH 211
HEIGHT 1
VIEWPOINT 0 0 0 1 0 0 0
POINTS 211
DATA ascii
-29.044756 6.8046694 2.6094232 10
-29.026909 6.8005323 3.6601238 11
-28.982662 6.7902551 5.7858272 13
-28.661856 5.8507676 1.5326771 9
-28.610184 5.8403354 4.6245375 12
-28.769705 6.3053212 6.799346 14
-28.553288 5.8288398 7.8083715 15
-28.30678 4.9347658 0.50120378 8
-27.721424 3.6087108 2.4455795 10
-27.679846 3.6033957 6.4441972 14
-27.560888 3.1853864 1.4538362 9
-27.51932 3.1806462 4.387516 12
-27.494814 3.1778362 5.3799133 13
-27.472248 3.1752727 7.410089 15
-27.070589 1.9501845 0.47362146 8
-27.186954 2.352108 3.350502 11
-26.232271 7.5699361e-05 2.2949879 10
-26.356495 0.37918425 4.1748471 12
-26.350149 0.37909666 5.122437 13
-26.323566 0.37872177 7.0540667 15
-26.085485 -0.37527084 1.3671948 9
-26.071175 -0.37506726 3.2014313 11
-26.016144 -0.37427944 6.0068712 14
-25.649786 -1.4773315 0.44845542 8
-25.455029 -1.8338052 4.0420623 12
-25.417076 -1.8311045 6.8280196 15
-25.033571 -2.8932123 2.204675 10
-25.13122 -2.5388708 5.8313947 14
-24.848747 -3.2346945 4.8707042 13
-24.474874 -4.2665677 1.3019401 9
-24.448042 -4.2619448 3.0469589 11
-24.575571 -3.9208989 3.9414465 12
-24.201151 -4.939887 0.43107623 8
-24.264212 -4.5904889 5.7008967 14
-24.397617 -4.2532659 6.635603 15
-24.18656 -4.9369712 2.1595259 10
-20.535641 -13.738085 0.43012545 8
-20.534428 -13.737377 1.2934912 9
-20.185886 -14.361729 5.7171717 14
-19.936941 -15.065956 2.1845369 10
-19.920727 -15.053936 3.9526334 12
-19.676958 -15.778193 0.438676 8
-19.789343 -15.406492 3.0773699 11
-19.603685 -15.720302 6.730258 15
-19.513634 -16.113712 1.3244522 9
-19.462986 -16.072397 4.9038825 13
-19.011957 -17.131187 5.9052143 14
-18.612579 -18.284847 0.45325169 8
-18.749199 -17.896978 2.2652206 10
-18.737823 -17.886271 3.1779635 11
-18.727268 -17.876333 4.0976448 12
-18.698132 -17.848969 6.9228563 15
-18.565056 -18.238901 5.0556135 13
-18.288668 -19.030518 1.3806722 9
-17.900723 -19.733084 6.1470141 14
-17.459705 -20.998411 0.47376421 8
-17.427198 -20.960035 4.3135147 12
-17.418156 -20.949345 5.291739 13
-17.281267 -21.40254 1.4384031 9
-17.214857 -21.321428 7.3380108 15
-17.094154 -21.805031 2.420433 10
-17.083609 -21.791771 3.3960536 11
-16.332951 -23.500746 5.5580463 13
-15.933674 -24.394258 6.7212467 14
-15.790776 -24.950317 0.51129663 8
-15.723862 -24.846256 7.8726578 15
-15.583393 -25.42452 1.5583131 9
-15.566579 -25.397329 2.601387 10
-15.558774 -25.384834 3.6507189 11
-15.554443 -25.378017 4.709096 12
-11.801466 -4.4363089 0.21988361 8
-11.841102 -6.3005834 2.6062069 13
-11.815583 -6.2870526 3.088824 14
-11.804667 -6.281292 3.5816832 15
-11.750604 -5.6160722 0.22700641 8
-11.706163 -5.3895063 0.6749931 9
-11.638768 -5.1570144 1.1132718 10
-11.751832 -5.8258023 1.6098322 11
-11.798404 -6.0617914 2.1000478 12
-11.502495 -4.5138464 1.516717 11
-11.512144 -4.517663 1.9581583 12
-11.506836 -4.5156112 2.4021149 13
-11.508959 -4.5164766 2.8535824 14
-11.514568 -4.5187101 3.3135533 15
-11.399609 18.028351 2.6151054 11
-11.390377 18.013971 4.1387959 13
-11.388207 18.010639 4.915463 14
-10.996629 17.957632 0.36375299 8
-10.992212 17.950634 1.8376528 10
-10.9805 17.931725 3.3262863 12
-10.595825 17.87575 1.0851724 9
-9.7960091 17.666964 5.4084344 15
-9.4364815 7.5725904 0.21001616 8
-9.0668116 17.522373 4.5504165 14
-8.7243481 17.471519 1.7044466 10
-8.3825073 17.409128 1.0085794 9
-8.3720627 17.387638 2.3653154 11
-8.367219 17.377682 3.0504816 12
-8.3678179 17.379019 3.744915 13
-7.6946845 17.232853 5.052145 15
-6.741117 17.036146 4.2250128 14
-6.1376796 16.918215 2.8458412 12
-5.8435917 16.86017 1.5567513 10
-5.8384972 16.84557 2.1845529 11
-5.8363357 16.839653 4.7703295 15
-4.9815893 16.664967 3.3759947 13
-4.4288349 16.535328 3.9467654 14
-4.1654358 16.497837 2.6900461 12
-4.1597013 16.47533 4.5475383 15
-3.9015644 16.445839 1.4741018 10
-3.640347 16.39115 2.0567508 11
-2.846231 7.8579783 0.14387514 8
-2.8073578 10.493035 0.56633836 9
-2.03913 15.333015 1.3485669 10
-1.8224196 10.301707 0.54521203 9
-1.932426 16.319118 2.0124929 11
-1.9281589 16.283186 2.5915608 12
-1.9204068 16.217957 3.1687903 13
-1.9158258 16.179388 3.7554705 14
-1.9105811 16.135241 4.3474369 15
-0.4722507 14.970567 1.3054659 10
0.63120866 -5.0596666 -0.26835984 6
0.63274783 -5.0717921 -0.090566821 7
0.69018316 -4.9542494 0.08576905 8
0.63385576 -5.080502 0.26653636 9
0.69400871 -4.9812851 0.43803087 10
0.69331634 -4.9763727 0.70392722 11.5
0.69279057 -4.9726372 0.9732458 13
0.69393265 -4.9807038 1.1580735 14
0.69339466 -4.9768872 1.3432631 15
0.97693485 14.779137 1.31048 10
1.920881 -5.1996274 0.28849873 9
2.2124789 -5.2768507 -0.30154654 6
2.6264555 -5.3751259 1.3783696 14
2.6256912 -5.3736243 1.5996028 15
3.0232921 7.5219984 0.14776179 8
3.1984437 14.996402 1.355829 10
3.4094861 10.121158 0.56896222 9
10.127077 -8.7497959 0.22922473 8
10.135037 -8.7568321 0.69765997 9
10.157153 -8.7760706 1.1701739 10
10.165102 -8.7830992 1.6453354 11
10.170239 -8.7877054 2.1247354 12
10.183822 -8.7997761 3.1032574 14
10.321826 -7.696609 -0.22892593 7
10.302863 -8.1543236 2.5503352 13
10.203465 -8.8168974 3.6093316 15
10.478293 -6.9138489 0.21536635 8
10.490334 -6.9219522 0.65508759 9
10.499641 -6.9282575 1.0971417 10
10.515332 -6.9387627 1.5436178 11
10.531682 -6.9497051 1.995379 12
10.541436 -6.9563098 2.4520042 13
10.536076 -6.9529715 2.9115169 14
10.554324 -6.9651718 3.3856077 15
10.824598 20.582525 2.873481 11
10.820097 20.57312 3.7008111 12
10.824191 20.58003 4.5402455 13
10.8168 20.565117 5.3860459 14
10.81435 20.559574 6.2473073 15
12.597798 20.26676 2.104068 10
14.281362 -0.72670782 0.24829827 8
14.281207 -0.72697765 0.74866003 9
14.463525 -0.11128382 1.2656071 10
15.331103 12.857769 2.4674788 11
15.346886 12.870431 3.1840248 12
15.377353 12.895402 3.913712 13
15.397691 12.911868 4.6531048 14
15.423913 12.559481 5.3443055 15
15.822989 12.513883 0.35954502 8
15.821498 12.512144 1.065475 9
15.817368 12.508317 1.7735568 10
17.394367 12.19591 2.6181364 11
17.361517 12.171114 4.9077735 14
17.804228 12.104175 3.420404 12
18.056656 48.719658 6.4195366 11
19.594599 2.9794216 0.34624845 8
19.641457 2.9861479 1.0421693 9
23.994968 -11.261217 4.1918964 12
24.118433 -10.483463 3.2229233 11
24.013374 -11.270272 5.1501842 13
24.191431 -10.516442 6.084475 14
24.207558 -9.7032576 0.4486247 8
24.29936 -9.3371878 1.3581185 9
24.327412 -9.3483772 2.2742655 10
24.442326 -8.9921827 4.1198559 12
24.459053 -8.9987688 5.0610886 13
24.784723 -6.7574058 0.44304168 8
24.805252 -6.7634349 1.3424634 9
24.826721 -6.7697225 2.2467511 10
24.86791 -6.7813773 3.1606383 11
24.862129 -6.7802591 4.0776854 12
24.907125 -6.7929611 5.0147228 13
24.927372 -6.7989373 5.9619246 14
37.373104 -5.1365108 4.6274648 11
37.340523 -5.6817808 7.3378382 13
37.377583 -5.6881313 8.72507 14
37.712204 -3.5345192 5.9960403 12
38.068382 -1.9171243 7.4074111 13
38.522015 0.83404368 4.7298861 11
38.558788 0.8340624 6.1079855 12
38.924477 2.5244381 7.5831523 13
39.180233 4.246604 4.8398352 11
39.379353 5.4193311 3.4787083 10
39.557026 6.0231442 6.340157 12
39.581444 6.0259876 7.7859306 13
40.064114 9.0889635 3.5974891 10
40.3629 10.385425 5.1222153 11
40.320282 9.7562885 8.0696135 13
40.410789 10.3968 6.6145039 12
43.221237 67.313889 4.2387972 9
