# .PCD v0.7 - Point Cloud Data file format
VERSION 0.7
FIELDS x y z intensity
SIZE 4 4 4 4
TYPE F F F F
COUNT 1 1 1 1
WIDTH 1385
HEIGHT 1
VIEWPOINT 0 0 0 1 0 0 0
POINTS 1385
DATA ascii
-25.025417 -2.8922875 3.0931056 11
-25.187113 -2.5444694 3.1082597 11
-24.875448 -3.2381494 3.9729986 12
-25.018318 -2.8914847 3.9887812 12
-25.16596 -2.5423479 4.0060921 12
-25.002066 -2.8896251 4.8921261 13
-25.150234 -2.5407751 4.9134789 13
-24.857666 -3.2358756 5.7870789 14
-24.992775 -2.8885694 5.8082862 14
-24.838022 -3.23334 6.711266 15
-24.977085 -2.886775 6.7369547 15
-25.125153 -2.5382733 6.7663717 15
-24.499689 -4.2708659 0.43405327 8
-24.635727 -3.9303963 0.43542784 8
-24.775002 -3.5880487 0.43694136 8
-24.636568 -3.9305551 1.3074135 9
-24.768246 -3.5870929 1.3115404 9
-24.487509 -4.2687969 2.1745727 10
-24.618153 -3.9276421 2.1809502 10
-24.758007 -3.5856316 2.1885605 10
-24.601212 -3.9249642 3.058718 11
-24.741262 -3.5832291 3.0694246 11
-24.450075 -4.2623258 3.9307206 12
-24.731018 -3.5817688 3.9577296 12
-24.441927 -4.2609339 4.8224497 13
-24.581753 -3.9219105 4.8384361 13
-24.710739 -3.5788543 4.8532166 13
-24.413923 -4.2560797 5.7211318 14
-24.552328 -3.9172413 5.7398009 14
-24.700874 -3.5774498 5.7619338 14
-24.547825 -3.916549 6.6604819 15
-24.692364 -3.5762403 6.6850858 15
-24.074369 -5.275744 0.43010852 8
-24.349808 -4.6065025 0.43251404 8
-24.077768 -5.2765231 1.291676 9
-24.203993 -4.9404988 1.2945216 9
-24.344414 -4.6055107 1.2983732 9
-24.0539 -5.271327 2.1542041 10
-24.340849 -4.6048665 2.1671863 10
-24.047916 -5.2700491 3.0225556 11
-24.183884 -4.9364576 3.0304348 11
-24.321692 -4.6012721 3.0391221 11
-24.025568 -5.2651858 3.8953023 12
-24.175058 -4.9346876 3.9076586 12
-24.297415 -4.5967093 3.9163742 12
-24.007658 -5.2612967 4.7770348 13
-24.158827 -4.9314089 4.792541 13
-24.306318 -4.598423 4.8082147 13
-24.00193 -5.2600765 5.6724086 14
-24.147451 -4.9291186 5.689496 14
-24.000423 -5.2597823 6.5830822 15
-24.144875 -4.9286261 6.6026192 15
-24.278603 -4.5932407 6.6204782 15
-23.666447 -6.267333 0.42719606 8
-23.870949 -5.7733617 0.42858201 8
-23.668325 -6.2678719 1.2829605 9
-23.868139 -5.7726302 1.2868088 9
-23.654554 -6.264266 2.1405826 10
-23.847849 -5.7677684 2.1464081 10
-23.623117 -6.2559814 3.0002198 11
-23.763184 -5.9287243 3.006902 11
-23.893017 -5.5973897 3.0128636 11
-23.619757 -6.2551332 3.8695803 12
-23.751551 -5.9258604 3.8768451 12
-23.885136 -5.5955811 3.8851466 12
-23.612707 -6.2533088 4.7476254 13
-23.739717 -5.9229484 4.7555833 13
-23.881006 -5.5946503 4.767314 13
-23.735609 -5.9219623 5.6473131 14
-23.86272 -5.590404 5.6578851 14
-23.713646 -5.9165239 6.5483103 15
-23.855314 -5.5887074 6.5646033 15
-23.395044 -6.9212632 0.42566592 8
-23.53833 -6.5970602 0.42652819 8
-23.392147 -6.9204502 1.2781966 9
-23.530565 -6.5949254 1.2804743 9
-23.373363 -6.9149404 2.1321931 10
-23.507965 -6.5886369 2.1356404 10
-23.358547 -6.9106035 2.9905603 11
-23.494106 -6.5847955 2.9955187 11
-23.347393 -6.9073491 3.8558409 12
-23.480675 -6.5810757 3.8618629 12
-23.352865 -6.9090142 4.7333002 13
-23.461729 -6.57581 4.7357521 13
-23.323692 -6.9004326 5.6148152 14
-23.463173 -6.5762596 5.6250916 14
-23.595774 -6.2488666 5.6347995 14
-23.306723 -6.8954611 6.5119276 15
-23.44595 -6.5714784 6.5237994 15
-23.571575 -6.2425027 6.5331473 15
-21.236584 -12.094904 0.42574915 8
-21.363136 -11.763443 0.42490402 8
-21.221754 -12.086547 1.2789506 9
-21.369862 -11.767228 1.277603 9
-21.20204 -12.075406 2.1335957 10
-21.341654 -11.751781 2.1304793 10
-21.334015 -11.747659 2.9892108 11
-21.326784 -11.743764 3.8548005 12
-21.305876 -11.732335 4.7264056 13
-21.304928 -11.731897 5.6135063 14
-21.302837 -11.730837 6.5146031 15
-20.823017 -13.079676 0.42820781 8
-21.025433 -12.582953 0.42678791 8
-20.811842 -13.072751 1.2868741 9
-21.026575 -12.583874 1.2832017 9
-21.004026 -12.570274 2.1404254 10
-20.921164 -12.725826 3.005332 11
-21.128555 -12.235825 2.9966996 11
-20.914413 -12.721813 3.8756993 12
-21.113428 -12.227168 3.8630238 12
-20.903917 -12.715523 4.754343 13
-21.112581 -12.226781 4.7409658 13
-20.891853 -12.708282 5.6437092 14
-21.096712 -12.217594 5.6268215 14
-20.884613 -12.703975 6.5480523 15
-21.089243 -12.213449 6.5284076 15
-20.673262 -13.403945 0.42898777 8
-20.670694 -13.40238 1.2898664 9
-20.533016 -13.73653 2.1599004 10
-20.646437 -13.38675 2.151428 10
-20.791008 -13.05976 2.146769 10
-20.507864 -13.71981 3.0279977 11
-20.657915 -13.394291 3.0214736 11
-20.780642 -13.053346 3.011729 11
-20.49526 -13.711479 3.9038389 12
-20.642292 -13.384261 3.8948588 12
-20.776678 -13.050951 3.8844786 12
-20.487234 -13.706215 4.7894301 13
-20.629839 -13.376289 4.7773886 13
-20.759199 -13.04007 4.7635064 13
-20.484413 -13.704431 5.6878934 14
-20.614046 -13.366151 5.6700182 14
-20.761009 -13.041307 5.6583576 14
-20.474112 -13.697647 6.5983124 15
-20.603058 -13.35913 6.5773678 15
-20.742519 -13.029791 6.561482 15
-20.190771 -14.584691 0.43346101 8
-20.398212 -14.074841 0.43137845 8
-20.180555 -14.577393 1.3032537 9
-20.397408 -14.074388 1.2974075 9
-20.102091 -14.741528 2.1792562 10
-20.299301 -14.223578 2.1670494 10
-20.082792 -14.72749 3.0560195 11
-20.295921 -14.221408 3.0412831 11
-20.072309 -14.719914 3.9403868 12
-20.291231 -14.218234 3.9224999 12
-20.057457 -14.709138 4.8326283 13
-20.280428 -14.210729 4.8116627 13
-20.05793 -14.709597 5.7401567 14
-20.328684 -14.027501 5.6999846 14
-20.036732 -14.694166 6.6552796 15
-20.249857 -14.18953 6.6232266 15
-19.824657 -15.43363 0.43704712 8
-19.974569 -15.094165 0.43559158 8
-19.6752 -15.776905 1.3199606 9
-19.829075 -15.437184 1.3153304 9
-19.967121 -15.08865 1.3100328 9
-19.655291 -15.761062 2.2022867 10
-19.817358 -15.428183 2.1954396 10
-19.660204 -15.765124 3.092139 11
-19.942909 -15.070582 3.0673139 11
-19.646955 -15.75462 3.9864116 12
-19.781296 -15.400344 3.9684126 12
-19.625635 -15.737649 4.8874316 13
-19.773605 -15.394478 4.8687415 13
-19.913071 -15.048268 4.8493876 13
-19.621017 -15.734073 5.8037877 14
-19.761673 -15.385309 5.7794499 14
-19.905594 -15.042735 5.7577763 14
-19.74992 -15.376283 6.7039604 15
-19.893433 -15.033665 6.6787004 15
-19.235474 -16.837057 0.4443959 8
-19.37855 -16.476297 0.44225821 8
-19.533571 -16.130051 0.44053152 8
-19.220932 -16.824461 1.3367219 9
-19.367174 -16.466749 1.3303671 9
-19.223219 -16.826591 2.2329242 10
-19.36953 -16.46888 2.2222652 10
-19.512978 -16.113298 2.2119927 10
-19.352407 -16.454451 3.1167107 11
-19.500736 -16.103312 3.103071 11
-19.344103 -16.447521 4.0191174 12
-19.502209 -16.10466 4.0035291 12
-19.342016 -16.445881 4.9323831 13
-19.321407 -16.428488 5.8523307 14
-19.482471 -16.088615 5.8305392 14
-19.31995 -16.427387 6.7920623 15
-19.460983 -16.071001 6.7598052 15
-18.944548 -17.569639 0.44900644 8
-19.075567 -17.187681 0.44628727 8
-18.917772 -17.544943 1.3500127 9
-19.072893 -17.185406 1.3433919 9
-18.915949 -17.54339 2.2547443 10
-19.064898 -17.178335 2.2429099 10
-18.90748 -17.535677 3.1637366 11
-19.125977 -16.986622 3.1385243 11
-18.881748 -17.511959 4.0760226 12
-19.038843 -17.155132 4.0563579 12
-19.184492 -16.792961 4.0356164 12
-18.872704 -17.503714 5.0004148 13
-19.021626 -17.139761 4.9741554 13
-19.17729 -16.786791 4.9513235 13
-18.870138 -17.501474 5.9386163 14
-19.172787 -16.782988 5.879704 14
-18.8571 -17.489527 6.8879976 15
-19.017956 -17.136732 6.8561435 15
-19.163727 -16.775194 6.8211327 15
-18.461397 -18.665415 0.45597422 8
-18.778429 -17.924599 0.45105007 8
-18.458635 -18.662773 1.3731923 9
-18.605719 -18.278252 1.3645278 9
-18.768427 -17.915192 1.3575137 9
-18.44206 -18.646164 2.2917836 10
-18.595409 -18.26827 2.2780519 10
-18.588499 -18.261635 3.1967502 11
-18.427265 -18.631361 3.2146666 11
-18.424244 -18.62846 4.1466746 12
-18.574841 -18.248369 4.1211848 12
-18.412823 -18.617064 5.0864301 13
-18.725861 -17.875143 5.0289922 13
-18.711254 -17.861347 5.9687219 14
-18.403374 -18.607672 6.038537 14
-18.560188 -18.234272 6.0034451 14
-18.553856 -18.22821 6.9656544 15
-18.134743 -19.421497 0.46133828 8
-18.305517 -19.047895 0.45875522 8
-18.123159 -19.409252 1.389012 9
-18.128864 -19.415527 2.321116 10
-18.284222 -19.026047 2.3058355 10
-18.113779 -19.399529 3.2557831 11
-18.276318 -19.017979 3.2356091 11
-18.100555 -19.385532 4.1973844 12
-18.259361 -19.00049 4.1705236 12
-18.085581 -19.369654 5.1476016 13
-18.24876 -18.98962 5.1159039 13
-18.08176 -19.365734 6.113039 14
-18.236202 -18.976713 6.0724807 14
-18.06542 -19.348398 7.0888629 15
-18.235821 -18.97648 7.0480404 15
-18.393486 -18.597832 7.0050101 15
-17.641014 -20.606503 0.47068933 8
-17.803448 -20.200998 0.46731725 8
-17.980665 -19.820208 0.46453109 8
-17.624775 -20.587708 1.4173136 9
-17.803446 -20.201164 1.4082731 9
-17.969839 -19.808435 1.3988537 9
-17.621445 -20.583992 2.3673987 10
-17.793041 -20.189526 2.351306 10
-17.961044 -19.798904 2.3357415 10
-17.614851 -20.576464 3.3223355 11
-17.781534 -20.176645 3.2988145 11
-17.945141 -19.781544 3.2761595 11
-17.601509 -20.561058 4.2831454 12
-17.785995 -20.181875 4.2570887 12
-17.940172 -19.776234 4.225595 12
-17.92828 -19.763294 5.1830711 13
-17.768351 -20.162033 5.2200027 13
-17.752285 -20.143976 6.1947541 14
-17.738152 -20.128117 7.1844254 15
-17.906942 -19.740114 7.1372032 15
-17.295698 -21.420235 0.47752562 8
-17.463293 -21.002905 1.4283682 9
-17.45492 -20.993011 2.3852334 10
-17.276745 -21.397129 2.4025791 10
-17.261637 -21.378607 3.3700948 11
-17.446249 -20.982769 3.3469915 11
-17.259577 -21.37624 4.3475456 12
-17.253592 -21.369015 5.3344297 13
-17.595375 -20.554071 5.2553577 13
-17.225725 -21.334696 6.3260965 14
-17.412319 -20.942514 6.2835011 14
-17.582636 -20.53937 6.2378545 14
-17.399567 -20.927364 7.2878461 15
-17.57876 -20.53503 7.2385964 15
-16.934893 -22.253096 0.484837 8
-17.11364 -21.82951 0.4810175 8
-16.927925 -22.244137 1.4614402 9
-17.108934 -21.823694 1.4499277 9
-16.928476 -22.245056 2.4419072 10
-16.913021 -22.224949 3.4252086 11
-17.082542 -21.790602 4.3813119 12
-16.912033 -22.223846 4.4189715 12
-16.891869 -22.197554 5.4175267 13
-17.077654 -21.784563 5.3762093 13
-17.059616 -21.761753 6.3792319 14
-16.876284 -22.177271 6.4291348 14
-16.862991 -22.160011 7.4563942 15
-17.043993 -21.742022 7.397552 15
-16.572039 -23.126982 0.49308392 8
-16.760283 -22.693377 0.48902786 8
-16.565813 -23.1185 1.4867618 9
-16.752762 -22.683395 1.4742204 9
-16.54932 -23.095686 2.4817984 10
-16.739992 -22.666302 2.4613705 10
-16.541525 -23.08502 3.4827859 11
-16.7356 -22.660563 3.4547982 11
-16.534388 -23.075274 4.4916382 12
-16.719007 -22.638294 4.4530168 12
-16.522638 -23.059084 5.5093145 13
-16.708654 -22.624481 5.4624195 13
-16.51272 -23.04546 6.5402131 14
-16.701632 -22.615181 6.4856906 14
-16.504 -23.033512 7.5872245 15
-16.688412 -22.597494 7.5219731 15
-16.190228 -24.024075 0.50186378 8
-16.39019 -23.582031 0.49760583 8
-16.180401 -24.009714 1.5133101 9
-16.38372 -23.572931 1.5005779 9
-16.168606 -23.992428 2.5269301 10
-16.368576 -23.551353 2.5051093 10
-16.164675 -23.986813 3.547014 11
-16.351404 -23.526859 3.5135069 11
-16.150152 -23.96549 4.5723944 12
-16.344389 -23.516983 4.5312991 12
-16.143545 -23.955914 5.6101098 13
-16.140043 -23.950941 6.6624641 14
-16.318901 -23.480749 6.5963664 14
-16.120258 -23.921818 7.7236848 15
-16.31896 -23.481068 7.6564574 15
-15.603065 -25.456383 0.51690525 8
-15.996451 -24.488991 0.50661147 8
-15.788101 -24.946325 1.5428674 9
-15.986395 -24.473824 1.5278094 9
-15.7747 -24.925386 2.5761228 10
-15.971962 -24.45195 2.5507698 10
-15.969411 -24.448275 3.5808198 11
-15.768579 -24.915951 3.615629 11
-15.760415 -24.903292 4.6626844 12
-15.960645 -24.435083 4.6176195 12
-15.754388 -24.894009 5.7210946 13
-15.94738 -24.41501 5.6632314 13
-15.737045 -24.866838 6.7883005 14
-15.924059 -24.379776 7.7967024 15
-15.385443 -25.930807 0.52188021 8
-15.37309 -25.910231 1.5742605 9
-15.369434 -25.90432 2.6302986 10
-15.356847 -25.883352 3.6901655 11
-15.347138 -25.867247 4.7583261 12
-15.333126 -25.84388 5.8353987 13
-15.540113 -25.354881 5.7749529 13
-15.329681 -25.838335 6.9300456 14
-15.537778 -25.35132 6.8587484 14
-15.520897 -25.324034 7.9523973 15
-15.312163 -25.809063 8.034627 15
-14.955306 -26.942005 0.53312182 8
-15.172855 -26.431158 0.5273906 8
-15.168005 -26.42296 1.5918841 9
-14.94048 -26.915562 1.6083375 9
-14.931982 -26.900518 2.6865017 10
-15.158277 -26.406269 2.6587479 10
-14.929246 -26.895855 3.771508 11
-15.147908 -26.388464 3.7306285 11
-14.923818 -26.886347 4.8645911 12
-15.127861 -26.3538 4.8072066 12
-14.911397 -26.864241 5.9662538 13
-15.122092 -26.344013 5.8985085 13
-14.901697 -26.84704 7.0824723 14
-15.114689 -26.331379 7.003159 14
-14.883767 -26.815014 8.2108917 15
-15.104452 -26.31382 8.1232004 15
-14.504352 -27.99744 0.54528701 8
-14.727442 -27.454374 0.53889668 8
-14.497396 -27.984295 1.6463654 9
-14.725824 -27.451633 1.6274334 9
-14.487509 -27.965494 2.749872 10
-14.71291 -27.427834 2.7176399 10
-14.472788 -27.937359 3.857353 11
-14.709265 -27.421312 3.8150241 11
-14.473179 -27.938406 4.9773312 12
-14.692245 -27.389862 4.9168472 12
-14.458127 -27.909636 6.1033115 13
-14.684863 -27.376383 6.032362 13
-14.678355 -27.364532 7.1624579 14
-14.446782 -27.888031 7.244246 14
-14.668733 -27.346882 8.3081961 15
-14.435682 -27.866898 8.4021387 15
-14.035356 -29.112106 0.55865628 8
-14.270383 -28.543179 0.55174106 8
-14.024089 -29.089041 1.6866874 9
-14.261107 -28.524914 1.665815 9
-14.247898 -28.498779 2.7817595 10
-14.019382 -29.079576 2.8183634 10
-14.000343 -29.040392 3.9521761 11
-14.238884 -28.481043 3.9036303 11
-14.233201 -28.469973 5.0349345 12
-14.220846 -28.445562 6.1750369 13
-14.221693 -28.447561 7.3355994 14
-14.205014 -28.414503 8.5046682 15
-13.67428 18.528097 0.39830267 8
-13.791784 -29.69066 0.56576926 8
-13.674224 18.52813 1.2031685 9
-13.774314 -29.653362 1.7076246 9
-13.667357 18.518938 2.0099752 10
-13.777507 -29.660559 2.8550541 10
-13.660445 18.509687 2.8209045 11
-13.661012 18.510565 3.6399913 12
-13.761071 -29.625483 4.0043402 11
-13.643627 18.487129 4.4623842 13
-13.753381 -29.609245 5.1640792 12
-13.996883 -29.033518 5.098361 12
-13.637439 18.478863 5.2983055 14
-13.74 -29.580755 6.3328185 13
-13.986593 -29.012484 6.2536855 13
-13.642877 18.48634 6.152319 15
-13.731099 -29.561922 7.5177588 14
-13.974442 -28.987595 7.4221544 14
-13.720739 -29.539944 8.719553 15
-13.968057 -28.974669 8.6112051 15
-13.257266 -4.1306376 0.2422494 8
-13.283703 -30.891752 0.58087736 8
-13.534131 -30.267466 0.57286584 8
-13.257988 -4.1308894 0.72756892 9
-13.258855 -4.131187 1.2147346 10
-13.265633 -30.85006 1.7535859 9
-13.516956 -30.229374 1.7292985 9
-13.280136 -4.1378441 1.7075754 11
-13.278511 -4.1373658 2.2024245 12
-13.288859 -4.1406174 2.7050962 13
-13.2635 -30.845438 2.9309235 10
-13.520879 -30.238478 2.891547 10
-13.29787 -4.1434526 3.2150776 14
-13.32207 -4.151021 3.738277 15
-13.252438 -30.820047 4.1123333 11
-13.512064 -30.21909 4.0577731 11
-13.242316 -30.796846 5.3023381 12
-13.506728 -30.207489 5.2338843 12
-13.234616 -30.779291 6.5049787 13
-13.487966 -30.165852 6.4157753 13
-13.219085 -30.743513 7.7181187 14
-13.476892 -30.14142 7.614943 14
-12.866334 -4.21277 0.23617193 8
-13.19666 18.430189 0.39199182 8
-13.01439 -31.506065 0.58871806 8
-12.879924 -4.217247 0.71005487 9
-12.885677 -4.2191586 1.1859552 10
-13.193634 18.426069 1.1840031 9
-13.007738 -31.490314 1.7790353 9
-12.879683 -4.2172236 1.6636789 11
-13.193209 18.425583 1.9789419 10
-12.882153 -4.2180614 2.1464858 12
-12.896077 -4.2226486 2.637187 13
-13.179551 18.40663 2.7759135 11
-12.993418 -31.455988 2.9707513 10
-12.895317 -4.2224288 3.1320603 14
-13.169671 18.392946 3.5791271 12
-12.911362 -4.2277117 3.6396601 15
-12.980124 -31.42415 4.1674805 11
-13.169009 18.392134 4.3931541 13
-12.976623 -31.416035 5.3761401 12
-13.178948 18.40612 5.2224264 14
-13.162521 18.383297 6.0542526 15
-12.964327 -31.386623 6.593133 13
-12.960678 -31.378155 7.8297291 14
-12.476732 -4.2848368 0.2301106 8
-12.738686 18.34252 0.38610643 8
-12.455734 -32.795479 0.6055972 8
-12.73886 -32.140965 0.5969646 8
-12.505201 -4.294641 0.69270766 9
-12.505794 -4.2948723 1.1565292 10
-12.728286 18.32766 1.1657037 9
-12.453213 -32.789211 1.8311585 9
-12.725863 -32.108521 1.8033073 9
-12.509349 -4.2961226 1.6236227 11
-12.716519 18.310833 1.9466723 10
-12.511215 -4.296792 2.0947194 12
-12.526835 -4.3021851 2.5740218 13
-12.717779 18.312754 2.7337794 11
-12.438251 -32.750195 3.0576661 10
-12.720622 -32.095669 3.0134509 10
-12.530126 -4.3033452 3.058028 14
-12.539929 -4.3067422 3.5519919 15
-12.7192 18.314905 3.5278618 12
-12.430438 -32.730003 4.2912154 11
-12.7097 -32.068478 4.2281318 11
-12.70413 18.293327 4.3253369 13
-12.70005 18.287563 5.1362958 14
-12.426099 -32.718952 5.5354004 12
-12.711834 -32.074238 5.45681 12
-12.697663 18.284241 5.9607239 15
-12.406819 -32.668575 6.7844048 13
-12.693536 -32.028431 6.6887994 13
-12.685919 -32.00959 7.9408321 14
-12.125388 -4.3601084 0.22474609 8
-12.280034 18.236691 0.38003871 8
-12.168352 -33.481342 0.61483073 8
-12.135233 -4.3636775 0.67559707 9
-12.149558 -4.3688564 1.1292499 10
-12.271653 18.224358 1.1476977 9
-12.142931 -4.3665037 1.5840168 11
-12.162417 -33.465401 1.8588279 9
-12.273046 18.22653 1.9186469 10
-12.165706 -4.3747211 2.0471547 12
-12.166025 -4.3748665 2.5125062 13
-12.267484 18.21838 2.6929662 11
-12.149397 -33.429958 3.1043682 10
-12.180804 -4.3802104 2.9877899 14
-12.179314 -4.3797054 3.4672728 15
-12.263821 18.213049 3.4737916 12
-12.138951 -33.401615 4.3558059 11
-12.253099 18.197243 4.2603846 13
-12.246385 18.187387 5.058033 14
-12.131252 -33.380825 5.617157 12
-12.249898 18.192711 5.8726974 15
-12.123938 -33.361107 6.8911824 13
-12.114246 -33.334839 8.1795216 14
-12.39969 -32.650188 8.0545626 14
-11.877069 -6.2109995 0.23355807 8
-11.809608 -5.8543162 0.22972351 8
-11.697568 -5.3855124 0.22448638 8
-11.646532 -5.0610757 0.22140357 8
-11.841168 18.143064 0.37441802 8
-11.868634 -34.179585 0.6243155 8
-11.866702 -6.2055173 0.70131236 9
-11.760564 -5.7257376 0.68508285 9
-11.631101 -5.0543523 0.66428924 9
-11.802613 -4.4367695 0.66053963 9
-11.848236 -6.1960225 1.16917 10
-11.751449 -5.7212014 1.1429642 10
-11.689172 -5.381722 1.1253504 10
-11.821756 -4.4439936 1.1045793 10
-11.841426 18.14356 1.1316775 9
-11.731449 -5.6070366 1.5958641 11
-11.668443 -5.3722177 1.576653 11
-11.625069 -5.1509814 1.5606538 11
-11.81109 -4.4400153 1.5488639 11
-11.860662 -34.157032 1.8874403 9
-11.842247 -6.1929355 1.6401614 11
-11.819607 -4.4432468 1.9994214 12
-11.834329 18.132797 1.8905694 10
-11.846725 -6.3035297 2.1245244 12
-11.752722 -5.8262844 2.0768273 12
-11.675792 -5.4782724 2.0420208 12
-11.621222 -5.1493125 2.0125449 12
-11.788752 -6.0568762 2.5752897 13
-11.729536 -5.8148341 2.5438647 13
-11.668279 -5.4746757 2.5045462 13
-11.600823 -5.1403112 2.4656479 13
-11.808371 -4.4390545 2.4515283 13
-11.826653 18.121147 2.6530704 11
-11.856313 -34.144924 3.1544712 10
-11.776896 -6.0508304 3.0556934 14
-11.729809 -5.8150115 3.0215111 14
-11.64467 -5.4637456 2.9687243 14
-11.830873 -4.4475441 2.9172921 14
-11.769456 -6.0470519 3.5442975 15
-11.716022 -5.8082185 3.502738 15
-11.631677 -5.4576359 3.4417381 15
-11.852041 -4.4555311 3.391938 15
-11.827319 18.122272 3.4235649 12
-11.821099 18.112856 4.2002668 13
-11.840166 -34.098827 4.4239378 11
-11.811911 18.098892 4.9855285 14
-11.833434 -34.079857 5.7054353 12
-11.808099 18.093161 5.7850018 15
-11.827519 -34.06324 7.0002398 13
-11.814682 -34.02668 8.3066139 14
-11.546402 -4.6275525 0.21692055 8
-11.421865 18.063215 0.36926165 8
-11.241687 -35.650574 0.64472413 8
-11.56306 -34.911507 0.63444084 8
-11.534173 -4.6226301 0.65093541 9
-11.593757 -4.9388852 1.1020862 10
-11.538951 -4.6245427 1.0872222 10
-11.4161 18.054203 1.1156595 9
-11.59364 -4.93887 1.5467706 11
-11.532589 -4.7181239 1.5294447 11
-11.234632 -35.628643 1.9498158 9
-11.553078 -34.88179 1.9179734 9
-11.567086 -4.9275932 1.9907252 12
-11.54114 -4.7216558 1.9744035 12
-11.409321 18.043592 1.8638716 10
-11.558299 -4.9238853 2.4413452 13
-11.516305 -4.7115293 2.4179502 13
-11.574259 -5.0297875 2.9127541 14
-11.503544 -4.7063422 2.8686838 14
-11.226169 -35.602249 3.2576528 10
-11.546642 -34.862782 3.2049859 10
-11.561048 -5.0241799 3.3767731 15
-11.507168 -4.707859 3.330518 15
-11.401127 18.030848 3.3748548 12
-11.215275 -35.568146 4.5705552 11
-11.534906 -34.827774 4.4963956 11
-11.207408 -35.543652 5.893826 12
-11.526477 -34.802753 5.7979832 12
-11.392403 18.017382 5.7076554 15
-11.517475 -34.776012 7.1118231 13
-11.205606 -35.538406 7.2339082 13
-10.912107 -36.423218 0.6556462 8
-11.000378 17.963856 1.1000988 9
-10.902074 -36.39019 1.9825656 9
-10.991359 17.949339 2.5803444 11
-10.891598 -36.355682 3.3117816 10
-10.981397 17.933292 4.0834312 13
-10.889266 -36.348377 4.6500788 11
-10.979032 17.929539 4.8496032 14
-10.880713 -36.320297 5.9959145 12
-10.979847 17.930971 5.6295366 15
-10.871993 -36.291676 7.3545251 13
-10.5989 17.880835 0.35899431 8
-10.57106 -37.223412 0.6670981 8
-10.593576 17.872057 1.8137298 10
-10.56656 -37.208061 2.0184944 9
-10.590585 17.867117 2.5462618 11
-10.553546 -37.162716 3.3709855 10
-10.582737 17.853989 3.2831831 12
-10.586625 17.860645 4.0316844 13
-10.544169 -37.13018 4.7300735 11
-10.582314 17.853479 4.7872419 14
-10.57337 17.838509 5.5520511 15
-10.541213 -37.120277 6.1021905 12
-10.528036 -37.074356 7.4815545 13
-10.210846 17.805346 0.35441655 8
-10.215715 -38.045437 0.67897737 8
-10.20393 17.793398 1.0710683 9
-10.199085 17.785053 1.789736 10
-10.207744 -38.016258 2.0540175 9
-10.197055 17.781612 2.512816 11
-10.200054 -37.988136 3.4320579 10
-10.194139 17.77663 3.2415526 12
-10.192286 17.773508 3.9783959 13
-10.192721 17.774366 4.7261057 14
-10.192569 -37.96077 4.816577 11
-10.179343 17.751163 5.4785962 15
-10.185006 -37.933125 6.2109623 12
-10.178079 -37.907845 7.6192989 13
-9.6932163 -13.123267 -0.28654653 7
-9.7768974 -11.419527 -0.26376608 7
-9.7983074 -9.9060593 -0.24423882 7
-9.7836857 -8.5635529 -0.22771735 7
-9.7379169 -7.3586469 -0.21359874 7
-9.6726351 -6.2716413 -0.20159875 7
-9.7777977 7.5044007 0.21401332 8
-9.8280792 17.724056 0.34987265 8
-9.7698631 7.4982405 0.64434987 9
-9.7695856 7.498126 1.0764116 10
-9.8259439 17.720308 1.057969 9
-9.7586098 7.4897847 1.5094423 11
-9.7528648 7.485393 1.9462702 12
-9.8155813 17.701729 1.7668704 10
-9.8120632 17.695492 2.4803467 11
-9.811697 17.694927 3.2004826 12
-9.8078461 17.688087 3.9271789 13
-9.8074942 17.687555 4.6649089 14
-9.3602619 -17.446604 -0.34848994 7
-9.5650978 -15.111561 -0.31444377 7
-9.5847492 -5.2780886 -0.1912355 7
-9.4720726 -4.3610191 -0.18215869 7
-9.3529921 -3.5160408 -0.17447847 7
-9.2177668 -2.7274578 -0.16780892 7
-9.270401 7.6612282 0.20871192 8
-9.4566975 17.648365 0.34558317 8
-9.4338598 7.5705328 0.63277686 9
-9.2673006 7.6587129 0.62889171 9
-9.4351873 7.5716438 1.0572945 10
-9.2639637 7.6560049 1.0503035 10
-9.451704 17.639149 1.044817 9
-9.4152679 7.555716 1.4811909 11
-9.2465954 7.6417079 1.4717613 11
-9.3953733 7.5398092 1.9069517 12
-9.2412128 7.6373105 1.897729 12
-9.4421682 17.621466 1.7450333 10
-9.4455481 17.627861 2.4514744 11
-9.4396677 17.616991 3.1613975 12
-9.4409208 17.619431 3.8812721 13
-9.4326534 17.604113 4.606523 14
-9.4270563 17.593781 5.3438406 15
-9.0263376 -20.183107 -0.38959968 7
-9.063385 -1.9865854 -0.16194576 7
-8.9042435 -1.2898731 -0.1570254 7
-9.084137 7.8432946 0.20822586 8
-8.8931828 8.1370077 0.20905247 8
-8.8317738 8.5610561 0.21323432 8
-9.0887365 17.564129 0.34126493 8
-9.0713081 7.8323193 0.62687266 9
-8.8863411 8.1307554 0.62992555 9
-8.8260393 8.5555143 0.64277118 9
-9.0695505 7.8307171 1.0471382 10
-8.8809299 8.1259584 1.0518684 10
-8.8137922 8.5437593 1.0725356 10
-9.0842094 17.555485 1.031934 9
-9.0492611 7.8134975 1.4668367 11
-8.8750505 8.1205235 1.4757926 11
-8.8045282 8.6574783 1.5146911 11
-9.0424051 7.8075089 1.8910515 12
-8.8560562 8.1032877 1.9000107 12
-9.0790291 17.545578 1.7243202 10
-9.076932 17.541624 2.4209781 11
-9.0769081 17.541666 3.1240256 12
-9.08321 17.553942 3.8375585 13
-9.0651321 17.519232 5.2809196 15
-8.5685787 -23.572412 -0.44247505 7
-8.7324009 -0.62925541 -0.15280695 7
-8.5337477 2.2180184e-05 -0.1489682 7
-8.7347679 17.49218 0.33731893 8
-8.7338104 17.490355 1.0205367 9
-8.7808704 8.3892736 1.4897591 11
-8.7850914 8.3933544 1.9230361 12
-8.7945433 8.6477222 1.952077 12
-8.7220707 17.467054 2.3930311 11
-8.7178087 17.458622 3.086484 12
-8.7179108 17.458925 3.7888718 13
-8.7211962 17.465591 4.5025139 14
-8.7159891 17.455275 5.2231851 15
-8.3226099 0.59979439 -0.14569785 7
-8.1044092 1.1742784 -0.14304101 7
-8.3879204 17.420265 0.33349985 8
-8.0456085 17.343506 0.99789286 9
-8.2148533 17.377954 1.677587 10
-8.0429029 17.337864 2.342473 11
-8.0401421 17.332006 3.0217516 12
-8.0283337 17.306673 3.7039511 13
-8.2044754 17.356516 4.427753 14
-8.1983519 17.343662 5.135704 15
-7.8957858 -27.797888 -0.51038152 7
-7.8867531 1.729279 -0.14109863 7
-7.6615958 2.26805 -0.13971008 7
-7.71312 17.273552 0.98730618 9
-7.7059445 17.257586 1.6493315 10
-7.7029719 17.25103 2.3154407 11
-7.7033367 17.251932 2.9880652 12
-7.6999345 17.244415 3.6664381 13
-7.6936221 17.230383 4.3518481 14
-7.4142075 2.7888286 -0.13859349 7
-7.3861828 17.201979 0.97696692 9
-7.3831606 17.195034 1.632953 10
-7.3844638 17.198154 2.2937617 11
-7.381691 17.191792 2.9588561 12
-7.3764591 17.179712 3.6296427 13
-7.3741169 17.174353 4.3103499 14
-7.3699613 17.164772 5.0004692 15
-6.9107032 -33.262318 -0.60069877 7
-7.1600928 3.2989035 -0.13802892 7
-6.8904142 3.7975667 -0.13785736 7
-7.0647836 17.129133 0.96688443 9
-7.066112 17.132437 1.6171079 10
-7.0634322 17.126032 2.2702682 11
-7.0635595 17.126427 2.9297209 12
-7.0583715 17.113949 3.5938234 13
-7.0579133 17.112925 4.2689013 14
-7.0511141 17.096552 4.9504166 15
-6.6045051 4.2864766 -0.1380769 7
-6.6002259 17.035101 0.95324576 9
-6.4442701 16.99633 1.5859443 10
-6.7507272 17.060066 1.6008657 10
-6.5916972 17.013226 2.2358994 11
-6.5938787 17.019081 2.8863189 12
-6.5938244 17.018795 3.543133 13
-6.4403372 16.986298 4.1891346 14
-6.5918417 17.01387 4.8841791 15
-6.3146205 4.7771058 -0.13897823 7
-6.1511478 16.955055 0.94097751 9
-6.1473093 16.944569 1.5726233 10
-6.1435881 16.934401 2.2073901 11
-6.1315246 16.901352 3.4900336 13
-6.1361766 16.914242 4.1490593 14
-6.1344671 16.909618 4.8147626 15
-5.9881105 5.2480221 -0.13988456 7
-5.6667633 5.7373505 -0.14180501 7
-5.8479052 16.87252 0.9315626 9
-5.8418303 16.855247 2.8207316 12
-5.8424487 16.857105 3.463089 13
-5.8387737 16.846598 4.1113329 14
-5.3113317 6.21382 -0.14388394 7
-5.2641282 16.728951 0.91475844 9
-5.5625315 16.827732 0.92450839 9
-5.2688804 16.744093 1.5312524 10
-5.558423 16.815393 1.5450002 10
-5.4102659 16.769501 2.1590018 11
-5.2675867 16.740131 2.7747746 12
-5.555975 16.808146 2.7990961 12
-5.4074154 16.760946 3.4185421 13
-5.4048691 16.753056 4.0590844 14
-5.4040842 16.75071 4.7110038 15
-4.9196739 6.6728792 -0.14606535 7
-4.9876175 16.684898 1.5190477 10
-4.9847236 16.675297 2.1323323 11
-4.9877291 16.6854 2.7534385 12
-4.9855218 16.678167 4.0136466 14
-4.9832239 16.670559 4.6568079 15
-4.4208655 -2.8666625 -0.27610663 6
-4.4878597 -2.4716821 -0.26845202 6
-4.5668454 -2.1029944 -0.26341841 6
-4.5910811 -1.7263074 -0.25697008 6
-4.6051888 -1.3630099 -0.25161305 6
-4.6204801 -1.0130731 -0.24782838 6
-4.6209092 -0.66962367 -0.24464723 6
-4.5714526 -0.32954907 -0.24017391 6
-4.4928021 0.16096698 -0.23578677 6
-4.5744805 16.598505 1.5017885 10
-4.5742364 16.597626 2.109241 11
-4.5721426 16.589968 2.7207396 12
-4.5716338 16.588192 3.3396544 13
-4.7054257 16.608202 3.9800065 14
-4.5696549 16.58119 4.6032186 15
-4.0039816 -4.0474205 -0.29851291 6
-4.1583767 -3.6395619 -0.28968424 6
-4.3047438 -3.253005 -0.28278849 6
-4.3847017 0.63564479 -0.23228364 6
-4.3111892 0.94581461 -0.23145148 6
-4.1333156 1.3875889 -0.22886574 6
-4.1718502 16.523085 1.4863204 10
-4.1691751 16.512564 2.0863285 11
-4.1645384 16.494343 3.3016508 13
-4.1644468 16.494036 3.9221079 14
-3.8184958 -4.4589348 -0.30788633 6
-3.9344952 1.8140607 -0.22736561 6
-3.7123382 2.2255085 -0.22738345 6
-3.9252923 6.2161531 -0.1296612 7
-3.6426144 16.401299 1.4651935 10
-3.9051783 16.46109 2.072437 11
-3.6416042 16.396839 2.6552284 12
-3.9021759 16.448505 2.6724911 12
-3.6409228 16.393818 3.2590296 13
-3.9003561 16.440901 3.2792933 13
-3.6399662 16.389561 3.8705628 14
-3.9017525 16.446821 3.8970344 14
-3.6373847 16.378006 4.4897161 15
-3.8976572 16.429647 4.5188799 15
-3.3508925 -5.2911162 -0.32866868 6
-3.5980363 -4.8694062 -0.31762806 6
-3.4549603 2.6161654 -0.22761418 6
-3.2859685 2.8827538 -0.22964886 6
-3.3164182 6.1992526 -0.12411712 7
-3.3817985 16.333637 1.454586 10
-3.3836811 16.342739 2.0442836 11
-3.3840797 16.344694 2.6385474 12
-3.382129 16.335325 3.2373059 13
-3.3780484 16.315701 3.8411491 14
-3.3822274 16.335871 4.4642634 15
-3.064868 -5.7083435 -0.34012899 6
-2.890764 -1.7315601 -0.29476032 5
-2.994 -1.3789667 -0.28817299 5
-3.0592198 -1.0275896 -0.28234965 5
-3.0959201 -0.56384546 -0.27538669 5
-3.0889885 -0.2227695 -0.27091134 5
-3.0639765 0.11024462 -0.26843807 5
-2.9742968 0.54127681 -0.26478729 5
-2.8785024 0.85316074 -0.2628628 5
-3.0883763 3.1303382 -0.23108508 6
-2.8721883 3.3644078 -0.23252654 6
-3.0035923 16.265068 1.4423196 10
-3.0057805 16.277323 2.0274689 11
-3.0029705 16.261877 2.6140699 12
-2.8747659 16.222261 3.1970079 13
-3.1265638 16.276882 3.2163911 13
-3.0007455 16.249884 3.8094988 14
-3.00051 16.248358 4.421608 15
-2.7433732 -6.1279249 -0.35258865 6
-2.5090535 -2.5358999 -0.31187445 5
-2.7018642 -2.2002854 -0.30479974 5
-2.7996054 1.0544586 -0.26197669 5
-2.65658 1.3440782 -0.2609579 5
-2.5081356 1.6305939 -0.2621083 5
-2.6459358 3.5938597 -0.23464516 6
-2.4040921 3.8121531 -0.23701981 6
-2.7725594 6.22121 -0.12035328 7
-2.5528805 7.8295193 0.14170989 8
-2.5564721 10.452882 0.56101525 9
-2.6277835 16.17964 1.4292444 10
-2.6272588 16.176422 2.007206 11
-2.6272087 16.176115 2.5903728 12
-2.6267083 16.173044 3.1794491 13
-2.6254013 16.165026 3.7751915 14
-2.6252232 16.163935 4.3819132 15
-2.4546154 52.944981 6.4918208 11
-2.4533017 52.915443 8.3736372 12
-2.4531994 52.911949 10.279333 13
-2.4523857 52.893127 12.207254 14
-2.4516525 52.876026 14.165607 15
-2.3804262 -6.539187 -0.36559376 6
-2.0300748 -3.2037981 -0.3317022 5
-2.2120824 -2.9925992 -0.32541114 5
-2.375802 -2.7735813 -0.31930494 5
-2.0674665 -1.4496599 -0.3097989 4
-2.2205083 -1.0243826 -0.30044201 4
-2.3102889 -0.59508288 -0.2929135 4
-2.333379 -0.25328675 -0.28828648 4
-2.2974811 0.20682989 -0.28381681 4
-2.202558 0.60955667 -0.28131279 4
-2.0639062 0.95297092 -0.27943298 4
-2.3221929 1.8958898 -0.26288155 5
-2.1066682 2.1377316 -0.26306459 5
-2.1531386 4.0302076 -0.24035586 6
-2.2416916 6.193922 -0.11649907 7
-2.1444798 7.795804 0.13904406 8
-2.2262216 10.389456 0.55385768 9
-2.3824766 16.132359 1.4218313 10
-2.2602627 16.102491 1.9914737 11
-2.2595389 16.097946 2.5694087 12
-2.2621229 16.116436 3.1579556 13
-2.2574346 16.082764 3.7437034 14
-2.2572832 16.081697 4.3453803 15
-1.9783324 -6.9505019 -0.37980056 6
-1.6238288 -3.6234667 -0.34738588 5
-1.830996 -3.4076915 -0.33837277 5
-1.714823 -2.0014267 -0.32309607 4
-1.8823837 -1.7712312 -0.3170712 4
-1.6983063 -0.97657001 -0.3102966 3
-1.8383259 -0.47374198 -0.30060503 3
-1.8628298 -0.27023941 -0.29798475 3
-1.8167266 0.33113039 -0.2928375 3
-1.7326834 0.61769551 -0.29215214 3
-1.9911155 1.0999531 -0.27964613 4
-1.7983402 1.4171804 -0.282033 4
-1.6028581 1.628328 -0.28096622 4
-1.9609685 2.2999198 -0.26493838 5
-1.7210144 2.5271442 -0.26821494 5
-1.8735518 4.210084 -0.24244897 6
-1.7520638 6.2029629 -0.11409166 7
-1.7457225 7.7475014 0.13647445 8
-1.825456 10.314413 0.54594898 9
-1.8069626 15.264379 1.3400466 10
-1.7713957 17.052557 2.0995553 11
-1.7651063 16.99222 2.7000625 12
-1.760468 16.947695 3.3060622 13
-1.7551211 16.896379 3.9156117 14
-1.751255 16.859255 4.5352421 15
-1.6871798 52.791782 6.4692502 11
-1.6865954 52.771477 8.3460045 12
-1.6859417 52.748985 10.241744 13
-1.6858932 52.745304 12.166118 14
-1.6849964 52.715183 14.114387 15
-1.5344563 -7.3623457 -0.3954092 6
-1.3872348 -3.8053744 -0.35443032 5
-1.3128171 -2.4415054 -0.33988485 4
-1.5193379 -2.2178154 -0.32978627 4
-1.249409 -1.6889831 -0.33194292 3
-1.4763999 -1.3915005 -0.32164633 3
-1.2962129 -1.0176853 -0.32005686 2
-1.3032933 -0.65867591 -0.31684905 1.3333334
-1.4289933 -0.31376642 -0.30858231 1.5
-1.3985718 0.30761233 -0.30268759 1.5
-1.3636167 0.69104975 -0.29773122 2
-1.4591107 0.96702236 -0.29181293 2.75
-1.2825164 1.3045425 -0.29063264 3
-1.3952242 1.8308762 -0.28355896 4
-1.4574325 2.7330053 -0.27154806 5
-1.264578 2.8477857 -0.27318233 5
-1.4455541 4.5059075 -0.24919935 6
-1.2743071 6.1807075 -0.11178766 7
-1.3346909 7.7163019 0.13447659 8
-1.3211204 10.234313 0.53770214 9
-1.3548046 15.171458 1.3278046 10
-1.5793055 15.212461 1.3332993 10
-1.5961031 17.856283 2.1954327 11
-1.5906782 17.795786 2.8237984 12
-1.5859741 17.743303 3.4564388 13
-1.5803066 17.680103 4.0915256 14
-1.5770043 17.643217 4.7395282 15
-0.8669396 -4.1465955 -0.37087891 5
-1.1356713 -3.981777 -0.36241043 5
-1.0140641 -2.6355464 -0.34692174 4
-1.0108832 -1.8823889 -0.33817154 3
-1.0431734 -1.3447456 -0.33167422 2
-0.96438164 -0.97521991 -0.32806543 0.75
-1.0554463 -0.68479437 -0.32357684 0.25
-1.1520617 -0.25308612 -0.31568205 0
-1.1299222 0.24874666 -0.31030235 0
-1.0500091 0.62908238 -0.30553731 0.5
-0.93357778 0.95191038 -0.3039116 1
-0.95342225 1.4052812 -0.29714921 2.5
-0.87525678 1.6474898 -0.29572299 3
-0.94939959 2.1447027 -0.28883189 4
-0.96671307 3.0196285 -0.27814785 5
-0.98063624 4.7659388 -0.25613025 6
-0.81262279 6.1495147 -0.10995382 7
-0.96179682 7.6832685 0.13289818 8
-0.94352233 10.180317 0.53264481 9
-1.0207127 15.097462 1.319048 10
-1.0030378 52.265949 6.4670858 11
-0.92434382 52.609535 6.4444847 11
-1.0023488 52.243347 8.3256559 12
-0.92415023 52.59433 8.3148794 12
-1.0014982 52.212261 10.201774 13
-0.92462295 52.616661 10.212262 13
-1.0012958 52.216034 12.109547 14
-0.92383045 52.56757 12.120639 14
-1.0008618 52.207653 14.04545 15
-0.92405653 52.575851 14.071898 15
-0.60050255 -2.86304 -0.35888132 4
-0.57034272 -2.1424329 -0.35100895 3
-0.55240047 -1.6949835 -0.34562281 2
-0.55727255 -1.3885006 -0.34182903 1
-0.6613493 -1.0703635 -0.33646601 0
-0.61734504 1.0405169 -0.30970618 0.33333334
-0.58413333 1.3905165 -0.30616134 1.75
-0.5747472 1.808751 -0.30163956 3
-0.56334394 2.332788 -0.29509768 4
-0.65029401 3.1745136 -0.2840721 5
-0.42472625 3.2451146 -0.2868869 5
-0.648803 4.9229069 -0.26140845 6
-0.51301706 7.6482716 0.13147096 8
-0.53577095 10.130248 0.52838093 9
-0.6903463 15.024201 1.3109257 10
-0.37238958 -1.7641107 -0.34938321 2
-0.31317535 -1.366371 -0.34613994 0.5
-0.19047244 1.1695243 -0.31773606 0
-0.17495765 1.4081053 -0.31482992 1.25
-0.14935268 1.8312165 -0.3101685 2.6666667
-0.22873619 2.4494228 -0.30238357 4
-0.14119047 3.3333859 -0.29145163 5
-0.21077946 5.0801034 -0.26527521 6
-0.25227222 6.1073189 -0.10495126 7
-0.11286068 7.5856671 0.1396571 8
-0.15391624 7.6195297 0.13063323 8
-0.13638878 10.063843 0.52861953 9
-0.17271209 14.887178 1.3075689 10
-0.16719618 52.444267 6.4231462 11
-0.16722956 52.429146 8.2873869 12
-0.16725174 52.410313 10.170543 13
-0.1673784 52.422413 12.085209 14
-0.16740222 52.403366 14.023468 15
0.3374247 -4.5701036 -0.40163118 5
0.22598444 -3.1010976 -0.38182029 4
0.26174504 -2.3408084 -0.37298927 3
0.20780523 -1.8761132 -0.3664712 2
0.21522361 -1.4325333 -0.35923257 0.5
0.11228763 1.1795356 -0.32365581 0
0.20227747 1.3731328 -0.32453194 1
0.12017958 1.7941706 -0.31677911 2.5
0.156471 2.4986262 -0.30816704 4
0.15671775 3.3918798 -0.29573682 5
0.24603726 5.069572 -0.26251906 6
0.30070001 6.0957713 -0.10144971 7
0.21470921 7.5591879 0.13912594 8
0.14794022 10.010129 0.53465241 9
0.23083636 14.81351 1.3110564 10
0.71301085 -4.6352234 -0.41114345 5
0.41136259 -6.1272664 -0.32321715 6
0.47518864 -5.8311534 -0.20558006 6.5
0.5664978 -5.3776946 -0.15776294 6.6666665
0.72899032 -4.9709129 -0.17678331 6.5
0.5892424 -3.1029506 -0.38825715 4
0.61058944 -2.3151641 -0.37934253 3
0.58274728 -1.8168437 -0.37117305 2
0.58854407 -1.3985614 -0.36754823 0.66666669
0.70208192 -1.1718498 -0.36612913 0
0.53858805 1.0941293 -0.33452931 0
0.52112055 1.4427077 -0.3292717 1.5
0.55947638 1.9522634 -0.32435519 3
0.57832527 2.516109 -0.31788039 4
0.539298 3.4446011 -0.30415681 5
0.61403978 5.0585976 -0.26378176 6
0.73991084 6.0592837 -0.10167338 7
0.58427835 -5.2974524 0.18446115 8.5
0.71097279 -5.0170312 0.14549755 8.333333
0.62416297 7.5449781 0.13913186 8
0.59019202 -5.3501186 0.56389296 10.5
0.71619064 -5.0391455 0.58666217 10.8
0.54435027 9.9910498 0.53428334 9
0.59215629 -5.3675718 0.95000178 12.5
0.6924668 -5.0815744 1.0318978 13.2
0.59669924 -5.4080138 1.3539137 14.5
0.7074874 -5.0844178 1.3724262 15
0.65774685 14.805644 1.3113846 10
1.0604831 -4.6464868 -0.41793957 5
1.1684145 -3.0428782 -0.40072504 4
0.99107766 -5.0282359 -0.19806436 6.4000001
0.93481445 -3.0774114 -0.39528894 4
1.034629 -2.213486 -0.38787913 3
0.97956824 -1.689204 -0.38039279 2
1.0607466 -1.3658262 -0.37624979 1.3333334
1.0186061 -1.0072463 -0.37075442 0.25
1.1678293 -0.74071521 -0.37239814 0
1.0737157 0.70475918 -0.35093686 0
0.9792037 1.0277979 -0.34583953 0.75
0.99364299 1.4140581 -0.34096807 2
0.96418595 1.8537726 -0.33413282 3
0.96387082 2.4749479 -0.32736686 4
0.93475699 3.4593334 -0.31268269 5
0.98493254 5.0366578 -0.26588845 6
1.1860477 6.0441132 -0.10281674 7
0.97338349 -5.0271316 0.1772363 8.5
0.98203546 7.5419655 0.13963887 8
0.99272656 -5.0358443 0.55559301 10.6
0.97970474 9.994853 0.53611302 9
1.0205461 -5.0446367 0.99888557 13
1.0222381 -5.0522671 1.3783162 15
1.1937208 14.81179 1.314694 10
1.4208291 -4.656168 -0.42701462 5
1.3987712 -2.9839633 -0.40528068 4
1.4225335 -5.1103282 -0.18685687 6.5
1.3536533 -2.0649483 -0.39159948 3
1.5089195 -1.9767272 -0.39457527 3
1.3773694 -1.4035676 -0.3838014 2
1.3935965 -1.0502435 -0.38062102 1.3333334
1.3782839 -0.59745777 -0.37596795 0.5
1.4645889 -0.2488526 -0.3724049 0.5
1.4368892 0.21738942 -0.36582044 0.5
1.3504652 0.59878153 -0.35917649 0.75
1.4215713 1.0093977 -0.35520834 1.8
1.3827041 1.4244714 -0.34980726 2.5
1.3215139 1.6971922 -0.34381661 3
1.4411005 2.3345196 -0.33828399 4
1.2522295 2.4033985 -0.3340306 4
1.3490303 3.446002 -0.32339293 5
1.3614624 5.0077624 -0.2690987 6
1.4249871 -5.119051 0.18391496 8.5
1.4284685 7.5399427 0.14069939 8
1.4242164 -5.117125 0.55639648 10.5
1.3466711 10.006526 0.53886116 9
1.4270532 -5.1267447 0.93622637 12.5
1.4279541 -5.1304092 1.3255913 14.5
1.407033 14.793482 1.3146662 10
1.7792778 -4.6152973 -0.43399131 5
1.7390703 -2.8617854 -0.41227999 4
1.9212266 -1.6296687 -0.40023527 3
1.9517963 -5.2242703 -0.19663808 6.5
1.7474308 -5.1821733 -0.22467554 6.3333335
1.7232492 -1.8144076 -0.39754164 3
1.7531067 -0.93433249 -0.38864043 2
1.8861585 -0.56703991 -0.38596132 2
1.8305882 -0.15248989 -0.38006592 1.6666666
1.8945594 0.24230452 -0.37547791 2
1.7609837 0.63264465 -0.36831725 2
1.9956952 1.1142524 -0.36515602 3
1.7493608 1.3927239 -0.35790583 3
1.7269125 2.2148309 -0.34668288 4
1.7621213 3.3719225 -0.3325265 5
1.7417649 4.9586596 -0.27276742 6
1.6399672 6.0182195 -0.1043689 7
1.9293087 -5.2206254 0.19253041 8.5
1.7017562 -5.1701398 0.18830501 8.5
1.7955065 7.5272632 0.14169669 8
1.9510622 -5.222537 0.58376199 10.5
1.7470343 -5.1811023 0.54022872 10.333333
1.8295987 10.016305 0.54321754 9
1.931372 -5.226562 0.98032826 12.5
1.7039391 -5.1768045 0.95877904 12.5
1.9300987 -5.2233219 1.3859951 14.5
1.7042525 -5.1777005 1.3902761 14.666667
1.7344409 14.826571 1.3205504 10
2.1426194 -4.5540295 -0.44168946 5
2.1562042 -2.6142914 -0.41745442 4
2.30515 -1.018528 -0.4017289 3
2.2123923 -5.274169 -0.16766113 6.6666665
2.0787106 -1.4092793 -0.39949164 3
2.3755946 0.35127342 -0.38324055 3
2.3029134 0.6009469 -0.38021094 3
2.1559978 0.91196436 -0.37411404 3
2.2630296 1.8704222 -0.3626447 4
2.0136404 2.0722947 -0.35655969 4
2.1893444 3.2651348 -0.34406501 5
2.1444032 4.931767 -0.27934492 6
2.1026666 5.9761543 -0.10626633 7
2.2617168 -5.2849836 0.19897395 8.5
2.2310054 7.520957 0.14343107 8
2.260308 -5.2817011 0.60183191 10.5
2.209456 10.034629 0.54798549 9
2.2618115 -5.2853251 1.0115969 12.5
2.265089 -5.2930536 1.4332757 14.5
2.1751895 14.867155 1.3290331 10
2.4962282 -4.4463058 -0.44760147 5
2.6182165 -2.2128227 -0.42304713 4
2.5338066 -5.3297915 -0.2075901 6.5
2.4217491 -0.58217984 -0.3970198 3
2.4600282 -0.22636531 -0.39407045 3
2.4317446 0.18155976 -0.38902265 3
2.6647885 1.4893974 -0.37692145 4
2.5146289 1.655144 -0.37166682 4
2.6107771 3.1060491 -0.35513183 5
2.5424545 4.8540912 -0.2848841 6
2.590065 5.9494562 -0.109125 7
2.5609839 -5.3373656 0.20473789 8.5
2.6211028 7.5225029 0.14542818 8
2.5637615 -5.3432593 0.62075162 10.5
2.5587006 10.053255 0.55311316 9
2.5659328 -5.3478932 1.0436848 12.5
2.5138845 -5.3381214 1.4686326 14.5
2.6234791 14.914829 1.3393215 10
3.0233896 -4.240005 -0.45755658 5
2.9863915 -1.7173945 -0.42495349 4
3.1475577 -1.3835853 -0.42399237 4
3.1441729 0.70401919 -0.39782229 4
2.9943318 1.0206382 -0.39086527 4
2.8087296 1.3128829 -0.38281906 4
3.0325494 2.8988714 -0.36764497 5
2.9754081 4.8009052 -0.29389352 6
3.1042881 5.9211011 -0.11273631 7
3.0285285 7.5333738 0.14800309 8
2.9947445 10.077107 0.56027782 9
2.9683127 14.972087 1.3497233 10
3.5058701 -3.9408081 -0.4632673 5
3.267211 -1.0330483 -0.42296484 4
3.3316352 -0.54544848 -0.41686711 4
3.3487277 -0.18104513 -0.41392213 4
3.2768812 0.24897298 -0.40570664 4
3.2232628 0.48068753 -0.40235141 4
3.4399884 2.6405916 -0.38000286 5
3.4218338 4.7215195 -0.30366641 6
3.3496518 7.5352254 0.15011895 8
3.2395055 10.095853 0.56494194 9
3.4352357 15.040474 1.3640401 10
3.8303857 -3.7281125 -0.46953404 5
3.9428606 2.2059798 -0.39616758 5
3.6955793 2.4337728 -0.38788405 5
3.8903546 4.6242661 -0.31496435 6
3.6386089 5.8668432 -0.1167362 7
3.7988787 15.117102 1.3779895 10
4.1096911 -3.4615698 -0.47205904 5
4.3556271 -3.1632998 -0.47296757 5
4.1980786 1.965438 -0.40657261 5
4.2147937 5.812593 -0.12175139 7
4.1704583 15.199221 1.3931431 10
4.580771 -2.8479624 -0.47394705 5
4.7835145 -2.5167036 -0.4749521 5
4.7839575 1.0765661 -0.43043289 5
4.5934138 1.3881749 -0.42112207 5
4.4087439 1.6880106 -0.41418767 5
4.4098415 4.5325847 -0.32985777 6
4.9476576 -2.1645358 -0.47453895 5
5.0584216 -1.7920196 -0.4715485 5
5.1463103 -1.4160447 -0.46898824 5
5.1944914 -1.0342709 -0.46534216 5
5.1864924 -0.27268487 -0.4562079 5
5.0416703 0.38974538 -0.44405571 5
4.9077482 0.73785627 -0.43573952 5
4.9528041 4.4048152 -0.34600097 6
4.8426046 5.753973 -0.12789315 7
5.3495946 -9.4958172 -0.57485217 6
5.2039251 -0.65150279 -0.46073684 5
5.5299344 5.6824822 -0.13522862 7
6.197206 -9.357976 -0.59206665 6
6.3158212 4.8486843 -0.41581205 6
7.0267587 -9.1136093 -0.60709703 6
6.925602 4.563406 -0.43347391 6
7.520205 4.2117062 -0.4508394 6
7.8492551 -8.7936926 -0.62185061 6
8.1187172 3.8068964 -0.46938917 6
8.6229305 -8.3645382 -0.63376224 6
8.7070265 3.3413315 -0.48856166 6
9.3376579 -7.8377519 -0.64308828 6
9.2547512 2.8061297 -0.50699252 6
9.9773254 -7.2195935 -0.64956164 6
9.8009634 2.2163906 -0.52716178 6
10.292742 1.5599798 -0.54651564 6
10.133071 -8.628994 -0.23677389 7
10.217686 -8.2064877 -0.23309073 7
10.279394 -7.8973022 -0.23050813 7
10.361202 -7.4967504 -0.22735521 7
10.166224 -8.5316582 0.22734778 8
10.216429 -8.2055721 0.22452851 8
10.305389 -7.8007488 0.22154199 8
10.366241 -7.5005631 0.21937506 8
10.175111 -8.5392742 0.69194686 9
10.24303 -8.2271605 0.68445122 9
10.322243 -7.8136749 0.67455542 9
10.377066 -7.5085535 0.66745299 9
10.177697 -8.5416145 1.1583412 10
10.256733 -8.2383318 1.1470019 10
10.321135 -7.8130145 1.1287429 10
10.386735 -7.5157104 1.117981 10
10.336773 -7.8249674 1.5881803 11
10.193596 -8.5551033 1.6299528 11
10.257383 -8.2389622 1.6115601 11
10.199404 -8.5601444 2.1049972 12
10.268561 -8.248044 2.0823052 12
10.346923 -7.8329029 2.0518694 12
10.199306 -8.6862383 2.6001704 13
10.249709 -8.3545351 2.5665381 13
10.360514 -7.843308 2.5224311 13
10.226445 -8.583147 3.0784504 14
10.284197 -8.2610168 3.041831 14
10.363319 -7.8456092 2.9975073 14
10.23316 -8.5889568 3.5759325 15
10.305596 -8.2784185 3.5384214 15
10.37633 -7.8556271 3.4839733 15
10.51881 -6.5142756 -0.65245515 6
10.718177 0.84254318 -0.56478095 6
10.406857 -7.3042684 -0.22599787 7
10.454046 -7.0063615 -0.22364882 7
10.408285 -7.3054452 0.21806332 8
10.443677 -7.1085038 0.2166864 8
10.414425 -7.3099227 0.66308451 9
10.454076 -7.1157417 0.65908474 9
10.429689 -7.320787 1.1112298 10
10.465327 -7.1235595 1.1040716 10
10.421576 -7.4279604 1.567902 11
10.481447 -7.1346827 1.5534558 11
10.432796 -7.436162 2.0258362 12
10.486277 -7.1381435 2.0059164 12
10.730834 21.137915 2.0914967 10
10.435828 -7.4384003 2.4878638 13
10.49811 -7.1463618 2.4654598 13
10.443748 -7.4443569 2.9578762 14
10.505087 -7.1512866 2.9309337 14
10.768055 21.210266 2.9393079 11
10.459577 -7.4556828 3.4387708 15
10.516044 -7.158916 3.4058518 15
10.97267 -5.748558 -0.65307283 6
10.886031 -6.9595342 -0.22955845 7
10.906599 -6.9728303 0.2221173 8
10.90087 -6.9693666 0.67442119 9
10.907089 -6.9735198 1.1291404 10
10.920903 -6.9825163 1.5882633 11
10.934353 -6.9912815 2.0524175 12
10.999599 20.554649 2.0566142 10
10.939188 -6.9945607 2.5208697 13
10.946246 -6.9992566 2.9967327 14
11.169967 20.516491 2.8861997 11
10.966138 -7.0121388 3.4849892 15
11.167439 20.511011 3.7179589 12
10.807567 21.287106 3.8009675 12
11.167517 20.510288 4.5596409 13
10.837173 21.344454 4.6740532 13
11.157931 20.491837 5.4081483 14
10.878955 21.425726 5.5698662 14
11.160799 20.496214 6.2760077 15
10.910413 21.48667 6.4805937 15
11.327255 -4.9322414 -0.65115011 6
11.555832 -4.0716219 -0.64553082 6
11.53112 -1.4255074 -0.61134481 6
11.319407 -0.57850212 -0.59604239 6
11.419147 -7.070353 -0.23858781 7
11.422294 -7.0724945 0.23055631 8
11.419311 -7.0708494 0.70015264 9
11.425268 -7.0747242 1.1721386 10
11.449926 -7.090148 1.650196 11
11.457628 -7.0951071 2.1312504 12
11.527366 20.466358 2.0718086 10
11.45936 -7.0963798 2.6169262 13
11.47679 -7.1073489 3.1136334 14
11.514521 20.442741 2.8986268 11
11.477735 -7.1081419 3.6146691 15
11.514598 20.442034 3.7348983 12
11.507273 20.42819 4.5775275 13
11.51462 20.440361 5.4375224 14
11.509655 20.430676 6.3057985 15
11.665774 -3.1890109 -0.63693285 6
11.644671 -2.2990422 -0.6248377 6
11.954816 -7.1655469 -0.24755424 7
11.968574 -7.1739793 0.23951027 8
11.987396 -7.1854372 0.72859305 9
11.978958 -7.1806006 1.2182319 10
11.878888 20.397818 2.0817454 10
11.867186 20.376917 2.9129941 11
11.866808 20.375429 3.75333 12
11.876714 20.391575 4.6069241 13
11.867107 20.374241 5.4645858 14
11.854877 20.352388 6.333427 15
12.006419 -7.1972256 1.7153022 11
12.020357 -7.2057686 2.216403 12
12.234803 20.330011 2.0923591 10
12.022058 -7.2069993 2.7214487 13
12.231494 20.323692 2.9300258 11
12.028419 -7.2110186 3.2347846 14
12.051355 -7.2249503 3.7621512 15
12.225479 20.312876 3.7736065 12
12.213787 20.292622 4.6235919 13
12.223044 20.307138 5.4929814 14
12.203861 20.274433 6.3629489 15
12.587068 20.248692 2.9448025 11
12.587539 20.248623 3.7947083 12
12.583346 20.241045 4.6523924 13
12.574125 20.225384 5.5190244 14
12.569532 20.217138 6.4008484 15
14.259315 -0.72532892 -0.25107726 7
14.350168 -1.041448 0.24966498 8
14.273271 -0.52050096 0.24811389 8
14.335813 -0.3162246 0.24920738 8
14.302244 -0.93454021 0.75026715 9
14.287045 -0.52126956 0.74861723 9
14.342391 -0.3166461 0.75132 9
14.328861 -0.93653101 1.2559423 10
14.304035 -0.62522596 1.2525251 10
14.361223 -0.31732768 1.2568017 10
14.426461 -0.11046007 0.25084174 8
14.405968 -1.1496021 0.75636888 9
14.436148 -0.11081153 0.75618792 9
14.404714 -1.1497809 1.2637695 10
15.099003 49.26992 6.3684587 11
15.123898 49.348709 8.2173967 12
15.418073 13.708311 -0.35263056 7
15.592655 6.2483792 0.29609227 8
15.46842 12.599701 0.35578716 8
15.271013 12.809057 0.35565752 8
15.35837 13.263695 0.36229667 8
15.439643 13.726904 0.36903572 8
15.531906 14.21453 0.37629408 8
15.596666 6.2495861 0.88426429 9
15.442334 12.577898 1.0522587 9
15.292996 12.826937 1.0547647 9
15.369264 13.272527 1.073278 9
15.463796 13.747787 1.0937731 9
15.557693 14.237519 1.1149846 9
