# .PCD v0.7 - Point Cloud Data file format
VERSION 0.7
FIELDS x y z intensity
SIZE 4 4 4 4
TYPE F F F F
COUNT 1 1 1 1
WIDTH 224
HEIGHT 1
VIEWPOINT 0 0 0 1 0 0 0
POINTS 224
DATA ascii
-32.673889 -6.1183367 1.7422365 9
-32.629864 -6.1088533 4.0762057 11
-32.604012 -6.1033864 5.2538462 12
-32.44809 -4.6514277 2.8673859 10
-32.414562 -5.1165032 7.5759048 14
-32.288811 -3.2294626 0.56565768 8
-32.374161 -4.6394134 6.3567643 13
-32.324417 -4.6313095 8.7493515 15
-32.06562 -1.8284025 1.6825583 9
-32.023209 -1.8258042 2.8055658 10
-32.145702 -2.7525945 3.9607098 11
-32.019058 -2.2824047 7.4102435 14
-31.930929 -1.3645073 5.0614305 12
-31.909851 -1.3634683 6.2077603 13
-31.802685 -0.90545762 8.5245352 15
-31.758554 0.45237422 0.55460495 8
-31.678888 0.90248424 1.6613661 9
-31.656744 0.90176773 2.7711947 10
-31.757616 8.5341868e-05 3.8992963 11
-31.640141 0.45043135 7.3056202 14
-30.324335 10.786172 0.57721883 8
-30.277498 10.76852 1.6994356 9
-30.26939 10.764639 2.8259192 10
-30.158491 11.209188 5.1121402 12
-30.012936 12.136949 6.3114681 13
-30.17676 10.727632 7.409246 14
-30.030495 11.647329 8.6483088 15
-29.916283 13.617366 0.59630799 8
-29.806742 14.080518 2.9077086 10
-29.916302 13.102913 4.0311046 11
-29.620094 15.573624 1.7817953 9
-29.606697 15.027049 6.4802642 13
-29.518059 16.610683 0.62247419 8
-29.43026 16.555204 5.3790874 12
-29.580919 15.012535 7.6850605 14
-29.42177 15.998978 9.0036116 15
-29.20364 18.696245 1.8550318 9
-29.38413 17.087393 3.0063584 10
-29.252886 18.142729 4.2623658 11
-29.072067 19.802481 0.65565127 8
-28.801006 20.832623 6.9547505 13
-28.931393 19.695807 8.1219473 14
-28.992382 19.137474 9.3485174 15
-28.65094 22.655991 1.9658227 9
-28.719084 22.050957 3.2170725 10
-28.773382 21.446808 4.4535031 11
-28.754124 21.430485 5.7271724 12
-20.433502 2.6339471 0.36186165 8
-20.428143 2.6330059 1.081656 9
-20.43486 2.6336207 1.8047818 10
-20.428577 2.6325595 2.5312061 11
-20.420776 2.6313009 3.2632029 12
-20.412457 2.6299732 4.0026922 13
-20.411121 2.6295409 4.7533283 14
-20.420937 2.6305394 5.5190878 15
-19.477438 4.223958 3.8784173 13
-19.434349 4.2142086 4.5954084 14
-19.371315 4.2001309 5.3154817 15
-10.106413 -13.83488 3.360976 13
-8.9796925 -2.7724328 0.16487759 8
-8.9634018 -2.7671258 0.49248078 9
-8.9658279 -2.7675846 0.82180452 10
-8.9444847 -2.7607198 1.1502646 11
-8.9411488 -2.7593999 1.4829695 12
-8.9267731 -2.7546775 1.8168802 13
-8.8939171 -2.7442608 2.1498268 14
-8.9070673 -2.7480063 2.4986649 15
-7.6097479 -4.0094643 0.15346923 8
-7.6042471 -4.0061316 0.45375296 9
-7.6091194 -4.0082493 0.75572771 10
-7.6019893 -4.004056 1.0582626 11
-7.5909362 -3.9977994 1.3621286 12
-7.5917068 -3.9977505 1.6710936 13
-7.5829444 -3.9926882 1.9818466 14
-7.5562158 -3.978184 2.2915015 15
-2.4569864 18.291285 2.3397813 11
-1.8230464 -9.5427914 0.20394129 8
-1.8241254 -9.5459576 0.54307693 9
-1.8241671 -9.543726 0.88327384 10
-1.8711488 17.733393 1.0078162 9
-1.8272583 -9.5523119 1.9225537 13
-1.6728499 -9.4794378 1.2148075 11
-1.6693375 -9.457118 1.5534394 12
-1.0478256 -10.081696 0.56970775 9
-1.0475023 -10.07487 0.92406034 10
-1.0440567 -10.030733 1.9967737 13
-1.174804 -9.9127779 2.3399067 14
-1.1730931 -9.8949175 2.7050655 15
-1.0683962 17.089327 3.3994181 13
-0.81479299 16.861237 1.5480012 10
-0.81414652 16.854866 2.142662 11
-0.8132326 16.842955 2.7412746 12
-0.81479663 16.890509 3.9749398 14
-0.81527632 16.90814 4.6071925 15
3.0747225 -24.803698 0.55420405 8
3.0756948 -24.812973 1.4276234 9
3.0750415 -24.809111 2.3039691 10
3.0736256 -24.801983 4.9752512 13
3.3850791 -24.455521 3.1476214 11
3.3866208 -24.467527 4.0286751 12
3.386127 -24.465672 5.8198957 14
3.9913287 -23.822052 6.5900235 15
4.5740051 -6.8020554 0.75846279 10
4.5780926 -6.6030722 1.0259607 11
4.5880179 -6.6160316 1.3137852 12
4.592433 -6.6210403 1.6041361 13
4.7798014 -6.1263862 0.17668149 8
4.7850204 -6.1317225 0.4474847 9
4.8466597 -22.887564 1.3411378 9
5.1228371 -22.601931 0.52008629 8
5.0251093 -5.9029002 0.71653843 10
5.0222673 -5.8981733 0.98842567 11
5.0237231 -5.8984694 1.2634641 12
5.0182524 -5.8906412 1.5396173 13
5.2236533 -5.7994471 -0.094180673 7
5.3913755 -22.30648 2.9314029 11
5.3927565 -22.308271 5.4133654 14
5.4813137 -5.7477627 0.17980132 8
5.6470571 -5.7543035 0.46293575 9
5.6562734 -22.019508 6.2069707 15
5.8334312 -5.776227 0.75810575 10
5.8267422 -5.7680383 1.0454867 11
5.8135757 -5.7534537 1.3332236 12
5.8066211 -5.7449799 1.6246383 13
6.1662793 -21.459681 2.0662742 10
6.1700711 -21.469419 3.6506801 12
6.167851 -21.459932 4.4531407 13
6.4204183 -21.205116 1.2742817 9
6.6606464 -20.923178 0.49686912 8
6.907845 -20.671965 2.7877288 11
6.9066381 -20.662069 5.141993 14
7.3861418 -20.166084 5.8670583 15
7.6121516 -19.90612 4.2533021 13
8.0686893 -19.43685 0.4792271 8
8.0637465 -19.422516 1.2130107 9
8.0659924 -19.425499 1.9504466 10
8.0692902 -19.428516 3.4418421 12
8.5095053 -18.942865 4.904017 14
8.7260942 -18.70546 5.6407561 15
9.1556396 -18.262964 2.6166198 11
9.3984365 -1.3559694 -0.14318447 7
9.3576117 -18.029997 0.46448657 8
9.3658285 -18.034649 3.3263099 12
9.4091587 -1.3520422 0.51895493 9
9.4291458 -1.3520868 0.85338485 10
9.4084702 -1.3464854 1.1861669 11
9.6133718 -2.3730671 0.20224699 8
9.6466608 -2.3784406 0.54923683 9
9.6625519 -2.3795793 0.898305 10
9.6693096 -2.3784862 1.249507 11
9.8386412 -0.84936285 0.19073032 8
10.595101 -16.729332 5.4125772 15
10.604823 -16.747911 4.6825728 14
10.956324 -6.1368532 0.27501673 8
10.965118 -6.1388264 0.71331412 9
10.953124 -6.1292148 1.1517727 10
12.844035 4.1495447 -0.2582294 7
12.859299 4.1593356 0.21310258 8
12.880882 4.1712203 0.68652231 9
12.912175 4.6014409 1.6553607 11
12.907068 4.6046014 2.1424158 12
12.922993 4.6154346 2.6388688 13
12.920999 4.6198506 3.1389949 14
12.928864 4.6279292 3.6499507 15
13.043244 4.0252643 1.1726673 10
13.381696 13.335337 0.20436893 8
13.398092 13.360154 0.86669916 9
13.401381 13.371859 1.5316924 10
13.415792 13.394799 2.2030311 11
13.429065 13.416689 2.8814538 12
13.447308 13.443694 3.5701847 13
13.454267 13.459478 4.2666841 14
13.730442 3.4035289 1.7220255 11
13.766457 3.4225793 2.7415822 13
13.871552 3.2206445 0.73405093 9
13.966412 3.2732103 3.8286188 15
14.390617 2.6925845 -0.2613351 7
14.50722 2.7499075 3.3999002 14
14.665549 2.5547867 2.3516636 12
14.996598 2.1613343 0.7932694 9
14.837277 2.3634725 1.8410451 11
15.184741 1.9643106 0.26898107 8
15.015206 2.1690733 1.3260208 10
15.501563 1.8084238 3.0348971 13
15.526474 1.8220567 4.1891704 15
15.735339 1.6154319 3.654731 14
16.12088 1.1784697 1.9931723 11
16.287426 0.94837421 0.86676109 9
16.303799 0.95454025 1.4400041 10
16.505959 0.72152609 0.30294636 8
16.594017 0.74659652 2.6432488 12
16.911545 0.53765935 4.5471268 15
17.388041 0.048408471 3.3987684 13
17.680275 -0.19561709 4.1030016 14
19.717745 -24.458054 7.4257116 14
21.250715 -22.819424 8.5258131 15
22.15568 -21.847973 7.3500762 14
23.058329 -20.86652 8.4980345 15
24.585062 -19.279446 3.9930227 11
24.88578 -18.936197 6.2351866 13
25.193527 -18.603174 7.3869491 14
25.500275 -18.288605 5.1241097 12
25.508301 -18.273008 8.5648527 15
26.763025 -16.968134 6.3096728 13
27.061203 -16.636759 4.0482903 11
27.398855 -16.289194 7.5074697 14
27.71541 -15.939901 8.715456 15
28.35758 -15.275148 5.2444329 12
28.677126 -14.91679 6.4252405 13
29.341927 -14.208149 7.6664019 14
30.361931 -13.157748 4.1966052 11
30.368921 -13.152421 5.3754563 12
30.359236 -13.122554 8.9984226 15
31.053782 -12.403029 6.6306682 13
31.415968 -12.075132 0.71758682 8
31.412228 -12.021596 7.8948197 14
31.763784 -11.684484 1.9010898 9
31.77029 -11.678185 3.0882154 10
32.875374 -10.496749 5.5867863 12
33.243263 -10.085598 6.8718138 13
39.859921 60.20887 5.6912351 10
42.501728 25.696661 0.66844714 8
42.532661 25.734957 2.4065015 9
42.568359 25.776239 4.1541538 10
