# .PCD v0.7 - Point Cloud Data file format
VERSION 0.7
FIELDS x y z intensity
SIZE 4 4 4 4
TYPE F F F F
COUNT 1 1 1 1
WIDTH 214
HEIGHT 1
VIEWPOINT 0 0 0 1 0 0 0
POINTS 214
DATA ascii
-29.408791 20.152285 4.4839401 11
-29.308462 20.061136 8.3104544 14
-29.032978 20.526396 1.9729601 9
-28.871759 20.366869 9.5850115 15
-28.650217 20.884897 0.73264533 8
-28.579887 20.818464 3.2082441 10
-28.532349 20.768505 5.7064848 12
-27.667934 21.368753 6.9236312 13
-26.909084 22.057003 4.4072886 11
-26.402304 22.246572 9.3994036 15
-26.135044 22.712475 3.1734571 10
-26.07724 22.645058 5.6169868 12
-25.622982 22.884211 8.0877504 14
-25.364511 23.359426 1.960827 9
-24.865004 23.529966 6.8192368 13
-24.12525 24.195026 4.3672953 11
-23.755175 24.525671 3.1633949 10
-23.233885 11.86741 1.4145768 9
-23.203403 -9.4340687 2.2299039 10
-23.262774 24.666368 9.278924 15
-23.03517 10.144934 2.2373381 10
-22.963043 11.72081 3.2131984 11
-22.936384 25.059334 5.5715194 12
-22.891823 24.990387 8.0206432 14
-22.775923 10.415062 4.0051808 12
-22.627245 10.343375 4.874959 13
-22.748201 10.394928 5.8140092 14
-22.524994 25.318483 6.7865663 13
-22.376738 10.610485 6.6788335 15
-21.799778 25.985117 4.3714056 11
-21.449226 26.345119 1.9903687 9
-21.043352 26.605541 3.1849475 10
-20.569818 26.730583 9.2758579 15
-20.358702 -3.5285275 1.8149722 10
-20.237535 -3.5063672 2.5291176 11
-20.219038 27.091618 6.8078923 13
-20.012737 -11.700232 2.9100499 11
-20.131378 -3.4868102 3.2432098 12
-20.034843 -3.4689202 3.9595859 13
-20.196533 27.049931 8.0341282 14
-19.894554 -11.627178 3.7135458 12
-19.907804 -3.4457424 4.6717095 14
-19.80834 -3.4273348 5.3938465 15
-19.781973 -13.554892 2.1802073 10
-19.780949 -11.556803 4.5174298 13
-19.671949 -11.489115 5.3243136 14
-19.483986 27.753538 4.4080172 11
-19.57362 -11.427636 6.1387925 15
-18.696812 28.312355 5.6341467 12
-18.337648 28.677601 3.2403913 10
-17.900173 28.859726 6.8787503 13
-17.588869 29.350481 0.87103623 8
-17.388525 -4.5788016 0.95538968 9
-16.787289 29.91197 2.0862329 9
-16.75692 29.831585 4.4935617 11
-16.255121 -37.214329 6.854857 12
-16.204237 -37.084011 8.2936106 13
-16.025991 -6.7853222 0.94035387 9
-15.979986 30.475018 3.3151681 10
-15.930828 30.325802 8.2275124 14
-15.30409 -8.0911121 0.94738346 9
-15.21649 31.187038 0.9228608 8
-15.14049 30.960098 7.0285039 13
-14.819632 31.52569 -0.2835798 7
-14.645263 -1.0495257 0.2574347 8
-14.629911 -9.4221354 0.96614212 9
-14.352363 31.629667 5.8422856 12
-14.252131 -36.846569 9.5668497 14
-14.214071 -36.734081 11.006921 15
-13.995964 -10.8179 0.9977625 9
-13.983317 32.074379 2.1748815 9
-13.960252 31.991329 4.6313291 11
-13.545189 -2.9522219 0.24914402 8
-13.386672 -12.318793 1.0435801 9
-12.7474 33.064659 0.98276544 8
-12.671376 -14.253123 1.1168003 9
-12.656832 -13.827889 1.7527021 10
-12.464388 -36.879349 8.0209236 13
-12.203845 -5.3747454 0.2557179 8
-12.303642 33.295887 3.4809537 10
-11.913255 33.768475 -0.24412861 7
-11.854615 33.518539 6.021625 12
-11.896635 -36.951366 6.6019397 12
-11.024484 34.320724 2.2883019 9
-10.992456 34.150208 7.3870878 13
-10.627437 -36.532009 10.674862 15
-10.16762 -9.3569298 0.30924177 8
-9.741868 10.971116 0.33929938 8
-9.3978472 11.556419 -0.68873435 6
-9.2612896 35.789371 -0.2110782 7
-9.3477688 11.490245 -0.1670182 7
-9.254344 35.743137 1.0787761 8
-9.2281885 35.58382 4.9544392 11
-9.22122 35.537266 6.2601347 12
-9.0308371 -11.753711 0.36243531 8
-8.8122959 36.20348 -1.507961 6
-8.9380646 -36.53413 9.1695127 14
-8.4476299 -36.8498 5.1175718 11
-8.4243984 -36.735634 6.4487791 12
-8.3224936 36.393452 2.4109223 9
-8.3138762 36.335171 3.7176328 10
-8.3999643 -36.616161 7.7866783 13
-7.2823043 -36.572529 2.4286172 9
-7.3483539 -36.892712 3.7724991 10
-6.7022061 -36.301147 10.403103 15
-5.8878818 -13.475887 0.91935486 9
-5.19485 -13.424732 1.9231478 11
-4.8815122 -13.781177 1.4409559 10
-3.5478973 -36.753647 2.4436734 9
-3.5397305 -36.661503 3.7328186 10
-3.5300972 -36.5541 5.0225439 11
-3.5185511 -36.426811 6.3136339 12
-3.5103898 -36.334633 7.6187553 13
-3.4997487 -36.216633 8.9301634 14
-3.4900932 -36.108772 10.258779 15
-0.87736183 6.3403144 -0.25024927 6
-0.70523417 6.4271731 1.1175582 12
-0.61469871 6.4525967 1.3564448 13
-0.61508965 6.4513974 1.5946171 14
-0.52448535 6.4829912 1.8449514 15
0.62587553 6.4945736 -0.40027758 7
0.72102094 6.5114841 -0.1730115 8
0.72496635 6.5505252 0.054757569 9
0.70307338 -11.542017 0.78033745 9
0.70262873 -11.522961 1.1855353 10
0.7005204 -11.477 1.5885918 11
0.69848627 -11.432216 1.9925334 12
0.69700396 -11.396273 2.4001238 13
0.69518882 -11.354872 2.8098595 14
0.69508958 -11.340935 3.2316239 15
0.9041748 6.4550924 -0.85327077 5
1.001341 6.4778056 -0.62638062 6
1.3293504 6.7367015 1.2727631 14
1.3307513 6.7512751 1.5246167 15
2.0383689 -11.495234 0.38722679 8
2.0342953 -11.463608 0.79428422 9
2.1970212 -11.416388 1.2034907 10
2.1925879 -11.384723 1.6115191 11
2.1859851 -11.34181 2.0192852 12
2.346514 -11.289226 2.4348135 13
2.3405094 -11.251572 2.8497586 14
2.5038354 -11.214651 3.2805128 15
6.7394958 -5.2776175 -0.34002787 6
6.8345828 -5.1810236 0.25840127 8
6.8674626 -5.1986761 0.56180859 9
6.9390736 -5.0901589 0.86292571 10
6.9671397 -5.1033378 1.1725872 11
7.0126219 -5.1665182 -0.044355191 7
7.0864072 -5.0279346 1.4892339 12
7.0705447 -5.999465 1.6006273 12
7.0537219 -4.9970498 1.7951295 13
7.1825447 -6.8363247 2.0781586 13
7.138639 -5.5286856 2.2131262 14
7.1986351 -4.9295588 2.4573302 15
7.2479982 -6.8901076 2.4639904 14
7.3071356 -6.7395234 2.819869 15
8.4926195 -5.010766 0.62541831 9
8.4579744 -4.9815955 0.96839863 10
8.5495234 -4.8355422 2.3834913 14
8.5291414 -4.8147759 2.7428515 15
8.6693764 -4.9308014 1.3351643 11
8.8973122 -4.8833289 1.7193537 12
10.75414 -35.947563 1.266409 8
11.171206 -35.345875 7.8390651 13
11.746086 -35.413021 6.5394459 12
11.834949 -35.763233 2.5933812 9
12.334805 -35.500835 5.2431183 11
12.92335 -35.567284 3.9389052 10
13.659881 16.089018 -3.2379153 4
13.921842 -35.025848 9.361517 14
14.340433 16.538322 0.49516684 9
14.396216 16.629213 1.2661487 10
14.367204 17.165031 3.6520119 13
14.449895 16.718037 2.0473406 11
14.484904 16.785746 2.8371665 12
15.150132 -35.191639 6.7194638 12
15.301869 -35.658039 1.3163561 8
15.262205 -35.537418 2.6665452 9
15.77284 -35.263329 5.3920703 11
15.692519 -35.026173 8.121871 13
17.732681 -27.121754 5.6712251 12
17.918983 -27.50741 1.1014594 8
17.877733 -27.419161 2.2446771 9
18.168535 -26.882957 8.0453405 14
18.362 -27.272369 3.4095306 10
18.31546 -27.177916 4.5604849 11
18.749516 -26.925499 6.9265203 13
34.232597 17.137609 -5.3601556 4
34.441124 17.286266 -4.0305095 5
34.758881 13.236212 -5.079699 4
34.647129 17.433918 -2.6927361 6
34.833008 13.923676 -2.4950831 6
35.030018 13.381557 -3.7939868 5
35.052406 14.053501 -1.1904974 7
35.214806 14.749934 0.11089335 8
35.569561 -2.8151643 -3.1054316 5
35.418186 14.878084 1.4530504 9
35.753258 -6.4758229 -3.0618124 5
35.753628 -2.7937574 -1.8629416 6
35.632217 15.011351 2.8162036 10
35.905655 -5.9382825 -1.8040556 6
35.981201 -3.2946048 -0.5990895 7
35.831032 15.138997 4.2019892 11
36.256924 -12.651848 -1.7399081 6
36.559616 -14.510999 -0.36998069 7
36.784409 -14.563933 1.009654 8
37.485977 -11.665804 6.4798422 12
37.665184 -11.759492 5.1048818 11
57.305569 13.693704 -7.7851887 4
57.55024 14.691502 -5.776216 5
57.667934 6.9560399 -7.4568796 4
57.865768 14.83723 -3.7112019 6
58.037109 6.2211528 -5.4043479 5
58.374229 5.4749522 -3.3440313 6
