# .PCD v0.7 - Point Cloud Data file format
VERSION 0.7
FIELDS x y z intensity
SIZE 4 4 4 4
TYPE F F F F
COUNT 1 1 1 1
WIDTH 1353
HEIGHT 1
VIEWPOINT 0 0 0 1 0 0 0
POINTS 1353
DATA ascii
-1.6283013 2.3561244 -0.464463 0
-1.5421474 2.3742509 -0.45231289 0
-1.4706779 2.3489292 -0.44134858 0
-1.3744645 2.316128 -0.42661905 0
-1.7247219 2.4579644 -0.47854188 0
-1.6335645 2.4374437 -0.46533516 0
-0.2115767 -3.1074057 -0.38242424 0
-0.14485241 -3.111618 -0.38248163 0
-0.055801522 -3.1187909 -0.38300991 0
0.033525169 -3.1220288 -0.38336831 0
0.14549978 -3.1256034 -0.38421711 0
0.25708652 -3.1166015 -0.38397953 0
0.3476823 -3.1211925 -0.38561392 0
0.44703224 -3.1284325 -0.38824797 0
0.52870548 -3.1140151 -0.38783407 0
-0.558505 -3.0273697 -0.37801221 0
-0.45547366 -3.0326922 -0.37818596 0
-0.36165121 -3.0492327 -0.37982354 0
-0.26135591 -3.0609493 -0.38073024 0
-0.14169359 -3.0441351 -0.38143289 0
-0.054589495 -3.0525298 -0.3820101 0
0.054815963 -3.0607483 -0.38283178 0
0.1642254 -3.0577512 -0.38308761 0
0.25227922 -3.059294 -0.38321748 0
0.33948654 -3.047514 -0.38445014 0
0.44926485 -3.0405996 -0.38651037 0
0.57087845 -3.0523064 -0.38651419 0
0.65559739 -3.0591023 -0.38818455 0
0.74230045 -3.0367453 -0.38753611 0
0.83731198 -3.0448771 -0.3877514 0
0.93782961 -3.0254786 -0.38909584 0
-1.1082891 -2.9967322 -0.3981266 0
-1.0562922 -2.9424336 -0.39031971 0
-0.98959398 -2.9310489 -0.37984538 0
-0.83717728 -2.9212801 -0.37382761 0
-0.74309039 -2.9484558 -0.37587172 0
-0.65886045 -2.970572 -0.37626994 0
-0.54741263 -2.9665041 -0.37732363 0
-0.44386196 -2.9324641 -0.37691677 0
-0.34828466 -2.936213 -0.37834972 0
-0.243618 -2.9541361 -0.37952724 0
-0.13757482 -2.9556561 -0.38005924 0
-0.053004988 -2.9639874 -0.38067776 0
0.053232227 -2.9722431 -0.38156736 0
0.15947394 -2.9693317 -0.3818031 0
0.24500884 -2.9711661 -0.38208458 0
0.35140482 -2.9613106 -0.38383171 0
0.45698318 -2.946506 -0.3847841 0
0.54333711 -2.9445493 -0.38508695 0
0.64986432 -2.929992 -0.38617828 0
0.76470685 -2.9441135 -0.38620666 0
0.85936177 -2.9589975 -0.38681251 0
0.94586998 -2.9396577 -0.38821232 0
1.0453875 -2.9560111 -0.38895527 0
1.1419721 -2.9570746 -0.38922659 0
1.2266191 -2.9241252 -0.38935655 0
-1.0254674 -2.835006 -0.38785112 0
-0.93573451 -2.861285 -0.37275091 0
-0.84368902 -2.8534343 -0.37313187 0
-0.75739384 -2.8333654 -0.37351406 0
-0.65466732 -2.8549576 -0.37471712 0
-0.5515843 -2.8364811 -0.37492904 0
-0.45883292 -2.8250532 -0.37633765 0
-0.35735539 -2.839505 -0.37632141 0
-0.25655869 -2.8601863 -0.37781042 0
-0.1542863 -2.8707349 -0.37896928 0
-0.051420476 -2.8754447 -0.37934542 0
0.061325591 -2.8639932 -0.38028491 0
0.14661437 -2.8543484 -0.38021818 0
0.24630122 -2.8595574 -0.38077724 0
0.36219427 -2.8767977 -0.38325852 0
0.44336376 -2.8586836 -0.38320601 0
0.54809934 -2.8554518 -0.3840766 0
0.65109491 -2.8393271 -0.38498199 0
0.7592929 -2.8405817 -0.38476613 0
0.85570508 -2.8694 -0.38575792 0
0.96178341 -2.848515 -0.38715336 0
1.0588949 -2.8419521 -0.38747135 0
1.1543717 -2.8663495 -0.38752612 0
1.2672002 -2.848052 -0.38904047 0
1.3510995 -2.8692689 -0.38941601 0
1.4366921 -2.8371019 -0.39048037 0
-1.0139639 -2.7416837 -0.38743526 0
-0.95548308 -2.7645555 -0.37936002 0
-0.85787702 -2.7556512 -0.37026596 0
-0.75286895 -2.738039 -0.37228346 0
-0.65438646 -2.7627282 -0.3734307 0
-0.54720956 -2.7429903 -0.37388399 0
-0.44467217 -2.7378716 -0.37517828 0
-0.34632483 -2.751878 -0.37516388 0
-0.2486653 -2.7721765 -0.37665278 0
-0.15813977 -2.7621493 -0.37759256 0
-0.042892139 -2.7586861 -0.37767825 0
0.039259538 -2.7512717 -0.37839675 0
0.147916 -2.748347 -0.37868771 0
0.24786711 -2.759896 -0.3793442 0
0.34557346 -2.7447808 -0.38118091 0
0.45065483 -2.7739151 -0.38218951 0
0.55084497 -2.7625794 -0.382514 0
0.65155226 -2.7506278 -0.3837119 0
0.74745542 -2.7439826 -0.3829222 0
0.84899628 -2.7739639 -0.38429224 0
0.9532721 -2.7580462 -0.385833 0
1.0492568 -2.7169116 -0.38522691 0
1.1424009 -2.7789402 -0.38672468 0
1.2433767 -2.7415543 -0.38757107 0
1.3383065 -2.7558613 -0.38722968 0
1.457839 -2.7632649 -0.38913131 0
1.5479673 -2.7562597 -0.39018553 0
1.6299909 -2.7173302 -0.38907868 0
-0.94506675 -2.6723831 -0.37943712 0
-0.84665638 -2.6312659 -0.36978489 0
-0.74805605 -2.6463046 -0.37091881 0
-0.65348625 -2.6733913 -0.37206474 0
-0.55362266 -2.6444416 -0.37201229 0
-0.44970763 -2.6487987 -0.37398902 0
-0.35372281 -2.6566229 -0.37296975 0
-0.25999367 -2.6826141 -0.37569001 0
-0.13411486 -2.6394539 -0.37544304 0
-0.053610768 -2.6380336 -0.37568331 0
0.047233541 -2.6376727 -0.37653738 0
0.16077124 -2.6391382 -0.37732154 0
0.2566627 -2.6484828 -0.37717718 0
0.35145137 -2.6361599 -0.37936524 0
0.45812193 -2.6604388 -0.38100979 0
0.5533402 -2.6749499 -0.38173497 0
0.65019333 -2.6598101 -0.38232443 0
0.74100143 -2.6211832 -0.38096011 0
0.83697391 -2.6663136 -0.38293925 0
0.96244335 -2.6608992 -0.38448706 0
1.0549822 -2.6195612 -0.38360119 0
1.1404884 -2.6651502 -0.3856577 0
1.2609081 -2.6286376 -0.38557518 0
1.3525547 -2.6555414 -0.38757053 0
1.4550146 -2.635112 -0.38756263 0
1.5553238 -2.6790438 -0.38848513 0
1.659359 -2.6363113 -0.3887898 0
1.7483373 -2.6498082 -0.38980281 0
1.8085382 -2.6170325 -0.39059466 0
-0.9334628 -2.5806835 -0.37863445 0
-0.84973353 -2.5167618 -0.37110627 0
-0.74125677 -2.5524681 -0.36931261 0
-0.63786894 -2.5559971 -0.37041736 0
-0.55455267 -2.5425928 -0.37052083 0
-0.45323944 -2.5584407 -0.37289405 0
-0.36082709 -2.568938 -0.37222371 0
-0.24720228 -2.5506282 -0.37389123 0
-0.153432 -2.5184026 -0.37411413 0
-0.063065849 -2.5191507 -0.37376213 0
0.045313556 -2.5297153 -0.3752453 0
0.15426831 -2.5321596 -0.37613782 0
0.26237777 -2.5188594 -0.37579894 0
0.36339009 -2.5423687 -0.37766084 0
0.44285208 -2.5519309 -0.37861466 0
0.54556918 -2.5457113 -0.3804979 0
0.64589942 -2.5630145 -0.38041556 0
0.75423956 -2.5291879 -0.38010761 0
0.86244488 -2.5542805 -0.38248646 0
0.94975615 -2.5681267 -0.38292801 0
1.0412377 -2.5328465 -0.38280311 0
1.1526771 -2.5574286 -0.38462853 0
1.2602103 -2.5334306 -0.38454983 0
1.355598 -2.5402379 -0.38531947 0
1.4490057 -2.537631 -0.38616404 0
1.5647302 -2.5669622 -0.38683221 0
1.6437337 -2.5304625 -0.38786939 0
1.7596363 -2.5461991 -0.38828596 0
1.8573346 -2.5678637 -0.38913411 0
1.9164152 -2.5333018 -0.39014179 0
-0.91963869 -2.4866352 -0.37674388 0
-0.8553369 -2.4187365 -0.37159315 0
-0.75050038 -2.4523156 -0.36730859 0
-0.65510207 -2.4506767 -0.36928222 0
-0.55596799 -2.4245653 -0.36851183 0
-0.45520043 -2.4667623 -0.37142003 0
-0.33708367 -2.4622283 -0.3710615 0
-0.25189844 -2.418993 -0.37240136 0
-0.16518106 -2.4260311 -0.3723942 0
-0.060848191 -2.4306309 -0.37242857 0
0.043729823 -2.4412098 -0.37398088 0
0.14889194 -2.4438751 -0.37497175 0
0.25319612 -2.4306962 -0.3744261 0
0.35836661 -2.4254549 -0.37580904 0
0.45777765 -2.4473782 -0.37739483 0
0.54824561 -2.4296041 -0.37859124 0
0.64649755 -2.4529319 -0.37936988 0
0.74496937 -2.4340394 -0.37811309 0
0.83735698 -2.4226534 -0.3805491 0
0.93639117 -2.47736 -0.38138577 0
1.0443881 -2.4405196 -0.38209149 0
1.1486491 -2.4540126 -0.38260642 0
1.25665 -2.4380896 -0.38355067 0
1.3501683 -2.4451544 -0.38476533 0
1.4393288 -2.4388816 -0.38470849 0
1.5547009 -2.4700148 -0.38590816 0
1.6506797 -2.4382033 -0.38627276 0
1.7452974 -2.4498565 -0.38719127 0
1.862429 -2.4620273 -0.38834548 0
1.9534074 -2.4582913 -0.38818112 0
2.0389137 -2.4318061 -0.38966134 0
-0.84145832 -2.3263607 -0.36941782 0
-0.75894183 -2.3586559 -0.36678338 0
-0.6442737 -2.3415549 -0.36750731 0
-0.53622812 -2.3384869 -0.3672708 0
-0.43920183 -2.3800545 -0.37040392 0
-0.35542741 -2.3480573 -0.36971265 0
-0.25904655 -2.3262868 -0.37074971 0
-0.15917313 -2.3377788 -0.37114978 0
-0.058630541 -2.3421116 -0.37109503 0
0.037303351 -2.3457408 -0.37265804 0
0.1435156 -2.3555903 -0.37380567 0
0.24401444 -2.3425329 -0.37305322 0
0.34538111 -2.3375771 -0.3742803 0
0.44783485 -2.3331029 -0.37629822 0
0.54943639 -2.3194907 -0.37756264 0
0.66855806 -2.3649404 -0.37665185 0
0.75543326 -2.3478007 -0.37802678 0
0.84174973 -2.3272464 -0.37925372 0
0.93840718 -2.3790751 -0.37968719 0
1.0435027 -2.3453257 -0.38110432 0
1.1447121 -2.3571742 -0.380968 0
1.2517238 -2.3455732 -0.38277659 0
1.3772326 -2.3722618 -0.3833847 0
1.4601842 -2.3198471 -0.38326287 0
1.5396252 -2.3701484 -0.38428292 0
1.649435 -2.3385417 -0.38474545 0
1.740224 -2.3349795 -0.38574064 0
1.84207 -2.3639097 -0.38634956 0
1.9428165 -2.3511975 -0.38749677 0
2.0536838 -2.3620858 -0.38906473 0
2.1295519 -2.3291521 -0.3875097 0
-1.1357954 -2.2430043 -0.39991683 0
-1.0834746 -2.2178798 -0.3929686 0
-0.82531345 -2.2315869 -0.36605251 0
-0.76460105 -2.2647009 -0.36619887 0
-0.64624095 -2.2442427 -0.36563805 0
-0.543037 -2.2411435 -0.36594507 0
-0.45149219 -2.2650383 -0.36835557 0
-0.35368353 -2.2804148 -0.36823541 0
-0.25318986 -2.272819 -0.36999372 0
-0.1533137 -2.2517517 -0.36982322 0
-0.056437571 -2.2538099 -0.37020162 0
0.048537679 -2.2539244 -0.37166518 0
0.14762856 -2.2495315 -0.37219557 0
0.25015792 -2.2484217 -0.37230191 0
0.33419442 -2.2616949 -0.37315315 0
0.43474448 -2.2646549 -0.37505904 0
0.547593 -2.2402809 -0.37541854 0
0.65007383 -2.2589707 -0.37517342 0
0.7459895 -2.2625654 -0.37735608 0
0.842273 -2.2283649 -0.37733388 0
0.92607003 -2.2527328 -0.37814048 0
1.0542221 -2.2388463 -0.37924385 0
1.1510172 -2.259887 -0.38058195 0
1.2405988 -2.2468197 -0.38103855 0
1.3386915 -2.2683642 -0.38197637 0
1.4283147 -2.2335067 -0.38178369 0
1.5579392 -2.2543242 -0.38306847 0
1.6467518 -2.2428422 -0.38384622 0
1.7459867 -2.2406085 -0.38374269 0
1.8560337 -2.2461617 -0.38530365 0
1.97236 -2.2525406 -0.38629889 0
2.0508437 -2.2433958 -0.38589573 0
2.134443 -2.2574747 -0.38660893 0
2.2275786 -2.2356009 -0.38751125 0
-1.1015069 -2.1001594 -0.39425212 0
-1.0433078 -2.1549115 -0.38693488 0
-0.95524055 -2.1466475 -0.37357682 0
-0.84642559 -2.1229742 -0.36307794 0
-0.75156569 -2.1612778 -0.36389014 0
-0.65562719 -2.1793804 -0.36448836 0
-0.55081618 -2.1468968 -0.36516801 0
-0.45918691 -2.1427066 -0.36574456 0
-0.34762722 -2.1595287 -0.36777276 0
-0.24751052 -2.1434059 -0.36808974 0
-0.1456504 -2.1391842 -0.36868936 0
-0.053356227 -2.1307635 -0.36896181 0
0.050514795 -2.1427679 -0.36941355 0
0.15345225 -2.1426706 -0.36960405 0
0.25205812 -2.1247303 -0.3710939 0
0.35453159 -2.1432633 -0.37209553 0
0.44692588 -2.1606414 -0.37375635 0
0.54300517 -2.1543519 -0.37359449 0
0.65252936 -2.1323845 -0.37400532 0
0.75974727 -2.1489959 -0.37637424 0
0.84973294 -2.1544971 -0.37599662 0
0.96119732 -2.1693974 -0.37833279 0
1.0626441 -2.13626 -0.37792468 0
1.1400867 -2.1363938 -0.3792516 0
1.2443254 -2.1434121 -0.37981305 0
1.3473144 -2.1750696 -0.37991899 0
1.4392467 -2.1477799 -0.38095391 0
1.553061 -2.1474292 -0.38170975 0
1.6617818 -2.1643608 -0.38198954 0
1.7282513 -2.1222496 -0.38249844 0
1.8290159 -2.15014 -0.3839936 0
1.9455296 -2.1585817 -0.38424334 0
2.0774846 -2.1454496 -0.38490701 0
2.1609547 -2.1585393 -0.38592783 0
2.2605004 -2.1423197 -0.38636905 0
2.3302557 -2.1153426 -0.38642499 0
-1.1052138 -2.0358484 -0.39525768 0
-1.0447937 -2.0391753 -0.38615522 0
-0.9670372 -2.0533733 -0.37768516 0
-0.85342968 -2.0507274 -0.3647227 0
-0.75465387 -2.0406549 -0.36176994 0
-0.64556396 -2.066735 -0.36326 0
-0.55769765 -2.0282116 -0.36380211 0
-0.45584494 -2.055582 -0.36432719 0
-0.35224861 -2.0387681 -0.36633554 0
-0.2550219 -2.0253184 -0.3665258 0
-0.15319569 -2.0353103 -0.36703971 0
-0.051301997 -2.0487328 -0.36813524 0
0.051236656 -2.0462637 -0.36835465 0
0.15376 -2.0415158 -0.36844066 0
0.24234726 -2.0429013 -0.37002048 0
0.34411421 -2.0272565 -0.37012595 0
0.44474834 -2.0607231 -0.37186679 0
0.55411434 -2.0727282 -0.37292147 0
0.6425696 -2.0472629 -0.37242302 0
0.73439074 -2.0301919 -0.37485823 0
0.8480348 -2.0628295 -0.37489662 0
0.95524234 -2.0360482 -0.37549853 0
1.0477492 -2.0693269 -0.3770417 0
1.1606334 -2.0523517 -0.3778204 0
1.2416269 -2.0369685 -0.37786019 0
1.3300619 -2.0475507 -0.37912375 0
1.4451828 -2.0489225 -0.37998286 0
1.5408012 -2.0368693 -0.37938142 0
1.6552988 -2.0625675 -0.38083062 0
1.7614278 -2.0505192 -0.38202882 0
1.8545818 -2.0382285 -0.38154307 0
1.9572421 -2.0505433 -0.38250476 0
2.0630276 -2.0410306 -0.38358477 0
2.1694264 -2.0559638 -0.38446844 0
2.2467628 -2.0395498 -0.38482064 0
2.352901 -2.0454972 -0.38688794 0
2.4068115 -2.0033004 -0.38449264 0
-1.1082399 -1.9413462 -0.39611241 0
-1.0502752 -1.9348011 -0.38737869 0
-0.95680761 -1.9588499 -0.37593248 0
-0.86086035 -1.9346114 -0.3662937 0
-0.75371629 -1.9517422 -0.36105928 0
-0.65834546 -1.9499378 -0.36227229 0
-0.54980558 -1.9449446 -0.36272159 0
-0.44788164 -1.9531898 -0.36313081 0
-0.35201553 -1.9374717 -0.36488795 0
-0.24479179 -1.9440136 -0.36574173 0
-0.14701287 -1.9531957 -0.36590797 0
-0.04924776 -1.9667019 -0.36730874 0
0.049165756 -1.9637502 -0.3670955 0
0.1475624 -1.9591774 -0.36715946 0
0.24692066 -1.9610618 -0.36922741 0
0.3437883 -1.9407617 -0.36848307 0
0.4478178 -1.9398884 -0.36963624 0
0.54372609 -1.9541445 -0.37093657 0
0.64718485 -1.9629482 -0.37227237 0
0.75342673 -1.9425838 -0.37256056 0
0.84964734 -1.9544243 -0.37345928 0
0.96074873 -1.9315819 -0.37467793 0
1.0522956 -1.9718398 -0.37605762 0
1.1346571 -1.9225732 -0.37548849 0
1.2461849 -1.9488907 -0.37639016 0
1.3515654 -1.9556957 -0.37783474 0
1.4424541 -1.9496955 -0.37784135 0
1.5442327 -1.9241656 -0.37810206 0
1.6424023 -1.9589907 -0.37962684 0
1.7498703 -1.9697652 -0.37970355 0
1.8308767 -1.9363936 -0.37983897 0
1.9254825 -1.932337 -0.38115382 0
2.0289376 -1.9506422 -0.38205829 0
2.1487255 -1.9505781 -0.38314727 0
2.2691572 -1.9444093 -0.38414332 0
2.3764277 -1.9493711 -0.38463196 0
2.477421 -1.9448273 -0.38700277 0
-1.1183589 -1.8344696 -0.39650124 0
-1.0354853 -1.8442303 -0.3855333 0
-0.95477486 -1.8529792 -0.37405765 0
-0.85788256 -1.8216481 -0.36600852 0
-0.76242894 -1.8548949 -0.36050719 0
-0.65873593 -1.8411082 -0.36100516 0
-0.55370063 -1.8568275 -0.36157617 0
-0.4339546 -1.8510011 -0.36248171 0
-0.34587878 -1.8305544 -0.36261985 0
-0.24729051 -1.8565683 -0.36502635 0
-0.14039098 -1.8657303 -0.36465684 0
-0.047060277 -1.8794496 -0.36639655 0
0.043910466 -1.8728849 -0.36590225 0
0.15456276 -1.8728477 -0.36629793 0
0.2494386 -1.8727419 -0.36823115 0
0.34246668 -1.8556656 -0.36757156 0
0.4479849 -1.8327204 -0.36764824 0
0.54694825 -1.8240525 -0.36972067 0
0.63889676 -1.8484472 -0.37133163 0
0.7418676 -1.8422269 -0.3712762 0
0.84201932 -1.839083 -0.37144372 0
0.93553662 -1.8477614 -0.37308276 0
1.0427517 -1.8628992 -0.37411073 0
1.1551137 -1.8352212 -0.37373659 0
1.2581191 -1.8486029 -0.37577528 0
1.3503957 -1.8579254 -0.37660381 0
1.4483973 -1.8587462 -0.3760002 0
1.5444896 -1.8366554 -0.37756771 0
1.648542 -1.8290442 -0.37734747 0
1.7453572 -1.8549159 -0.37811118 0
1.8738662 -1.8538895 -0.37948009 0
1.9603249 -1.849133 -0.38012633 0
2.0474491 -1.8410717 -0.38091573 0
2.1235099 -1.8460677 -0.382227 0
2.228132 -1.8546119 -0.38266337 0
2.342015 -1.8385741 -0.3837842 0
2.4368942 -1.8571754 -0.38492516 0
2.5349765 -1.8473406 -0.38514537 0
-1.128675 -1.7288713 -0.39785561 0
-1.0533298 -1.7556583 -0.38734171 0
-0.95217282 -1.7541031 -0.37321129 0
-0.86648619 -1.7417382 -0.36366153 0
-0.74202591 -1.7453696 -0.35923529 0
-0.65290707 -1.7334729 -0.35937706 0
-0.55731553 -1.7666929 -0.36053544 0
-0.46345663 -1.7691694 -0.36050135 0
-0.36154109 -1.7479513 -0.36184233 0
-0.25692832 -1.7559092 -0.36377993 0
-0.15055782 -1.762201 -0.36253017 0
-0.056469563 -1.7538931 -0.36422759 0
0.049432613 -1.7523454 -0.36421856 0
0.14418791 -1.7478622 -0.36415616 0
0.24566205 -1.7482932 -0.3662937 0
0.34206104 -1.7535517 -0.36637488 0
0.45250636 -1.7426498 -0.36657894 0
0.57055414 -1.7542185 -0.36818692 0
0.66119319 -1.7722313 -0.37067223 0
0.75383943 -1.7366399 -0.36874083 0
0.84546566 -1.7414402 -0.37138176 0
0.94598281 -1.7426304 -0.37089199 0
1.0522745 -1.759795 -0.37218949 0
1.1624964 -1.7346776 -0.37283832 0
1.2531569 -1.7590176 -0.37502208 0
1.3506374 -1.7434105 -0.37432256 0
1.4601216 -1.7498306 -0.37541497 0
1.5609282 -1.7570643 -0.3748883 0
1.6393239 -1.7371792 -0.37580636 0
1.7377464 -1.743925 -0.37721062 0
1.8494582 -1.7528009 -0.37811983 0
1.9637229 -1.7571516 -0.37921572 0
2.0542955 -1.7431873 -0.37994495 0
2.1639564 -1.7494032 -0.38067967 0
2.2811327 -1.7644513 -0.38195878 0
2.360388 -1.746085 -0.38243845 0
2.4579635 -1.7644019 -0.38328862 0
2.5530419 -1.7508472 -0.38424209 0
2.6067617 -1.706585 -0.38256031 0
-1.1133506 -1.6359847 -0.39502269 0
-1.0474234 -1.6727835 -0.38605174 0
-0.95195401 -1.6531312 -0.37410527 0
-0.84626573 -1.641709 -0.35887063 0
-0.74878067 -1.6679152 -0.35713565 0
-0.64745778 -1.6414418 -0.35796613 0
-0.54684949 -1.6589025 -0.35926428 0
-0.44980201 -1.6357191 -0.3587068 0
-0.34139752 -1.6621959 -0.36153144 0
-0.24528061 -1.6482401 -0.36155558 0
-0.15333952 -1.6519861 -0.36003193 0
-0.052792545 -1.6397187 -0.36242232 0
0.052856147 -1.6429552 -0.3629207 0
0.1580992 -1.6319408 -0.36241752 0
0.25368577 -1.6360061 -0.36551356 0
0.3533093 -1.6485553 -0.36462611 0
0.45745671 -1.6634529 -0.36580628 0
0.5544191 -1.6423006 -0.36728013 0
0.64440835 -1.6613753 -0.36821619 0
0.74869275 -1.6507602 -0.36853951 0
0.85666293 -1.6677818 -0.36948687 0
0.95214009 -1.640134 -0.36975935 0
1.0379099 -1.6490128 -0.36996359 0
1.1432546 -1.6291382 -0.37203962 0
1.2505445 -1.6532192 -0.37301987 0
1.3631037 -1.649725 -0.37245941 0
1.4537331 -1.6600513 -0.37326747 0
1.5545521 -1.6521803 -0.37429217 0
1.6594008 -1.665319 -0.37551904 0
1.7404071 -1.6493669 -0.3755478 0
1.8439755 -1.6263698 -0.37673399 0
1.932712 -1.6561122 -0.3776668 0
2.0418494 -1.6507174 -0.37799644 0
2.154459 -1.6419145 -0.37886825 0
2.2519786 -1.6658436 -0.38020161 0
2.3664486 -1.6479902 -0.38090202 0
2.4576252 -1.6597258 -0.38147736 0
2.5658371 -1.6536565 -0.38190693 0
2.6431863 -1.6505167 -0.38262925 0
-1.1159515 -1.5435612 -0.39604843 0
-1.0533795 -1.5480312 -0.3870306 0
-0.95416814 -1.5322962 -0.37335113 0
-0.85273314 -1.5440995 -0.36241466 0
-0.75167352 -1.5550801 -0.35580704 0
-0.64367193 -1.5447164 -0.35612765 0
-0.55250132 -1.5478503 -0.35673133 0
-0.45278925 -1.5589235 -0.35826272 0
-0.34303263 -1.5344206 -0.36008537 0
-0.25188345 -1.5346521 -0.35928568 0
-0.14928272 -1.5408782 -0.35859486 0
-0.05010109 -1.5561074 -0.36107504 0
0.050182514 -1.5598809 -0.36195803 0
0.15022284 -1.5504688 -0.36083671 0
0.25153756 -1.5492505 -0.36407402 0
0.35007283 -1.5266844 -0.36302432 0
0.44730541 -1.5351702 -0.36437926 0
0.5527364 -1.562917 -0.36641225 0
0.65076298 -1.5514675 -0.36639228 0
0.74303508 -1.5582652 -0.36800405 0
0.85349315 -1.5454232 -0.36670077 0
0.95051783 -1.5343738 -0.3679702 0
1.0545754 -1.5736346 -0.36987373 0
1.1402133 -1.5298331 -0.37159666 0
1.2321042 -1.5582255 -0.37125623 0
1.3467325 -1.5602424 -0.37115759 0
1.4466522 -1.5597245 -0.37251028 0
1.5402336 -1.5457711 -0.3726944 0
1.6397893 -1.5541043 -0.3731837 0
1.7494026 -1.5653987 -0.37489304 0
1.8242 -1.5360355 -0.37514934 0
1.9481912 -1.5520811 -0.37573868 0
2.0451496 -1.5434469 -0.37635717 0
2.1226804 -1.5468559 -0.37776443 0
2.2384772 -1.5588567 -0.37837759 0
2.3204772 -1.5430217 -0.37831491 0
2.4267209 -1.5395621 -0.37899554 0
2.5419602 -1.562127 -0.38003194 0
2.6557879 -1.5544561 -0.3804085 0
2.7037446 -1.5056015 -0.37997887 0
-1.1036761 -1.4374566 -0.39403847 0
-1.0381417 -1.4572911 -0.38502699 0
-0.94533229 -1.4325476 -0.37119046 0
-0.84774911 -1.4602233 -0.36183047 0
-0.74528348 -1.4408145 -0.35500211 0
-0.65311199 -1.4678521 -0.35452467 0
-0.5536772 -1.433588 -0.35478365 0
-0.44858891 -1.4702202 -0.35706979 0
-0.35592386 -1.4561332 -0.35681671 0
-0.2452004 -1.444476 -0.35807484 0
-0.14169617 -1.4620658 -0.35788435 0
-0.04333875 -1.4497081 -0.35946572 0
0.046338513 -1.4403867 -0.35991934 0
0.14987589 -1.438246 -0.36070997 0
0.24812678 -1.4495271 -0.36236209 0
0.35185671 -1.4398875 -0.36183253 0
0.45479861 -1.4496783 -0.36360139 0
0.55587655 -1.4706099 -0.36503565 0
0.64929831 -1.4390699 -0.36594239 0
0.73061734 -1.4428977 -0.36535314 0
0.83991539 -1.4419338 -0.36584774 0
0.94292986 -1.4515421 -0.36693719 0
1.0309273 -1.4648833 -0.36836734 0
1.1491034 -1.4559019 -0.36897799 0
1.2386613 -1.4367009 -0.36839083 0
1.3471191 -1.4524498 -0.3702108 0
1.4519932 -1.4571878 -0.37030354 0
1.571774 -1.4474899 -0.3712832 0
1.6651808 -1.4687552 -0.37286386 0
1.7524766 -1.4586512 -0.37339351 0
1.8580837 -1.4395783 -0.37312007 0
1.9670081 -1.4550334 -0.37484458 0
2.0754468 -1.4453527 -0.37531313 0
2.1637223 -1.4612449 -0.3757343 0
2.2772048 -1.4447058 -0.37635359 0
2.3729162 -1.4582523 -0.37723234 0
2.4835811 -1.4536595 -0.3780866 0
2.5825043 -1.4624331 -0.37922347 0
2.6613102 -1.4325082 -0.37963328 0
2.7417607 -1.4505835 -0.3808679 0
-1.1299604 -1.3382859 -0.39844072 0
-1.0394082 -1.3273866 -0.38521329 0
-0.95094979 -1.3268006 -0.37331396 0
-0.83854854 -1.3534582 -0.35824177 0
-0.74625617 -1.3348839 -0.35298511 0
-0.64794588 -1.3729177 -0.35356751 0
-0.55249339 -1.3442615 -0.35364828 0
-0.45014662 -1.3479972 -0.35506886 0
-0.35040823 -1.3492597 -0.35585508 0
-0.24127799 -1.3466898 -0.35580438 0
-0.15110675 -1.3565208 -0.35687906 0
-0.05839923 -1.3559202 -0.357265 0
0.042968046 -1.3357235 -0.35816407 0
0.1486298 -1.3337375 -0.35969281 0
0.25028193 -1.3515406 -0.36059606 0
0.33885866 -1.3446413 -0.36057705 0
0.45166174 -1.3381084 -0.36122742 0
0.54517597 -1.3657719 -0.36397621 0
0.65841013 -1.3478578 -0.36291361 0
0.75972384 -1.362465 -0.36331874 0
0.84638816 -1.3306484 -0.36405218 0
0.92906821 -1.3443823 -0.36575881 0
1.0419534 -1.3572049 -0.36785078 0
1.1461391 -1.3550013 -0.36639658 0
1.2652462 -1.3584747 -0.36867017 0
1.3326132 -1.3373699 -0.36771646 0
1.4497184 -1.3543907 -0.36867478 0
1.5498214 -1.34743 -0.36985111 0
1.651347 -1.3545865 -0.37079555 0
1.7553482 -1.3577716 -0.37156832 0
1.8580472 -1.354018 -0.37234649 0
1.9399426 -1.3509821 -0.37264332 0
2.0357683 -1.3327619 -0.37276486 0
2.1276886 -1.3498497 -0.37371168 0
2.2341444 -1.3509645 -0.3750715 0
2.3401487 -1.3473439 -0.37586749 0
2.4346259 -1.3558387 -0.3769637 0
2.5254915 -1.3594214 -0.37744555 0
2.6352015 -1.3462059 -0.37927589 0
2.757663 -1.3594902 -0.38019842 0
2.8040974 -1.3082495 -0.37992746 0
-1.1105183 -1.2500508 -0.39576277 0
-1.0610113 -1.2653867 -0.38773939 0
-0.95961618 -1.2393283 -0.37336126 0
-0.85629499 -1.2796206 -0.3592191 0
-0.76105952 -1.2482692 -0.352465 0
-0.65464228 -1.2482703 -0.35296547 0
-0.53710532 -1.2554603 -0.35262182 0
-0.44925293 -1.2420325 -0.35400864 0
-0.35158005 -1.2783237 -0.35531658 0
-0.27751699 -1.2950557 -0.3549107 0
0.37354559 -1.2858284 -0.35878956 0
0.44784579 -1.2662929 -0.36000463 0
0.55488694 -1.2532637 -0.3609257 0
0.65582085 -1.2504129 -0.36098316 0
0.75102025 -1.2520481 -0.36213386 0
0.85807037 -1.2415853 -0.36295033 0
0.94958633 -1.255321 -0.36475006 0
1.0373764 -1.2372893 -0.3645519 0
1.1585847 -1.2541978 -0.36624482 0
1.2648377 -1.2512827 -0.36592439 0
1.3588711 -1.2644159 -0.36648265 0
1.4322141 -1.2391348 -0.36699924 0
1.5496622 -1.2527312 -0.36878866 0
1.6492285 -1.2569064 -0.36937124 0
1.7500736 -1.2562739 -0.37057054 0
1.8523208 -1.250898 -0.37034217 0
1.9680895 -1.2534719 -0.37106809 0
2.078861 -1.2570975 -0.37196738 0
2.1582394 -1.2564934 -0.3739562 0
2.258281 -1.24334 -0.37397194 0
2.3757949 -1.2569497 -0.37482935 0
2.4565818 -1.2477371 -0.37674567 0
2.561367 -1.2400385 -0.37680149 0
2.6715629 -1.2464871 -0.37725353 0
2.7652562 -1.2422581 -0.37785673 0
2.8162775 -1.241076 -0.37789223 0
-1.1270832 -1.1642972 -0.39810857 0
-1.0547905 -1.1584271 -0.38753647 0
-0.94390905 -1.141876 -0.37029755 0
-0.84502769 -1.1683098 -0.35941052 0
-0.74585241 -1.1505411 -0.352997 0
-0.65352434 -1.1418957 -0.35022002 0
-0.56754112 -1.1829526 -0.35160771 0
0.59655267 -1.1993015 -0.35891128 0
0.64929003 -1.1758872 -0.35999274 0
0.74214119 -1.1525629 -0.35991791 0
0.84693599 -1.1475009 -0.36219338 0
0.9561125 -1.1487707 -0.361929 0
1.0607493 -1.1498489 -0.36315107 0
1.1472039 -1.1459751 -0.36352524 0
1.2509702 -1.151956 -0.36492428 0
1.3598849 -1.1485664 -0.36597398 0
1.4740417 -1.1571394 -0.36694592 0
1.5518484 -1.1479845 -0.36793283 0
1.6654391 -1.1597532 -0.36836284 0
1.7539834 -1.1485642 -0.36939597 0
1.8520346 -1.1454108 -0.36922678 0
1.961293 -1.1443012 -0.37060636 0
2.0397954 -1.1551355 -0.37132597 0
2.1363852 -1.1499896 -0.3714951 0
2.2316935 -1.1602701 -0.37290713 0
2.3282931 -1.1685028 -0.37408248 0
2.4253669 -1.1528178 -0.37402698 0
2.5156069 -1.1518037 -0.37460703 0
2.6125159 -1.1512421 -0.37505317 0
2.7148421 -1.150171 -0.37595084 0
2.8263078 -1.1500654 -0.37703177 0
-1.1191541 -1.0454594 -0.39725381 0
-1.0396091 -1.0482881 -0.38659278 0
-0.94985348 -1.051963 -0.37223926 0
-0.85257524 -1.0506432 -0.35662568 0
-0.75712126 -1.0628589 -0.34976506 0
0.76899505 -1.0958941 -0.35873419 0
0.84232968 -1.0497942 -0.35870528 0
0.93881738 -1.0417274 -0.36059842 0
1.0391107 -1.0407161 -0.36138725 0
1.150246 -1.0592204 -0.36341 0
1.2426807 -1.0409929 -0.36501339 0
1.361794 -1.0531616 -0.36468989 0
1.4525688 -1.0585866 -0.36556348 0
1.5502257 -1.0568432 -0.3667827 0
1.6435578 -1.0427988 -0.36765075 0
1.7522398 -1.0424656 -0.36680219 0
1.8455858 -1.0451455 -0.36796194 0
1.938756 -1.0435205 -0.3684518 0
2.0598981 -1.060178 -0.37023544 0
2.1524429 -1.0420629 -0.37108663 0
2.2713363 -1.0597664 -0.37137306 0
2.3623781 -1.0612625 -0.37184504 0
2.4621663 -1.0639501 -0.3731122 0
2.5539541 -1.0606316 -0.37352228 0
2.6551719 -1.0582842 -0.37447563 0
2.7476406 -1.0497817 -0.37479886 0
2.8622372 -1.0561798 -0.37569171 0
-1.1077702 -0.97707438 -0.39579773 0
-1.0601647 -0.99035037 -0.38874286 0
0.94519204 -0.9484821 -0.35889879 0
1.0482382 -0.95148492 -0.3596344 0
1.1509057 -0.95395768 -0.36136249 0
1.242738 -0.94702876 -0.36214712 0
1.3532255 -0.95886034 -0.36402053 0
1.4372373 -0.95567769 -0.36537546 0
1.5501788 -0.96128494 -0.36402893 0
1.6220882 -0.93397385 -0.36443594 0
1.7393855 -0.95236874 -0.36574361 0
1.8541691 -0.94725561 -0.36736479 0
1.9608531 -0.94927931 -0.36793268 0
2.0611618 -0.9402293 -0.36807802 0
2.1206515 -0.95266503 -0.368238 0
2.2386408 -0.9673661 -0.37011129 0
2.3415775 -0.94621545 -0.37013277 0
2.4371796 -0.97139233 -0.37220669 0
2.5551972 -0.95547408 -0.3727957 0
2.6690481 -0.93319714 -0.37353468 0
2.778583 -0.94923306 -0.37491524 0
2.8771696 -0.94847751 -0.37472391 0
2.9101636 -0.97096103 -0.37668633 0
0.97767931 -0.8875106 -0.35380724 0
1.0438269 -0.85639155 -0.3575936 0
1.1491528 -0.85007727 -0.35936916 0
1.2544001 -0.85906935 -0.36098859 0
1.3327558 -0.84184402 -0.36221814 0
1.4576492 -0.85321695 -0.36232319 0
1.5626291 -0.84112602 -0.36304271 0
1.6644484 -0.85035092 -0.36396828 0
1.7639911 -0.83843035 -0.36477289 0
1.850816 -0.8473593 -0.36562166 0
1.9379958 -0.85398072 -0.36650342 0
2.0297358 -0.84294802 -0.36686316 0
2.1476238 -0.85599458 -0.36879116 0
2.2541111 -0.86120129 -0.36919698 0
2.3524463 -0.86055535 -0.37056863 0
2.4397147 -0.85302639 -0.37062082 0
2.5358522 -0.84606379 -0.37139365 0
2.6249576 -0.85494775 -0.37204722 0
2.7195299 -0.8429628 -0.37230757 0
2.8410182 -0.84937876 -0.37319461 0
2.9229107 -0.86035532 -0.37412167 0
1.0866849 -0.76844007 -0.35666764 0
1.1556613 -0.74474066 -0.35710573 0
1.2520298 -0.74504709 -0.35860872 0
1.3573149 -0.74801773 -0.36000955 0
1.4488641 -0.75328052 -0.36061147 0
1.5371584 -0.75765693 -0.36229077 0
1.6549405 -0.75986207 -0.36310139 0
1.728285 -0.74364591 -0.36431107 0
1.8525479 -0.74442202 -0.36431459 0
1.9683256 -0.75209159 -0.36512718 0
2.0535796 -0.75119144 -0.36648437 0
2.173753 -0.76002473 -0.36724558 0
2.2472446 -0.7413274 -0.36838159 0
2.3578904 -0.74937826 -0.36904681 0
2.4696991 -0.74623799 -0.36941615 0
2.5552294 -0.75210547 -0.36994964 0
2.6456449 -0.75817293 -0.37066719 0
2.7357438 -0.74184817 -0.37087944 0
2.8248956 -0.74435997 -0.3716085 0
2.9256847 -0.74856263 -0.37220582 0
1.1521429 -0.6525467 -0.35489801 0
1.2476118 -0.65999401 -0.35676828 0
1.3661556 -0.66146207 -0.35936245 0
1.4349059 -0.64474517 -0.36102822 0
1.5516719 -0.64441669 -0.36108664 0
1.6575689 -0.64709115 -0.36108157 0
1.7375847 -0.64976096 -0.3611941 0
1.8412249 -0.6616466 -0.36263311 0
1.9458342 -0.65555489 -0.36359483 0
2.0511296 -0.645594 -0.36475432 0
2.1522357 -0.64205366 -0.36577618 0
2.2338376 -0.64526159 -0.3664462 0
2.352144 -0.64671183 -0.36691117 0
2.4667847 -0.64034736 -0.36774495 0
2.5730765 -0.65835935 -0.36853337 0
2.6618578 -0.64057571 -0.36855546 0
2.7522941 -0.64154953 -0.36894691 0
2.8377967 -0.66147947 -0.36974078 0
2.9340544 -0.63978636 -0.36983794 0
1.1945955 -0.57837588 -0.35565767 0
1.2578565 -0.54350746 -0.35643923 0
1.3559246 -0.55177003 -0.35730863 0
1.4417341 -0.54364151 -0.35727105 0
1.5506315 -0.55460417 -0.35824636 0
1.6648136 -0.54224938 -0.35974595 0
1.7707382 -0.54763621 -0.36091852 0
1.8591489 -0.54715389 -0.36186138 0
1.9465752 -0.54278117 -0.36270705 0
2.0305502 -0.55059987 -0.36353478 0
2.1512377 -0.55046564 -0.36405504 0
2.2345562 -0.53773808 -0.36404681 0
2.3200166 -0.55830556 -0.36494854 0
2.4437528 -0.54377687 -0.36521792 0
2.5848658 -0.54430705 -0.36624429 0
2.6720002 -0.54266471 -0.36687338 0
2.7640626 -0.54077095 -0.36740458 0
2.8501613 -0.55761927 -0.36818266 0
2.9465446 -0.56196624 -0.36906686 0
1.2509018 -0.46101514 -0.35442892 0
1.3553854 -0.44128332 -0.35545605 0
1.4735057 -0.44854471 -0.35671327 0
1.5562843 -0.44602203 -0.35741606 0
1.6426169 -0.46061808 -0.35841137 0
1.7747325 -0.44993523 -0.35980326 0
1.8504622 -0.43439636 -0.36043718 0
1.9606794 -0.44222561 -0.36055699 0
2.0404053 -0.4602119 -0.3613646 0
2.1246583 -0.4474597 -0.36163369 0
2.2310996 -0.44310427 -0.36266208 0
2.3335676 -0.45652953 -0.36351421 0
2.4251022 -0.43859676 -0.36409664 0
2.5328383 -0.44849649 -0.36490077 0
2.6684854 -0.45284548 -0.3657912 0
2.7767038 -0.44078201 -0.36643666 0
2.8632946 -0.4545297 -0.36717889 0
2.9549935 -0.44751135 -0.36791977 0
1.265231 -0.35288492 -0.35206136 0
1.3377934 -0.34232402 -0.3526648 0
1.4608893 -0.35836834 -0.35507414 0
1.5394523 -0.33568078 -0.35549459 0
1.6497706 -0.35973445 -0.35669851 0
1.7417848 -0.3564809 -0.35758927 0
1.8334134 -0.35127744 -0.35755193 0
1.9632634 -0.35510302 -0.358309 0
2.0485125 -0.35533768 -0.35972112 0
2.1315727 -0.35404125 -0.3607817 0
2.2408733 -0.33934656 -0.36069807 0
2.3391793 -0.35428882 -0.36170945 0
2.4270611 -0.34985441 -0.3622883 0
2.5342736 -0.34677777 -0.36293268 0
2.6462679 -0.35230657 -0.36403841 0
2.7763498 -0.33939371 -0.36505258 0
2.863477 -0.35004726 -0.36595908 0
2.960856 -0.34049571 -0.36653629 0
1.2862376 -0.25163147 -0.35125101 0
1.3579684 -0.24556136 -0.35222539 0
1.4572209 -0.25862235 -0.35345346 0
1.5325981 -0.24852575 -0.35429537 0
1.6635669 -0.25190437 -0.35515589 0
1.7583933 -0.26656285 -0.35506868 0
1.8273485 -0.24992643 -0.35721457 0
1.9482092 -0.25441459 -0.35806689 0
2.0627253 -0.25224814 -0.35822463 0
2.1434591 -0.2621142 -0.35878792 0
2.2449722 -0.24195729 -0.35948238 0
2.3444693 -0.25268129 -0.3604106 0
2.4316187 -0.26207241 -0.36120239 0
2.5193079 -0.25328916 -0.36180067 0
2.6445649 -0.25452289 -0.36303684 0
2.7611091 -0.23115049 -0.36367273 0
2.8741674 -0.24737257 -0.3643291 0
2.958318 -0.26176906 -0.36494306 0
1.2947865 -0.15847713 -0.34966871 0
1.3415203 -0.14673069 -0.35181591 0
1.4391263 -0.15515845 -0.35241538 0
1.5318825 -0.15480171 -0.35296085 0
1.6490718 -0.13810845 -0.35423866 0
1.7469568 -0.15036884 -0.35480905 0
1.8275508 -0.15731373 -0.35555923 0
1.9550743 -0.14863454 -0.35706514 0
2.0675771 -0.14813383 -0.3576096 0
2.1488371 -0.1539636 -0.35832497 0
2.2553673 -0.14553049 -0.35953957 0
2.3530996 -0.15186872 -0.36027336 0
2.4404078 -0.1574987 -0.36090994 0
2.5277159 -0.16312866 -0.36154649 0
2.6387136 -0.14482002 -0.36166319 0
2.7589436 -0.16462867 -0.36317244 0
2.8711929 -0.14402997 -0.36344585 0
2.9605131 -0.14850314 -0.3642008 0
1.2845328 -0.03676581 -0.34433874 0
1.3443948 -0.050480179 -0.34963712 0
1.45241 -0.048964266 -0.34992459 0
1.5362787 -0.053608954 -0.35151929 0
1.6686655 -0.04777712 -0.35224247 0
1.7436123 -0.049929619 -0.35295156 0
1.8363253 -0.05151616 -0.3538191 0
1.966889 -0.06459251 -0.3553704 0
2.0601599 -0.044250492 -0.35560942 0
2.1416945 -0.04599921 -0.35647473 0
2.2463124 -0.048210748 -0.35759014 0
2.3452005 -0.050319105 -0.35829166 0
2.4325469 -0.052196059 -0.35886821 0
2.5198932 -0.054073017 -0.35944471 0
2.6509128 -0.056888442 -0.36030945 0
2.7819321 -0.059703875 -0.3611742 0
2.8707817 -0.041070018 -0.36131209 0
2.9455953 -0.042141773 -0.36171934 0
1.294205 0.04632799 -0.34700274 0
1.3420933 0.048027106 -0.34988627 0
1.4389892 0.051499922 -0.34976438 0
1.5256699 0.054486137 -0.35010082 0
1.6531429 0.049667638 -0.35182613 0
1.7410443 0.049897872 -0.35218441 0
1.8388712 0.049661838 -0.35302526 0
1.9763491 0.056589529 -0.3539274 0
2.0579882 0.044189632 -0.35450661 0
2.139147 0.045930985 -0.35507205 0
2.237359 0.048018422 -0.35575855 0
2.3331296 0.050065037 -0.35635433 0
2.420373 0.051938605 -0.35688964 0
2.5411134 0.061974775 -0.35751376 0
2.6620443 0.047824457 -0.35851836 0
2.7693479 0.059432879 -0.35903087 0
2.8572335 0.040854692 -0.35965401 0
2.9326773 0.041971557 -0.36013305 0
1.2828509 0.14771858 -0.34611312 0
1.3506838 0.1456776 -0.34664273 0
1.458105 0.15328667 -0.34817636 0
1.5414203 0.14786893 -0.34982508 0
1.6520002 0.14218718 -0.34904927 0
1.7694397 0.15230647 -0.34943023 0
1.8755921 0.14799182 -0.35068884 0
1.9566272 0.15438151 -0.35144362 0
2.0422344 0.14634749 -0.35275367 0
2.1485577 0.15398757 -0.35349926 0
2.2312217 0.13927826 -0.35463804 0
2.339015 0.15940347 -0.35487342 0
2.451942 0.15838894 -0.3559379 0
2.5598893 0.14071441 -0.35700551 0
2.674876 0.15328948 -0.35741192 0
2.7618489 0.15827371 -0.35781962 0
2.8509834 0.14290862 -0.35861501 0
2.9196968 0.14630598 -0.35896745 0
1.2573291 0.24597964 -0.34335655 0
1.3495202 0.25512183 -0.34512696 0
1.4704884 0.24693765 -0.34685749 0
1.5567727 0.24712595 -0.3472586 0
1.6462609 0.25330734 -0.34819904 0
1.7638932 0.24988347 -0.34948888 0
1.8629768 0.2413221 -0.34998059 0
1.9432843 0.25172415 -0.35050619 0
2.0272725 0.24791966 -0.3512809 0
2.1478059 0.26265451 -0.35201466 0
2.2303226 0.24045213 -0.35277873 0
2.3685207 0.24681991 -0.353816 0
2.4774251 0.24898835 -0.35420626 0
2.5656986 0.2393456 -0.35506925 0
2.6524954 0.24744131 -0.3556048 0
2.7392921 0.25553703 -0.35614038 0
2.8540573 0.25267982 -0.35764393 0
2.916842 0.23008533 -0.35925514 0
1.2513881 0.35227442 -0.3425929 0
1.3520874 0.34301978 -0.34362888 0
1.4532638 0.34961861 -0.34623855 0
1.5349315 0.34604678 -0.34630677 0
1.6528729 0.34772071 -0.34706458 0
1.7496464 0.35520482 -0.34707841 0
1.8386483 0.34610224 -0.34849009 0
1.9224323 0.34769288 -0.34920272 0
2.0395184 0.3472015 -0.35020256 0
2.1820631 0.36243841 -0.35157621 0
2.2538047 0.32832795 -0.35273644 0
2.3694334 0.35872388 -0.35284242 0
2.4626162 0.33690739 -0.35365489 0
2.5488644 0.34870732 -0.35409519 0
2.635112 0.36050725 -0.35453543 0
2.725688 0.35307819 -0.35498887 0
2.84266 0.34757337 -0.35522172 0
1.1856178 0.47251526 -0.34200832 0
1.2471668 0.44285333 -0.34273565 0
1.3513962 0.45089933 -0.34385669 0
1.4314442 0.45230603 -0.3440358 0
1.5572822 0.44629675 -0.34499526 0
1.6538051 0.44838971 -0.34545189 0
1.7353549 0.46085131 -0.34640148 0
1.8538373 0.44069424 -0.34610835 0
1.9555345 0.4339363 -0.34777078 0
2.0581388 0.44868106 -0.34832725 0
2.1500552 0.45264959 -0.3487851 0
2.256773 0.44151559 -0.35094833 0
2.3422081 0.45823333 -0.35144743 0
2.435096 0.44028839 -0.35194239 0
2.5207043 0.45577046 -0.35238269 0
2.615463 0.45369428 -0.35334644 0
2.7403035 0.44694161 -0.35437799 0
2.8564506 0.45341903 -0.35512775 0
1.1485745 0.55824715 -0.33850944 0
1.253997 0.5525853 -0.34076613 0
1.3587161 0.54537082 -0.34088647 0
1.4392471 0.54327542 -0.34326711 0
1.5393884 0.55054975 -0.34398454 0
1.6626354 0.55016446 -0.34429064 0
1.7713476 0.54892641 -0.34525111 0
1.8581142 0.5468049 -0.34605071 0
1.9455686 0.54250067 -0.34675732 0
2.0296576 0.55039507 -0.34716299 0
2.1305799 0.54840624 -0.34774584 0
2.239203 0.54759079 -0.34858447 0
2.3518159 0.54821831 -0.34946734 0
2.4600375 0.55524439 -0.35102817 0
2.5628338 0.53960264 -0.35218528 0
2.6665828 0.56143665 -0.35253397 0
2.7693853 0.54182178 -0.35394299 0
2.8318079 0.5541119 -0.35431993 0
1.0709262 0.65793216 -0.33684954 0
1.1484858 0.64882237 -0.33829531 0
1.250782 0.66567546 -0.33840224 0
1.3371052 0.6486764 -0.34179953 0
1.451285 0.65207523 -0.34197888 0
1.5495194 0.63988698 -0.34181947 0
1.6368821 0.65219575 -0.34257323 0
1.7461542 0.65576112 -0.34368032 0
1.8442152 0.65247154 -0.34471625 0
1.9464031 0.64943069 -0.34496537 0
2.0660372 0.66085982 -0.34645709 0
2.1356995 0.63294822 -0.347835 0
2.275718 0.65219492 -0.34794626 0
2.3683028 0.64214861 -0.34842053 0
2.4565511 0.64722598 -0.34897092 0
2.5484865 0.65193897 -0.35007724 0
2.6410427 0.65556145 -0.3514677 0
2.7552722 0.65461135 -0.35213941 0
0.97399259 0.77588546 -0.33370715 0
1.0539305 0.74517566 -0.33537844 0
1.1600521 0.74597085 -0.33665079 0
1.2518322 0.75678313 -0.33825091 0
1.3461173 0.74958497 -0.33889398 0
1.4521134 0.7588414 -0.33913165 0
1.5574853 0.75386143 -0.33938324 0
1.6594865 0.74548429 -0.34253746 0
1.7676001 0.7489562 -0.34171999 0
1.8499038 0.75261176 -0.34138027 0
1.9608146 0.77073544 -0.34168458 0
2.0353496 0.74442744 -0.34327602 0
2.1328459 0.74566239 -0.34447157 0
2.2327807 0.74484211 -0.3459231 0
2.3493891 0.75607246 -0.34704989 0
2.4329545 0.73505068 -0.34846941 0
2.5158851 0.76010662 -0.3486661 0
2.6438222 0.74933946 -0.34881726 0
2.7504303 0.74565291 -0.34992421 0
0.87988901 0.88308525 -0.3340711 0
0.94828326 0.84854788 -0.33241522 0
1.0527782 0.85102624 -0.33420134 0
1.1632643 0.85884815 -0.33623791 0
1.2428511 0.83177632 -0.33567134 0
1.3552316 0.84425867 -0.33748898 0
1.4619198 0.86971223 -0.33821934 0
1.538093 0.84386665 -0.33937392 0
1.6448148 0.8491419 -0.33864331 0
1.7513885 0.84805542 -0.34000227 0
1.857688 0.84241581 -0.34205863 0
1.9678028 0.85447681 -0.34121734 0
2.0672846 0.85846806 -0.34137928 0
2.147162 0.84711277 -0.34257963 0
2.2562497 0.83995211 -0.34420729 0
2.3611755 0.86360884 -0.34495816 0
2.460001 0.8600474 -0.34572092 0
2.5615356 0.85452932 -0.34702241 0
2.6678691 0.85841006 -0.34788793 0
2.7172463 0.84221363 -0.34930301 0
-1.1327238 0.94272554 -0.39488649 0
-1.0559344 0.97202194 -0.38464111 0
-0.93604732 0.99479395 -0.36600268 0
0.76446974 0.96664238 -0.33026254 0
0.84297192 0.94295233 -0.33143014 0
0.94922018 0.95263779 -0.33281249 0
1.0599291 0.96219957 -0.33473709 0
1.1375407 0.94172472 -0.33499014 0
1.2507536 0.93939346 -0.33594504 0
1.3512688 0.95542341 -0.33667138 0
1.4443063 0.94553453 -0.3365615 0
1.5486672 0.95142871 -0.33758733 0
1.6498249 0.94986153 -0.33865684 0
1.742099 0.95389938 -0.33960268 0
1.8364576 0.93822217 -0.33977485 0
1.9288055 0.9507615 -0.34098801 0
2.0318015 0.94788623 -0.34154055 0
2.125602 0.95494229 -0.34220061 0
2.2351971 0.96594787 -0.34250247 0
2.3387537 0.95828205 -0.34331903 0
2.4370792 0.95803815 -0.34489498 0
2.5397923 0.95667911 -0.34588733 0
2.6357205 0.94274253 -0.34634513 0
-1.1381586 1.0486627 -0.39628237 0
-1.0603608 1.0487343 -0.38611624 0
-0.95115465 1.0402732 -0.36935422 0
-0.84921145 1.0464592 -0.35490912 0
-0.74818957 1.0544881 -0.33955124 0
-0.65844953 1.0545659 -0.32782292 0
-0.55413443 1.0565783 -0.31981292 0
-0.48780748 1.0962772 -0.32152218 0
0.56681675 1.0805292 -0.32698584 0
0.65974748 1.0518316 -0.32881641 0
0.74172032 1.0493171 -0.33068648 0
0.84133953 1.0416312 -0.33052051 0
0.95242232 1.0567298 -0.33154139 0
1.0397135 1.0345893 -0.33181685 0
1.1540962 1.0476907 -0.33357379 0
1.2536973 1.0523906 -0.33347225 0
1.3488826 1.056239 -0.33499125 0
1.4539195 1.0329936 -0.33629653 0
1.5720977 1.0454335 -0.33569533 0
1.6721096 1.0440067 -0.33618587 0
1.7689921 1.0523508 -0.33745623 0
1.8599589 1.0511599 -0.33856681 0
1.9740956 1.0444068 -0.34006327 0
2.0655093 1.0552046 -0.34004709 0
2.1690855 1.0499458 -0.34069195 0
2.2664118 1.0573355 -0.34178838 0
2.3622906 1.0612636 -0.34294882 0
2.4541781 1.0605835 -0.3437624 0
2.5596571 1.062923 -0.34481347 0
2.6284263 1.0258974 -0.34644997 0
-1.1210353 1.1415817 -0.39453205 0
-1.0561063 1.1505238 -0.38391429 0
-0.96002489 1.144662 -0.37024656 0
-0.84013772 1.1438357 -0.3524124 0
-0.74767995 1.1473203 -0.34109777 0
-0.64271969 1.1497685 -0.32666013 0
-0.55754966 1.1549326 -0.32017544 0
-0.44307026 1.1526635 -0.32002082 0
-0.34997419 1.1438544 -0.32065061 0
-0.25086921 1.1701574 -0.3207328 0
-0.15722089 1.1809487 -0.31932119 0
-0.055630118 1.1948625 -0.32060459 0
0.042942926 1.1987902 -0.32149243 0
0.17627715 1.1929618 -0.32314554 0
0.25429857 1.1861305 -0.32514176 0
0.34584326 1.1594006 -0.32425314 0
0.4485375 1.1530178 -0.32558939 0
0.53742599 1.1482561 -0.32756478 0
0.64908791 1.1474148 -0.32805037 0
0.75995094 1.1607817 -0.32739508 0
0.85035235 1.1420803 -0.33011645 0
0.93831933 1.1480823 -0.32959437 0
1.0472606 1.1573309 -0.33125237 0
1.1494761 1.1466353 -0.33082646 0
1.2415978 1.1571635 -0.33142361 0
1.3473641 1.1431836 -0.33321112 0
1.4493548 1.15157 -0.33491296 0
1.5398251 1.1461232 -0.33577949 0
1.6498709 1.1489383 -0.3355678 0
1.7618257 1.1533824 -0.33511272 0
1.8519804 1.1380838 -0.33613187 0
1.9651095 1.144065 -0.33761522 0
2.050386 1.1613719 -0.33906034 0
2.1366086 1.1500022 -0.33989441 0
2.2461927 1.154493 -0.34021029 0
2.3497469 1.1583152 -0.3398062 0
2.4521847 1.1657871 -0.34103632 0
2.5368052 1.1482496 -0.3434011 0
-1.1255368 1.261865 -0.39409068 0
-1.0403049 1.2697678 -0.38065711 0
-0.95081586 1.2571537 -0.36819646 0
-0.85865062 1.2566121 -0.35584876 0
-0.74720687 1.2521771 -0.33996931 0
-0.64990997 1.2460051 -0.32552037 0
-0.54533517 1.2498047 -0.31770208 0
-0.46307182 1.2658387 -0.31761506 0
-0.34734491 1.244671 -0.31905556 0
-0.25773844 1.2511052 -0.31963569 0
-0.14809608 1.2491915 -0.31944928 0
-0.049582481 1.2593166 -0.31970629 0
0.051384594 1.2495843 -0.32162324 0
0.14093703 1.2431915 -0.32359269 0
0.2493683 1.2503384 -0.3237282 0
0.35864678 1.2462565 -0.32361087 0
0.44413838 1.255986 -0.32543805 0
0.56014156 1.2628123 -0.3247892 0
0.64658493 1.2481897 -0.32660082 0
0.73882425 1.2404662 -0.32901046 0
0.85872483 1.2424238 -0.32877749 0
0.94811821 1.2532551 -0.32857341 0
1.0588858 1.2738025 -0.32869259 0
1.1510793 1.2439196 -0.33102274 0
1.2556964 1.2602139 -0.33051282 0
1.3522841 1.2452831 -0.33122399 0
1.4660356 1.2561342 -0.33287826 0
1.5519938 1.2549236 -0.33345136 0
1.6493495 1.2570479 -0.33534858 0
1.7271599 1.2445023 -0.33550695 0
1.8403044 1.2427917 -0.3347168 0
1.9469535 1.2451956 -0.33546641 0
2.0277781 1.2461106 -0.33616129 0
2.136724 1.2504981 -0.33761853 0
2.246675 1.2510419 -0.33912897 0
2.3465462 1.2629904 -0.33967614 0
2.4644504 1.2457092 -0.33977449 0
-1.1436547 1.3442934 -0.39562041 0
-1.0642867 1.3455582 -0.38408557 0
-0.96039283 1.3476467 -0.36974284 0
-0.84778672 1.3462914 -0.35442907 0
-0.73881119 1.3612208 -0.33816373 0
-0.65452015 1.3471057 -0.32661748 0
-0.56068289 1.3364713 -0.31932983 0
-0.43894041 1.3435878 -0.3183001 0
-0.34892765 1.3438241 -0.3166281 0
-0.24567156 1.345004 -0.31939942 0
-0.15080522 1.3544677 -0.31922203 0
-0.053575005 1.359951 -0.31861943 0
0.043992531 1.3655226 -0.31985003 0
0.14497133 1.3579316 -0.31997013 0
0.24647313 1.3545817 -0.32251856 0
0.33785486 1.3473719 -0.32286748 0
0.45251128 1.3357233 -0.32448 0
0.54253107 1.3539726 -0.32390445 0
0.6588093 1.3435209 -0.32508308 0
0.74249816 1.344532 -0.32649663 0
0.85335898 1.3345642 -0.32661486 0
0.96748185 1.3580432 -0.32812825 0
1.0431061 1.3386047 -0.32759595 0
1.1488502 1.3503332 -0.32899716 0
1.2519563 1.3497342 -0.33021998 0
1.3523139 1.3453958 -0.3309992 0
1.4484379 1.3534547 -0.33020401 0
1.5556705 1.3720039 -0.33175224 0
1.6464103 1.3308827 -0.33337805 0
1.7526182 1.3357038 -0.33506188 0
1.8493882 1.3477145 -0.33458954 0
1.9470707 1.3558979 -0.33449233 0
2.0580976 1.3473376 -0.33522832 0
2.1628671 1.3504896 -0.33596802 0
2.2711771 1.3512229 -0.33710742 0
2.3681788 1.378511 -0.3382434 0
2.4172635 1.3234917 -0.33945316 0
-1.1421537 1.4445746 -0.39526621 0
-1.0560749 1.4540386 -0.38332695 0
-0.95083892 1.447649 -0.36889091 0
-0.85134047 1.4427419 -0.35422719 0
-0.76135331 1.4515928 -0.34163177 0
-0.64494073 1.4548624 -0.3273429 0
-0.55287707 1.4544138 -0.31494126 0
-0.44509858 1.4541664 -0.31606027 0
-0.33781612 1.4566499 -0.31673542 0
-0.25248948 1.4498276 -0.31685549 0
-0.15038186 1.4446819 -0.31808507 0
-0.057099424 1.4492348 -0.31788498 0
0.046867978 1.4545933 -0.31885773 0
0.15060084 1.4469122 -0.31904116 0
0.25583977 1.4440403 -0.32110709 0
0.36681029 1.4427271 -0.32162777 0
0.45018372 1.4450155 -0.32242817 0
0.54752195 1.448691 -0.32277349 0
0.64462495 1.4493048 -0.32406998 0
0.75612855 1.4670093 -0.32445386 0
0.8471356 1.4352982 -0.3258 0
0.93764544 1.4438517 -0.32675192 0
1.0461528 1.4419414 -0.32743511 0
1.1547563 1.4388632 -0.32742244 0
1.255349 1.4502888 -0.32857233 0
1.3548867 1.452541 -0.32952371 0
1.4733725 1.4622296 -0.33146417 0
1.5482277 1.4569772 -0.32990515 0
1.6462429 1.4309891 -0.33176583 0
1.745828 1.4531463 -0.3324635 0
1.8467001 1.4495908 -0.33377832 0
1.9612647 1.4508164 -0.3337779 0
2.0575974 1.4476408 -0.33404985 0
2.1428902 1.4471321 -0.33464658 0
2.2571774 1.459379 -0.33558294 0
2.3298984 1.4317096 -0.33601072 0
-1.1377935 1.549659 -0.39515501 0
-1.0586854 1.555426 -0.38391021 0
-0.96155912 1.5518695 -0.36964059 0
-0.85101926 1.540494 -0.35444325 0
-0.74489063 1.5623463 -0.33944762 0
-0.65294015 1.5501827 -0.32667261 0
-0.54685748 1.5286363 -0.31479901 0
-0.45154887 1.5429932 -0.31411606 0
-0.35187298 1.566619 -0.31444532 0
-0.25845984 1.5635133 -0.31392846 0
-0.15028381 1.5511079 -0.31683815 0
-0.050175264 1.5566348 -0.31694677 0
0.052861877 1.551331 -0.31802082 0
0.15099156 1.5578624 -0.31872261 0
0.24583401 1.5442926 -0.31892037 0
0.34321615 1.5473632 -0.3202441 0
0.44858244 1.5744972 -0.32035735 0
0.55151355 1.5461 -0.32180089 0
0.64592105 1.5360129 -0.3221336 0
0.72927773 1.5486023 -0.32470086 0
0.85196584 1.5427579 -0.32432356 0
0.94404411 1.5738697 -0.32508001 0
1.0520896 1.5459057 -0.32616773 0
1.1483902 1.5408961 -0.3264364 0
1.2344215 1.5565014 -0.32696187 0
1.3434441 1.556513 -0.32756883 0
1.435902 1.5409265 -0.32903668 0
1.5275871 1.5550776 -0.33095911 0
1.6372809 1.5518415 -0.32964835 0
1.7411458 1.5534785 -0.33098096 0
1.8618867 1.5497441 -0.33245754 0
1.950179 1.553884 -0.33315316 0
2.041007 1.5555015 -0.33297393 0
2.1530845 1.5455699 -0.3331055 0
2.2425439 1.537904 -0.3344323 0
-1.1263129 1.6636912 -0.39362815 0
-1.0435358 1.6466124 -0.38157859 0
-0.94430226 1.637388 -0.36722007 0
-0.84550261 1.6260272 -0.35370961 0
-0.74905872 1.650966 -0.34051776 0
-0.65393341 1.6509291 -0.32590386 0
-0.55152154 1.6561629 -0.3172836 0
-0.46702957 1.6427234 -0.31333038 0
-0.3543812 1.6533934 -0.31278586 0
-0.2310461 1.6435522 -0.31456748 0
-0.15027346 1.6386644 -0.31554449 0
-0.053986102 1.6349194 -0.31619781 0
0.047090687 1.6304612 -0.31670296 0
0.15458596 1.6369917 -0.31788883 0
0.25249544 1.6412474 -0.31753328 0
0.34967169 1.6315494 -0.31904274 0
0.4571335 1.6623077 -0.31905496 0
0.55349064 1.6393991 -0.320463 0
0.6447593 1.6547884 -0.32056624 0
0.75416267 1.6625462 -0.3225565 0
0.85358971 1.6560808 -0.32212627 0
0.95891267 1.6515721 -0.32412392 0
1.0489722 1.6562704 -0.32429346 0
1.1504934 1.6650672 -0.32490051 0
1.228828 1.6490065 -0.32576066 0
1.3378617 1.6506053 -0.32720116 0
1.4648175 1.6566452 -0.32696739 0
1.5574876 1.63156 -0.32905662 0
1.6553504 1.661345 -0.32909966 0
1.7696923 1.6532906 -0.32898608 0
1.8623867 1.6585552 -0.33020499 0
1.9331567 1.6325972 -0.33241707 0
2.0530837 1.6596514 -0.33253717 0
2.1406915 1.6558316 -0.33234021 0
-1.1346228 1.7464855 -0.39436486 0
-1.0443795 1.7641392 -0.38109094 0
-0.9619692 1.7424767 -0.37012014 0
-0.85342032 1.7464972 -0.35458362 0
-0.74852377 1.7492933 -0.33989143 0
-0.64526612 1.7446645 -0.32468686 0
-0.5558275 1.7704494 -0.31662187 0
-0.45375824 1.747327 -0.31138214 0
-0.3588593 1.734268 -0.31212506 0
-0.25912315 1.7541307 -0.31238866 0
-0.15034412 1.7586504 -0.31405649 0
-0.054559667 1.7487648 -0.31464717 0
0.049082648 1.7501192 -0.3152993 0
0.14667296 1.7561433 -0.31682593 0
0.24427585 1.7568954 -0.3161324 0
0.35144302 1.7626568 -0.31742999 0
0.45227429 1.7419486 -0.31781244 0
0.55445379 1.754294 -0.31873414 0
0.65454459 1.7698709 -0.31923288 0
0.75875592 1.7384928 -0.32084429 0
0.84983969 1.7717106 -0.32116351 0
