# .PCD v0.7 - Point Cloud Data file format
VERSION 0.7
FIELDS x y z intensity
SIZE 4 4 4 4
TYPE F F F F
COUNT 1 1 1 1
WIDTH 124
HEIGHT 1
VIEWPOINT 0 0 0 1 0 0 0
POINTS 124
DATA ascii
-37.1861 19.738888 5.168272 11
-36.703297 20.162893 0.73089057 8
-36.685349 20.153072 2.1932068 9
-36.140087 20.534143 3.6358166 10
-36.101852 20.512497 6.5750494 12
-36.084442 20.50264 8.0654459 13
-27.53367 -1.9803735 7.396647 15
-27.181803 -13.448945 5.8937922 13
-27.167122 -13.441693 6.996438 14
-27.198141 -12.498445 8.0191011 15
-9.0709581 40.125637 7.9876409 13
-8.5518274 40.520557 6.5516968 12
-7.7257066 6.0104265 0.17057538 8
-7.7291665 6.0131202 0.51243663 9
-7.7244964 6.0095062 0.85495788 10
-7.7304764 6.0141563 1.20082 11
-7.7213788 6.0071082 1.5471697 12
-7.7125688 6.0002823 1.8966343 13
-7.707056 5.9960151 2.2510555 14
-7.7075782 5.9964309 2.6127944 15
-7.497818 41.359077 2.1994393 9
-7.4941397 41.339096 3.6708045 10
-7.1718965 -12.058588 -0.24492465 7
-7.1748815 -12.063578 0.24418847 8
-7.1770177 -12.06715 0.73421681 9
-7.1745186 -12.062953 1.2255408 10
-7.1715598 -12.057984 1.7194228 11
-7.1846571 -12.079924 2.2221129 12
-7.1867204 -12.083372 2.7280035 13
-7.1883259 -12.086053 3.2408834 14
-7.1897893 -12.088496 3.7622452 15
-6.958147 41.785 0.73733407 8
-6.9460535 41.713402 5.1859117 11
-6.3471642 6.0540133 2.0208709 14
-6.3296075 6.0373282 2.3389733 15
-6.0062389 6.067646 0.44638461 9
-6.0123401 6.0738025 0.74598962 10
-5.9933934 6.054698 0.14831139 8
-5.899332 7.9703469 0.17253916 8
-5.888041 7.9551497 0.51729447 9
-5.8808994 7.7123332 0.84633982 10
-5.9996419 6.0610242 1.0447619 11
-5.8304086 6.0617571 1.3289727 12
-5.8846378 7.9505997 1.2114211 11
-5.8576684 7.4582291 1.4982709 12
-5.830133 6.0614834 1.6309471 13
-5.874208 7.9365797 1.9144763 13
-5.8361731 6.6140108 2.0315075 14
-5.8254671 6.6019282 2.3534868 15
-5.8656583 8.4184151 2.3628144 14
-5.8605585 7.9182243 2.6329818 15
-5.3791685 -11.988764 -0.22930032 7
-5.2650714 -12.199125 0.23101543 8
-5.2659049 -12.201031 0.69455922 9
-5.2620196 -12.192044 1.158909 10
-5.2455564 -12.154028 1.6215343 11
-5.2536306 -12.172647 2.0950105 12
-5.2430754 -12.148265 2.5660696 13
-5.2397981 -12.140682 3.0459242 14
-5.2271647 -12.111505 3.5266905 15
1.4816473 -5.7918949 -0.31064028 6
6.7529182 15.406039 0.29798517 8
6.7615013 15.425923 0.89065182 9
6.7632589 15.43006 1.4855087 10
6.7725477 15.451574 2.0866604 11
6.7714157 15.449041 2.6904848 12
6.7866826 15.484352 3.3088593 13
6.7949748 15.503572 3.9343467 14
8.7046194 15.425464 3.4636929 13
8.6945724 15.407522 4.1086354 14
8.6901827 15.399714 4.7657323 15
16.921803 -36.21339 -0.69753504 7
16.948067 -36.270405 4.9079094 11
18.193113 -36.19326 0.70533615 8
18.195959 -36.199131 2.1195772 9
19.498476 -36.169693 3.5892706 10
20.17424 -36.173321 6.5503411 12
27.902985 12.215487 -0.52840137 7
27.813772 14.638585 0.55311269 8
27.83638 14.650528 1.6541219 9
27.856247 14.661018 2.7606952 10
27.856827 14.661279 3.8729506 11
27.924168 13.193027 4.8995013 12
27.839653 15.689945 6.2224851 13
27.969965 13.214744 7.1517639 14
27.970831 13.2151 8.3001232 15
28.554974 -4.2092919 2.5246985 10
28.56472 -4.2107854 3.5436816 11
28.627449 -7.6401882 -0.51491547 7
28.746557 -3.817224 -0.5037021 7
28.655649 -7.6477308 0.51869857 8
28.670273 -7.6516862 1.5548805 9
28.686512 -7.6560688 2.596072 10
28.691372 -7.6574459 3.6433814 11
28.633068 -5.485465 4.6143851 12
28.628923 -5.4847722 5.661871 13
28.646116 -5.4881086 6.7283974 14
28.67226 -5.4931359 7.815938 15
28.887178 -14.867335 -0.56519407 7
28.896523 -14.872229 0.56751043 8
28.805054 -3.8249054 0.50872838 8
28.872129 -3.8337023 1.5269752 9
28.924673 -14.886766 1.7034445 9
28.937878 -14.893641 2.8442926 10
28.946281 -14.898059 3.9925165 11
28.965717 -14.908129 5.1532612 12
28.987707 -14.399198 8.6613207 15
29.037266 -16.557199 6.4887738 13
29.024399 -16.004417 7.6417923 14
50.952618 10.270743 -0.90212768 7
50.939411 11.797863 0.91807663 8
50.943718 11.798754 2.7460485 9
50.972324 11.80532 4.5832286 10
50.979458 11.806867 6.4310274 11
51.133991 5.0549693 -0.89214331 7
51.077354 7.2785363 0.90532452 8
51.103954 7.2822542 2.7099133 9
51.180565 5.8013511 4.5104809 10
51.287945 0.64283514 -0.89086735 7
51.288696 1.378134 0.89954317 8
51.287033 2.1139581 2.6937256 9
51.332912 1.3791295 4.4956331 10
51.25362 4.3255029 6.3189182 11
51.443207 -0.83019298 6.3190603 11
