# .PCD v0.7 - Point Cloud Data file format
VERSION 0.7
FIELDS x y z intensity
SIZE 4 4 4 4
TYPE F F F F
COUNT 1 1 1 1
WIDTH 1400
HEIGHT 1
VIEWPOINT 0 0 0 1 0 0 0
POINTS 1400
DATA ascii
-29.967651 -12.166665 0.56377774 8
-29.960058 -11.66799 0.56045371 8
-29.943985 -11.171878 0.55712342 8
-29.929453 -10.682032 0.55397159 8
-29.788713 -2.1314144 0.52107269 8
-29.783388 -1.70381 0.52053505 8
-29.773876 -1.2768693 0.52003205 8
-29.773254 -0.85097182 0.51979184 8
-29.756912 -0.42520851 0.51938415 8
-29.78212 -2.1309361 1.5645435 9
-29.771431 -1.7031202 1.5625864 9
-29.756876 -1.276136 1.5607491 9
-29.771675 -0.85092354 1.5607723 9
-29.764105 -0.42530906 1.5599422 9
-29.947184 -12.158313 1.6929365 9
-29.940445 -11.660309 1.6829829 9
-29.94964 -11.173953 1.6743735 9
-29.931362 -10.682677 1.6646682 9
-29.672216 -24.271044 2.0080192 9
-29.922218 -11.163677 2.7930515 10
-29.91186 -10.675679 2.7775881 10
-29.779074 -2.1307123 2.6116891 10
-29.751633 -1.7019823 2.6069334 10
-29.751881 -1.2759175 2.6051428 10
-29.747862 -0.85023934 2.6035132 10
-29.75326 -0.42515174 2.6032417 10
-29.948233 -12.158695 2.8267183 10
-29.926241 -11.654733 2.80866 10
-29.671524 -24.270355 3.3525391 10
-29.941059 -12.155739 3.9664359 11
-29.912487 -11.649334 3.9402258 11
-29.896866 -11.154178 3.9168043 11
-29.895357 -10.669751 3.8962677 11
-29.7726 -2.1302426 3.6646159 11
-29.764709 -1.7027254 3.6603348 11
-29.729214 -1.2749412 3.6534157 11
-29.735069 -0.84987056 3.6523299 11
-29.723518 -0.42472446 3.6498544 11
-29.656231 -24.257711 4.7029128 11
-29.759348 -2.1292877 4.72508 12
-29.740335 -1.7013257 4.7177863 12
-29.722099 -1.2746317 4.7115893 12
-29.734135 -0.84984064 4.7111607 12
-29.72603 -0.42475805 4.7085042 12
-29.911997 -12.143892 5.1116824 12
-29.895548 -11.642693 5.0799565 12
-29.902193 -11.156127 5.0535202 12
-29.886751 -10.666643 5.0246773 12
-29.73815 -2.1277642 5.7948565 13
-29.73103 -1.700788 5.7882171 13
-29.736774 -1.2752569 5.7852736 13
-29.710594 -0.84916443 5.777307 13
-29.718651 -0.42465025 5.7771821 13
-29.66897 -24.268024 6.0692601 12
-29.903866 -11.645895 6.2363544 13
-29.882252 -11.148646 6.1980343 13
-29.884117 -10.665667 6.1662259 13
-29.720808 -2.1265171 6.878653 14
-29.720501 -1.7001802 6.8723416 14
-29.724604 -1.2747306 6.8684611 14
-29.698181 -0.84880608 6.8589387 14
-29.709068 -0.42451093 6.8594398 14
-29.880043 -11.63657 7.4012198 14
-29.88345 -11.149055 7.3619022 14
-29.873028 -10.661669 7.3211074 14
-29.718616 -2.1263533 7.9829121 15
-29.718151 -1.7000402 7.9755402 15
-29.712515 -1.2742077 7.9684205 15
-29.70285 -0.8489362 7.9618578 15
-28.836702 -24.283047 0.65727466 8
-28.833607 -24.28031 1.9745494 9
-28.821646 -24.270107 3.2953496 10
-28.831867 -24.278599 4.6267037 11
-28.835007 -24.28112 5.968987 12
-28.029646 -24.295717 0.64674598 8
-28.029654 -24.295599 1.9430751 9
-28.029623 -24.295446 3.2441463 10
-28.015356 -24.282948 4.550869 11
-28.021177 -24.287874 5.8717241 12
-27.207336 -25.704597 0.65269005 8
-27.245817 -24.306086 0.63663012 8
-27.253462 -24.312782 1.9131626 9
-27.252319 -24.311636 3.1940558 10
-27.240339 -24.300808 4.4808998 11
-27.239353 -24.299799 5.7800264 12
-27.19223 -24.964886 0.64367485 8
-27.180244 -25.678843 1.9588073 9
-27.183538 -24.956768 1.9331169 9
-27.180401 -25.67885 3.2703774 10
-27.177053 -24.950676 3.2267158 10
-27.161251 -25.66061 4.5867319 11
-27.144159 -24.920317 4.5232158 11
-27.149616 -25.649469 5.9142036 12
-27.138254 -24.914761 5.8335443 12
-23.545334 -27.181829 -1.8847035 6
-22.042795 -14.167829 -0.45782891 7
-18.1453 -18.145962 -1.3449076 6
-18.082335 11.632288 -0.37432814 7
-15.329681 -13.280881 -0.35423392 7
-14.956913 36.971809 0.70016766 8
-14.954314 36.965649 2.0943441 9
-14.954791 36.967079 3.4938931 10
-14.949699 36.954765 4.9003124 11
-14.952078 36.960899 6.3210735 12
-14.949301 36.954308 7.7554407 13
-14.473927 37.303368 0.70246035 8
-14.464872 37.280334 2.1002421 9
-14.46567 37.282654 3.5038109 10
-14.465387 37.282211 4.9157991 11
-14.462566 37.275227 6.338809 12
-14.465108 37.282051 7.7800102 13
-13.981284 37.619678 -0.69699866 7
-13.983989 37.627239 0.70472497 8
-13.978492 37.612762 2.1074946 9
-13.979999 37.617111 3.5160937 10
-13.974594 37.602886 4.9312229 11
-13.973079 37.599113 6.3592505 12
-13.973827 37.601433 7.8041492 13
-13.484426 37.935406 0.70681441 8
-13.487226 37.943588 2.1150067 9
-13.485192 37.93819 3.5277154 10
-13.485544 37.939499 4.949564 11
-13.479247 37.922131 6.38062 12
-13.480396 37.925697 7.8306265 13
-12.990266 38.270374 0.70952159 8
-12.989094 38.267273 2.1224749 9
-12.993531 38.28067 3.5419145 10
-12.986516 38.260376 4.9666791 11
-12.983814 38.252781 6.4043436 12
-12.986835 38.262016 7.8609023 13
-12.493698 38.612602 0.71247876 8
-12.490579 38.603348 2.1309843 9
-12.495288 38.61824 3.5562425 10
-12.489019 38.599274 4.9869647 11
-12.486329 38.591351 6.4304585 12
-11.985567 38.934063 0.71517032 8
-11.99039 38.950111 2.1404338 9
-11.98437 38.931789 6.4579492 12
-11.479671 39.278774 -0.71067977 7
-11.479726 39.279381 0.71841788 8
-11.4789 39.277431 3.5852129 10
-11.476048 39.268127 5.0288734 11
-11.47278 39.257408 6.4840608 12
-10.966965 39.620022 0.72169715 8
-10.964928 39.613155 2.158726 9
-10.963122 39.607117 3.6006091 10
-10.962142 39.604057 5.0512772 11
-10.959715 39.595779 6.5133667 12
-10.449563 39.964531 0.72516578 8
-10.448958 39.962738 2.1693962 9
-10.446115 39.952396 3.6180272 10
-10.448958 39.963772 5.0775537 11
-9.7799845 -11.608597 -0.26489866 7
-9.9292498 40.321926 2.1809452 9
-9.925828 40.308617 3.6370354 10
-9.9248209 40.305099 5.1023378 11
-9.9271231 40.314999 6.5822029 12
-9.3631325 -11.607855 -0.26023826 7
-9.3627825 -11.607422 0.26024938 8
-9.4411001 6.3637314 0.19950233 8
-9.3648596 -11.609797 0.78152722 9
-9.5858278 6.3631301 0.604092 9
-9.3990831 40.663773 0.73264706 8
-9.446311 6.3672414 0.99816233 10
-9.3637657 -11.608397 1.3045055 10
-9.5874052 6.3641772 1.4147635 11
-9.2357731 -11.619162 1.8219646 11
-9.4924393 -11.598618 1.8397472 11
-9.5938444 6.3684506 1.8260157 12
-9.2294941 -11.611166 2.3486042 12
-9.4875145 -11.59251 2.3719161 12
-9.4436216 6.3654194 2.216363 13
-9.3979588 40.659531 2.1916919 9
-9.4459906 6.3670506 2.6329656 14
-9.3628902 -11.607127 2.898006 13
-9.4478474 6.3683534 3.0563815 15
-9.2244511 -11.604644 3.4215145 14
-9.4925337 -11.598495 3.4592106 14
-9.2139254 -11.591292 3.9665031 15
-9.3950195 40.647449 3.655086 10
-9.4973907 -11.604361 4.0168519 15
-9.3980331 40.661091 5.1298327 11
-9.3957624 40.651905 6.6145573 12
-8.8654709 41.018497 -0.72884095 7
-8.9600859 -11.608528 0.25593987 8
-9.0060415 6.3569031 0.19318312 8
-8.9619732 -11.610896 0.76851672 9
-9.0071516 6.3576856 0.57892597 9
-8.8671513 41.026924 0.73681271 8
-9.0127373 6.3616271 0.96665967 10
-8.9641142 -11.613597 1.2832214 10
-9.0103588 6.359951 1.3560531 11
-8.9592228 -11.607164 1.7999067 11
-9.0085325 6.3586636 1.7487047 12
-8.9543371 -11.600739 2.3204765 12
-9.0094728 6.3593287 2.1462271 13
-8.86234 41.005402 2.2032554 9
-8.9643517 -11.613658 2.8510156 13
-9.0183144 6.3655686 2.9612224 15
-8.9685373 -11.619008 3.3877492 14
-8.9545631 -11.600782 3.9257131 15
-8.8630667 41.009418 3.6758318 10
-8.8634224 41.011749 5.1575174 11
-8.8608789 41.000687 6.6499677 12
-8.7085886 -11.621735 -0.76083159 6
-8.5849075 -11.627621 -0.25215217 7
-8.4596453 6.3416352 -0.18415634 7
-8.5814772 -11.622761 0.25219962 8
-8.4681644 6.3480215 0.18550502 8
-8.5812588 -11.622437 0.75704205 9
-8.5966234 6.3477087 0.56120479 9
-8.466156 6.3465204 0.92724371 10
-8.5737782 -11.612316 1.2626417 10
-8.6041584 6.3533049 1.3152075 11
-8.57691 -11.616355 1.7726305 11
-8.6054878 6.3543334 1.6966368 12
-8.5773554 -11.616876 2.2866685 12
-8.7334061 6.3536673 2.1020069 13
-8.4497232 -11.61721 2.7916842 13
-8.6052561 6.3541384 2.4727681 14
-8.7052326 -11.616665 2.8210433 13
-8.4869432 6.3621058 2.8456414 15
-8.5750113 -11.613494 3.332164 14
-8.5779867 -11.617485 3.8686826 15
-8.0427208 -14.714821 -0.87842488 6
-8.3268251 41.382782 -0.73313642 7
-8.0542431 -15.793088 -0.30902162 7
-8.049346 -15.240816 -0.30046105 7
-8.036972 -14.704137 -0.29213932 7
-8.029067 -14.203143 -0.28445897 7
-8.022377 -13.729225 -0.27725658 7
-8.0071936 -13.264069 -0.27016637 7
-8.2041683 -11.624985 -0.24818958 7
-8.0542374 -15.792925 0.30983031 8
-8.0383186 -15.219741 0.3007777 8
-8.0336752 -14.697955 0.29267514 8
-8.0187578 -14.184732 0.28467992 8
-8.0084639 -13.705235 0.27729768 8
-8.0082502 -13.265713 0.27066579 8
-8.2103386 -11.633667 0.24859343 8
-8.2193422 6.3472805 0.18204379 8
-8.1981821 -11.616311 0.74505806 9
-8.2083406 6.3387928 0.54468381 9
-8.324935 41.374142 0.7408151 8
-8.0389566 -15.762727 0.927661 9
-8.0366688 -15.21646 0.90214252 9
-8.0264254 -14.684517 0.87728059 9
-8.01406 -14.176273 0.85363764 9
-8.0083742 -13.704959 0.83202934 9
-8.2182436 6.3464379 0.9099952 10
-8.0346022 -15.754009 1.5474985 10
-8.0330315 -15.209409 1.5050832 10
-8.0187101 -14.670226 1.4628769 10
-8.0105066 -14.169841 1.4242089 10
-8.0005512 -13.252697 1.3543812 10
-8.2053938 -11.626464 1.2448037 10
-8.2144842 6.3435378 1.2763033 11
-8.0009041 -13.691898 1.947137 11
-8.2093 -11.631931 1.7477808 11
-8.2235603 6.3505454 1.6480044 12
-8.0341244 -15.752914 2.1715028 11
-8.0200253 -15.184571 2.1086948 11
-8.013113 -14.65982 2.0514679 11
-8.2079639 -11.629943 2.2541168 12
-8.2158346 6.3445864 2.2101271 13.5
-8.0261774 -15.73713 2.7981889 12
-8.0149364 -15.17476 2.71823 12
-8.0101309 -14.65421 2.6451657 12
-8.2017059 -11.620964 2.7642553 13
-8.2239189 6.3508306 2.7877755 15
-8.0216665 -15.728102 3.4320776 13
-8.0072422 -15.160005 3.3326831 13
-8.0043106 -14.643395 3.2438688 13
-8.1999683 -11.618405 3.2824099 14
-8.0029421 -15.15169 3.9560456 14
-8.2058887 -11.626721 3.8123333 15
-8.0052748 -15.695712 4.0678706 14
-8.0024214 -15.689935 4.7194457 15
-8.3238497 41.371002 5.1871576 11
-8.3229523 41.367306 6.6893954 12
-7.9929748 -12.423335 -0.7738663 6
-7.7814245 41.749916 -0.73760867 7
-7.9958415 -12.827068 -0.26358488 7
-7.9932218 -12.42362 -0.25763324 7
-7.984776 -12.029024 -0.25180778 7
-7.9785414 -11.654575 -0.24634665 7
-7.6578441 6.6468115 -0.17659281 7
-7.6418066 7.6568274 -0.18833013 7
-7.6199102 8.8137379 -0.20276618 7
-7.6071529 10.188293 -0.22120732 7
-7.997395 -12.82946 0.26404405 8
-7.9861274 -12.412468 0.25775975 8
-7.9759908 -12.015658 0.25183696 8
-7.8508968 6.3356171 0.17687728 8
-7.6579142 6.4570923 0.17564079 8
-7.6458426 6.9303393 0.1809822 8
-7.6469126 7.3406053 0.18593019 8
-7.6321836 7.7581658 0.19091916 8
-7.6268687 8.092268 0.19508979 8
-7.6252441 8.5690155 0.20126261 8
-7.61621 8.9389038 0.20607537 8
-7.6045437 9.4607258 0.21302117 8
-7.6007476 9.8817186 0.21879758 8
-7.9901009 -12.817622 0.79163778 9
-7.9801183 -12.403007 0.77296311 9
-7.9752631 -12.014466 0.75574338 9
-7.9759569 6.3436656 0.5352661 9
-7.6493878 6.5447049 0.52882719 9
-7.6410985 6.9260068 0.54176891 9
-7.6391449 7.3331385 0.55631095 9
-7.6294727 7.7553964 0.57156515 9
-7.6317339 8.0974369 0.58459365 9
-7.6206441 8.5638666 0.60229319 9
-7.6173172 8.9403086 0.61712307 9
-7.6108751 9.3299866 0.63262779 9
-7.610074 9.6063356 0.64392382 9
-7.7801142 41.74371 0.74534202 8
-7.9929519 -13.240191 0.81063247 9
-7.8564758 6.3401628 0.88485879 10
-7.6472926 6.4481511 0.87676626 10
-7.6368642 6.9220958 0.90348893 10
-7.6325521 7.3269038 0.92744678 10
-7.6314292 7.7573776 0.9539209 10
-7.6172791 8.0821247 0.97355926 10
-7.6121249 8.6794767 1.0120487 10
-7.6083241 9.6041508 1.0740991 10
-7.9966998 -13.684808 1.3867627 10
-7.9862175 -12.811269 1.3207587 10
-7.9786134 -12.400559 1.290001 10
-7.9678993 -12.003248 1.2603482 10
-7.9649777 6.3349447 1.2515624 11
-7.6391602 6.5043559 1.3527555 11.333333
-7.6397934 6.924736 1.2682166 11
-7.6298804 7.3244181 1.3008904 11
-7.6218224 7.7476664 1.3367971 11
-7.6197572 8.0847635 1.3664675 11
-7.6060991 8.5475664 1.407329 11
-7.6035614 9.0535145 1.45421 11
-7.6044941 9.3222103 1.4797421 11
-7.9989967 -14.149299 1.9957734 11
-7.9848723 -13.226546 1.896947 11
-7.9786325 -12.59973 1.8310469 11
-7.9703999 -12.00693 1.7692995 11
-7.8938851 6.3393965 1.8485615 12.666667
-7.6344666 6.5635424 1.8385231 12.666667
-7.6267843 6.9130197 1.6329648 12
-7.620883 7.2109628 1.6643769 12
-7.6265054 7.7524209 1.7252368 12
-7.6138215 8.1961117 1.7747462 12
-7.6158252 8.5584984 1.8174562 12
-7.6098843 9.0610504 1.8771551 12
-7.967546 -12.781023 2.3852301 12
-7.9710746 -12.38861 2.3329611 12
-7.9506536 -11.977011 2.2765636 12
-7.8640404 6.3462243 2.3363075 14
-7.6283607 6.621274 2.3354211 14
-7.6261764 6.9456353 2.258924 13.666667
-7.6265612 7.3211751 2.0581505 13
-7.6177139 7.7436171 2.1147509 13
-7.6137962 8.3136215 2.1946795 13
-7.6073751 8.6741705 2.2461762 13
-7.7799487 41.743652 2.2299964 9
-7.9896226 -14.132543 2.5712979 12
-7.9927459 -13.677782 2.5090272 12
-7.9843216 -13.225517 2.446692 12
-7.956048 -11.985062 2.7958052 13
-7.8624272 6.3449082 2.7109106 15
-7.6377988 6.4401722 2.6807408 15
-7.6164932 6.9036827 2.7584476 15
-7.6182752 7.3131871 2.441715 14
-7.6043353 7.8406072 2.525414 14
-7.6123557 8.1945705 2.5861189 14
-7.6047378 8.5460787 2.6450047 14
-7.9956374 -14.14308 3.1579659 13
-7.9876304 -13.668879 3.0771961 13
-7.9779305 -13.214788 3.0002697 13
-7.965601 -12.777787 2.9265394 13
-7.9740973 -12.393215 2.8642015 13
-7.6188717 7.3138456 2.8340285 15
-7.6117878 7.7374306 2.912586 15
-7.9683442 -13.198749 3.5591042 14
-7.9617753 -12.771523 3.4741583 14
-7.962225 -12.374612 3.3967233 14
-7.9528961 -11.980203 3.3192501 14
-7.9874535 -14.612332 3.8445683 14
-7.9826713 -14.119951 3.7445841 14
-7.9772429 -13.650931 3.6499932 14
-7.9495492 -12.354756 3.9359488 15
-7.946085 -11.969816 3.8490202 15
-7.7785587 41.737049 3.7195153 10
-7.9811087 -14.117044 4.3450933 15
-7.9623671 -13.625283 4.2282519 15
-7.9663658 -13.195344 4.1296597 15
-7.957561 -12.764633 4.0299654 15
-7.9890418 -15.125152 4.5833635 15
-7.9897432 -14.61639 4.4632626 15
-7.7780581 41.735191 5.2182965 11
-7.777153 41.73119 6.7295146 12
-7.2286983 42.118423 -0.74223417 7
-7.5738292 11.82008 -0.24415131 7
-7.5502501 13.874316 -0.27462533 7
-7.5157547 16.521944 -0.3154842 7
-7.5999966 10.178746 0.22295398 8
-7.5912185 10.797979 0.23168349 8
-7.5912561 11.13308 0.23652832 8
-7.5844479 11.47218 0.24141164 8
-7.57412 11.820572 0.24644597 8
-7.5683551 12.191874 0.25191233 8
-7.5632887 12.581653 0.25771198 8
-7.562449 12.997497 0.26399437 8
-7.5472684 13.408796 0.27013493 8
-7.5505676 13.874958 0.27732861 8
-7.54283 14.345368 0.28455156 8
-7.5343323 14.84031 0.29220715 8
-7.5292573 15.370602 0.30050254 8
-7.5189519 15.921512 0.30914351 8
-7.505908 16.500433 0.31827134 8
-7.5001087 17.132978 0.32837299 8
-7.4907026 17.799414 0.33906081 8
-7.5975375 10.17548 0.6672377 9
-7.5879807 10.632658 0.68636662 9
-7.5856762 11.124939 0.70749706 9
-7.5796928 11.465034 0.72215831 9
-7.555213 12.170779 0.75268853 9
-7.5562148 12.569949 0.77061111 9
-7.5501528 12.976449 0.78882933 9
-7.2258344 42.102707 0.74980551 8
-7.5960279 9.0445375 1.0353981 10
-7.5970359 9.3130598 1.0535908 10
-7.5885391 9.8659115 1.0911229 10
-7.592052 10.168169 1.1124246 10
-7.5859699 10.629705 1.1448151 10
-7.5538793 13.420578 0.80917448 9
-7.543108 13.861332 0.8291564 9
-7.5279021 14.317095 0.84988803 9
-7.5278273 14.827595 0.8737061 9
-7.5227981 15.357519 0.89849395 9
-7.5127273 15.908442 0.92433804 9
-7.5018487 16.491621 0.95188367 9
-7.4918437 17.114241 0.98152697 9
-7.4876485 17.792292 1.0141579 9
-7.5979395 8.788415 1.4289429 11
-7.5943241 9.5865202 1.5042952 11
-7.5942364 9.8733311 1.532092 11
-7.591435 10.167366 1.5607018 11
-7.5824733 10.4643 1.5894624 11
-7.5698733 11.450238 1.2032667 10
-7.5669622 11.809493 1.2295129 10
-7.5570531 12.173782 1.2560503 10
-7.5561457 12.56988 1.2856268 10
-7.5385923 12.956663 1.3140146 10
-7.5489144 13.411827 1.349075 10
-7.5331097 13.843051 1.3814601 10
-7.5277491 14.31687 1.4178411 10
-7.5211487 14.814533 1.4563085 10
-7.5146127 15.340919 1.4973183 10
-7.5061121 15.894547 1.5407 10
-7.498116 16.48353 1.5872141 10
-7.5932922 9.4468613 1.9228208 12
-7.5811596 9.8563757 1.9726419 12
-7.5707006 10.768922 1.6191092 11
-7.5765233 11.1116 1.6541554 11
-7.56248 11.802545 1.7240695 11
-7.5567374 12.173314 1.7622452 11
-7.5471396 12.554969 1.8016669 11
-7.5491457 12.974822 1.8462135 11
-7.5325685 13.382892 1.8887357 11
-7.533536 13.843894 1.9383692 11
-7.5300765 14.321354 1.9899138 11
-7.4861984 17.101479 1.6362184 10
-7.4734173 17.758656 1.6886733 10
-7.5937338 9.0418568 2.2987068 13
-7.5948601 9.3104525 2.3391194 13
-7.5789776 10.150729 2.0096371 12
-7.5721068 10.770948 2.0886469 12
-7.5677609 11.098801 2.1309953 12
-7.5652761 11.443363 2.1761329 12
-7.5612345 11.800643 2.2232585 12
-7.5492687 12.161344 2.270617 12
-7.548564 12.55738 2.3241372 12
-7.5356112 12.951648 2.3768907 12
-7.5212092 14.814727 2.0432847 11
-7.5085936 15.328735 2.0991242 11
-7.5031757 15.88843 2.1608224 11
-7.4935646 16.47364 2.2255762 11
-7.4808965 17.089495 2.2940547 11
-7.4775248 17.768515 2.370569 11
-7.2253065 42.100574 2.2432826 9
-7.5930481 8.7828093 2.6843712 14
-7.5849228 9.0313969 2.7268944 14
-7.583128 9.2961044 2.773766 14
-7.5807481 9.8558626 2.4206269 13
-7.5784383 10.150033 2.4659812 13
-7.5709262 10.608903 2.5373068 13
-7.5731263 11.106689 2.6169257 13
-7.551158 11.78498 2.7246644 13
-7.5464373 12.156832 2.7853639 13
-7.5360579 13.389132 2.4371173 12
-7.5249133 13.828135 2.497148 12
-7.5181961 14.298865 2.5624402 12
-7.5147915 14.802179 2.633069 12
-7.5025945 15.316589 2.7051718 12
-7.4944382 15.870049 2.7836652 12
-7.5954781 8.2936668 3.0177805 15
-7.5888553 8.6530495 3.0884855 15
-7.5817862 9.0276823 3.163445 15
-7.580606 9.8557014 2.8747952 14
-7.5744233 10.144688 2.9271629 14
-7.5617075 10.596001 3.0097506 14
-7.5660663 11.096383 3.1050828 14
-7.5590649 11.434052 3.1689589 14
-7.5431585 12.548448 2.850045 13
-7.5400076 12.959244 2.9185159 13
-7.5237775 13.367409 2.9858608 13
-7.5236464 13.825872 3.0638738 13
-7.5128632 14.288807 3.1422851 13
-7.4926133 16.471649 2.8700528 12
-7.4829068 17.094185 2.9595273 12
-7.4730434 17.758007 3.0555882 12
-7.5766211 9.2881594 3.2163913 15
-7.5806317 9.8557587 3.3364072 15
-7.5763631 10.147306 3.3980389 15
-7.5601215 10.593839 3.4922922 15
-7.5438323 12.152685 3.3068752 14
-7.5337663 12.532898 3.3806252 14
-7.5362349 12.95282 3.4644177 14
-7.5215015 13.363427 3.545058 14
-7.5073452 14.787611 3.2279871 13
-7.49505 15.301297 3.3163311 13
-7.4859748 15.852252 3.4121349 13
-7.4823089 16.449137 3.5171609 13
-7.5613103 11.089454 3.6013949 15
-7.5497174 11.782813 3.7547908 15
-7.5376229 12.142742 3.834693 15
-7.530262 12.527124 3.9216146 15
-7.5129991 13.806403 3.6336412 14
-7.511075 14.28548 3.7310169 14
-7.5073252 14.787647 3.8336749 14
-7.4947739 15.300818 3.9384611 14
-7.4673624 17.058857 3.6242661 13
-7.4604411 17.728243 3.7433658 13
-7.2263131 42.10733 3.7428839 10
-7.5280919 12.938901 4.016346 15
-7.51755 13.356477 4.112112 15
-7.5134606 13.807313 4.2173338 15
-7.5049429 14.273907 4.3265576 15
-7.484468 15.849159 4.0515718 14
-7.4744973 16.432096 4.1727667 14
-7.4659786 17.055809 4.3035235 14
-7.5010099 14.775307 4.4454927 15
-7.4848475 15.280672 4.5647969 15
-7.4761395 15.831646 4.6968889 15
-7.4505982 17.705017 4.4399152 14
-7.4692936 16.42078 4.8394022 15
-7.4610801 17.044748 4.9912481 15
-7.4489913 17.70133 5.151701 15
-7.2247038 42.098915 5.2502723 11
-7.2236681 42.093826 6.7705884 12
-6.6692576 42.493816 -0.74711162 7
-6.6651826 42.468975 0.75452691 8
-6.6668739 42.480751 2.2581942 9
-6.6652508 42.471481 3.7663522 10
-6.6645107 42.467823 5.283803 11
-6.6626091 42.456795 6.8128896 12
-6.1013842 42.867565 -0.75209332 7
-6.0995007 42.855545 0.75973809 8
-6.0978799 42.845367 2.2726719 9
-6.0978322 42.846207 3.7914164 10
-5.9288435 41.658436 -2.2020805 6
-5.2187157 -1.1338079 -0.2797769 6
-5.2691689 -0.75678831 -0.27891004 6
-5.3229179 -0.3803893 -0.27964211 6
-5.3538585 0.19170536 -0.28096852 6
-5.3385787 0.76743394 -0.28274298 6
-5.2957201 1.1520668 -0.28415009 6
-5.2130899 1.5311389 -0.28490558 6
-5.5229521 43.226768 2.2884386 9
-5.5234337 43.231861 3.8181136 10
-5.5240412 43.237961 5.3576574 11
-5.5216832 43.22094 6.9072065 12
-4.9416261 43.626007 -0.76265699 7
-4.8652701 -2.2174439 -0.28001216 6
-5.0082083 -1.864697 -0.27990091 6
-5.1338792 -1.5051714 -0.28024176 6
-5.1203327 1.9108239 -0.28661585 6
-4.9928184 2.2820196 -0.28792554 6
-4.8667035 2.6604166 -0.29093128 6
-4.942986 43.639496 0.77074736 8
-4.9405508 43.619663 2.3052187 9
-4.9388471 43.606232 3.8444939 10
-4.9396863 43.615181 5.3950334 11
-4.9376812 43.599136 6.9555802 12
-4.5359282 -2.9076169 -0.282116 6
-4.7239962 -2.5736668 -0.28170612 6
-4.6893816 3.018106 -0.29254532 6
-4.5003128 3.3751271 -0.29511878 6
-4.1946607 -36.651615 -0.64127862 7
-4.3499198 44.019913 -0.76840508 7
-4.2300515 -3.3986492 -0.28428128 6
-4.3001142 3.7345853 -0.29881212 6
-4.0554228 4.0667706 -0.30133417 6
-4.1938748 -36.643127 0.64669436 8
-4.3509612 44.032211 0.77646774 8
-4.1938071 -36.640995 1.9359851 9
-4.3492126 44.01643 2.3226166 9
-4.1935916 -36.637554 3.2297449 10
-4.3493538 44.019691 3.8750103 10
-4.1921639 -36.62344 4.529881 11
-4.3497434 44.025459 5.4374666 11
-4.1906085 -36.608215 5.8400478 12
-4.1942873 -36.638947 7.1727142 13
-4.3479567 44.009323 7.0103064 12
-3.6657712 -36.658604 -0.64032799 7
-3.7486341 44.413681 -0.77429396 7
-3.798717 4.3988709 -0.30495128 6
-3.6658518 -36.657627 0.64606655 8
-3.7470865 44.397621 0.7818467 8
-3.662811 -36.62524 1.9323131 9
-3.7487895 44.419872 2.3407872 9
-3.6648958 -36.644459 3.2255473 10
-3.7478182 44.410641 3.904248 10
-3.6641364 -36.635033 4.5245323 11
-3.7472744 44.40646 5.4772749 11
-3.664366 -36.635551 5.8356314 12
-3.6638377 -36.62841 7.1598625 13
-3.7475839 44.412342 7.0651641 12
-3.2484548 -1.078194 -0.29929638 5
-3.3568459 -0.60422355 -0.29838985 5
-3.4382141 -0.24550019 -0.30148685 5
-3.4227152 0.12243754 -0.29988122 5
-3.388762 0.6114431 -0.30169737 5
-3.3245096 0.97621685 -0.30352169 5
-3.2529874 1.2138423 -0.30424774 5
-3.5161941 4.7165213 -0.30867162 6
-3.2025871 5.008553 -0.31192183 6
-2.9803662 42.576519 -2.233712 6
-3.1390734 44.82885 -0.78070194 7
-2.9505732 -1.7430711 -0.29953369 5
-3.1212513 -1.4203869 -0.29959774 5
-3.1603367 1.4445326 -0.30458137 5
-3.0110736 1.7894322 -0.30734473 5
-2.8290315 2.1229277 -0.3102701 5
-2.8719177 5.2923799 -0.31592619 6
-3.1380682 44.817341 0.78832448 8
-3.1389763 44.832939 2.3598943 9
-3.1373732 44.812939 3.9352045 10
-3.1380825 44.825745 5.5228167 11
-3.1362271 44.802204 7.119236 12
-2.5186605 45.240093 -0.78719091 7
-2.612874 -5.7188625 -0.18285184 6.6666665
-2.4753723 -2.4598784 -0.30480814 5
-2.7027307 -2.1668591 -0.30274978 5
-2.4375963 -0.62003404 -0.30860975 4
-2.5006685 -0.26823714 -0.30880937 4
-2.5066152 0.22456105 -0.30972683 4
-2.4383774 0.62209785 -0.30969238 4
-2.6756058 2.3256168 -0.3110469 5
-2.5165715 2.5263445 -0.31293187 5
-2.5142739 5.5486665 -0.31960601 6
-2.6550217 -5.720139 0.22057088 8.5
-2.630553 -5.7204156 0.66254359 10.5
-2.5177739 45.227833 0.79478467 8
-2.6304944 -5.7206979 0.99766737 12
-2.6290357 -5.7169476 1.3385971 13.5
-2.6538479 -5.717052 1.6893948 15
-2.5188203 45.249962 2.3796494 9
-2.5183029 45.244267 3.9694459 10
-2.516304 45.212238 5.5653548 11
-2.5177217 45.241039 7.1824241 12
-2.1836572 -5.7234559 -0.17781132 6.6666665
-2.1153181 -2.8029871 -0.30677056 5
-2.306232 -2.6427507 -0.30638307 5
-2.1013489 -1.3954786 -0.30954918 4
-2.3204336 -0.95655805 -0.3077803 4
-2.3364191 0.96857667 -0.31155381 4
-2.1437905 1.3809863 -0.31479529 4
-2.3473256 2.7219865 -0.31547102 5
-2.1576345 2.8994119 -0.31724608 5
-2.142946 5.8033009 -0.32454965 6
-2.2012279 -5.7282538 0.21473388 8.5
-2.2121322 -5.7262063 0.64586282 10.5
-2.1880112 -5.7241335 1.0814227 12.5
-2.2486393 -5.7290645 1.3464621 13.666667
-2.2012823 -5.7278743 1.6450397 15
-1.8878882 45.660667 -0.79399526 7
-1.7914145 -5.7342801 -0.17431957 6.6666665
-1.8173152 -3.03334 -0.30918193 5
-1.8301979 -1.7512788 -0.31086159 4
-1.7277057 -0.97671252 -0.31399831 3
-1.8927996 -0.58965439 -0.31390816 3
-1.9528363 -0.27965009 -0.31211925 3
-1.7854602 0.31552649 -0.31751114 2.5
-1.8964705 0.59459394 -0.31616417 3
-1.7507919 0.95818555 -0.31800357 3
-1.6053267 1.2060741 -0.31971607 3
-1.81681 1.8267452 -0.31836507 4
-1.9664512 3.0823345 -0.32095352 5
-1.7427579 3.2210493 -0.32150668 5
-1.7499096 6.0396848 -0.32986528 6
-1.8347306 -5.729063 0.21069032 8.5
-1.8372625 -5.7371488 0.63410991 10.5
-1.8369515 -5.7356267 1.0633653 12.5
-1.8877746 45.662788 0.80182356 8
-1.8661622 -5.7328887 1.3929666 14
-1.8344498 -5.7278433 1.6127912 15
-1.887745 45.666935 2.399853 9
-1.8867462 45.647923 4.0020132 10
-1.886694 45.651577 5.6154571 11
-1.8862673 45.646317 7.2416477 12
-1.246364 46.09972 -0.8012777 7
-1.3667063 -5.7338214 -0.17089245 6.6666665
-1.3850187 -3.2976918 -0.31288341 5
-1.4002029 -2.1508014 -0.31514391 4
-1.21744 -1.6020533 -0.31795803 3
-1.4203558 -1.4036894 -0.3159278 3
-1.399509 -1.0608391 -0.31676099 2.3333333
-1.3136469 -0.66961402 -0.3197366 1.3333334
-1.4663268 -0.31697071 -0.31596109 1.5
-1.3556356 0.29437065 -0.32111973 1
-1.3533417 0.67878091 -0.32143661 1.5
-1.3039612 1.0178338 -0.32426667 2
-1.4255086 1.4349712 -0.32288679 3
-1.2186739 1.6435266 -0.32624438 3
-1.4058275 2.2098587 -0.32382324 4
-1.4040329 3.4361868 -0.32606211 5
-1.3253676 6.2096863 -0.33306965 6
-1.4202325 -5.746635 0.20738697 8.5
-1.4191227 -5.7416849 0.62285841 10.5
-1.4184585 -5.7380133 1.0439544 12.5
-1.2455897 46.079182 0.80868858 8
-1.4189444 -5.7407985 1.4766946 14.5
-1.2455065 46.083725 2.4205098 9
-1.2448529 46.0676 4.0367584 10
-1.244838 46.074699 5.6646476 11
-1.2447369 46.078739 7.3065786 12
-0.90821761 -6.8898344 -0.12074117 7
-0.89289641 -6.0812798 -0.10678988 7
-1.0754235 -5.7392054 -0.10147841 7
-1.0401728 -3.4742913 -0.31718791 5
-0.92619199 -2.4285808 -0.31900737 4
-1.0915146 -2.3467474 -0.31750834 4
-0.98271996 -1.7639145 -0.31988782 3
-1.0234394 -1.2936836 -0.32029298 2
-1.0048552 -0.98796409 -0.3217611 1
-1.0078434 -0.65528989 -0.32148501 0
-1.1857418 -0.25589174 -0.32420495 0
-1.177655 0.25562701 -0.32389241 0
-1.043829 0.68638331 -0.32511353 0.25
-0.98584288 1.0071429 -0.32603934 1
-0.93907923 1.3708115 -0.32679215 2
-1.0035548 1.7893507 -0.32779431 3
-1.0035026 2.4659801 -0.32882357 4
-1.0415142 3.6196351 -0.33059517 5
-0.90261436 -6.8457694 0.24197187 8.5
-0.88825756 -6.0484962 0.2142868 8.5
-1.0773368 -5.7495131 0.20493776 8.5
-0.8987335 -6.8151336 0.60269964 10
-0.88391984 -6.0177212 0.64087003 10.5
-1.0762235 -5.742815 0.61545753 10.5
-0.89404124 -6.7781739 0.9626779 11.5
-1.0100632 -5.8197975 1.0435838 12.5
-0.88840389 -6.7338462 1.3223119 13
-0.59268826 46.530449 -0.80857688 7
-0.7927286 -3.5499973 -0.31823552 5
-0.66504997 -2.5239482 -0.32080245 4
-0.57015181 -1.8691227 -0.32521695 2.75
-0.65168077 -1.3874182 -0.32394537 1.5
-0.68496519 -1.0555471 -0.32480699 0.25
-0.6517542 1.0740898 -0.32851461 0.25
-0.61631602 1.4263171 -0.33163753 1.5
-0.58457112 1.7914455 -0.33173645 2.5
-0.49420682 2.0189452 -0.33162779 3
-0.64533502 2.6118734 -0.33220515 4
-0.6525988 3.7516804 -0.3343814 5
-0.5922606 46.514366 0.81603938 8
-0.59212577 46.520359 2.4426825 9
-0.59177893 46.510426 4.0743251 10
-0.5916996 46.520767 5.7177734 11
-0.59131479 46.508224 7.3724818 12
-0.3775588 -1.6333635 -0.32643569 2
-0.37161562 -1.3699578 -0.32845995 1
-0.32093665 -1.170058 -0.32597494 0
-0.32679865 1.1779947 -0.3314299 0
-0.17483465 1.3589611 -0.33447269 0.66666669
-0.1892432 1.6982667 -0.33524612 2
-0.20124248 2.1008902 -0.33647209 3
-0.1923537 2.7346346 -0.33664981 4
-0.13975331 3.8972301 -0.34051803 5
0.21884561 -3.7341139 -0.32775885 5
0.19713272 -2.6691003 -0.32994789 4
0.19155203 -2.064836 -0.33046675 3
0.18168342 -1.6811588 -0.33176258 2
0.1526868 -1.3594505 -0.33093342 0.75
0.27861762 -1.1869481 -0.33160308 0
0.2119278 1.3598706 -0.33766201 0.5
0.13182963 1.7544591 -0.33791614 2
0.14141759 2.1601286 -0.33912396 3
0.25604528 2.7965479 -0.3419666 4
0.2501522 3.9425194 -0.34349608 5
0.4121514 43.326519 -2.2799356 6
0.45289877 47.006081 -0.83180261 7
0.65038258 -3.7218416 -0.33149692 5
0.64731067 -2.6235423 -0.33372468 4
0.53491384 -2.0319359 -0.33596742 3
0.45970395 -1.6464477 -0.33574453 2
0.61525589 -1.4064412 -0.3359898 1.4
0.54876059 -1.0941613 -0.33660385 0
0.63481832 1.0912991 -0.34098926 0
0.56521326 1.3080961 -0.34185579 0.75
0.53342921 1.6786293 -0.34127352 2
0.52650011 2.1136265 -0.34339955 3
0.65634614 2.750844 -0.34565607 4
0.53519309 3.9450223 -0.34657916 5
0.45213884 46.997829 0.80798954 8
0.45155403 47.00526 2.4499919 9
0.45081443 46.999092 4.0973186 10
0.4501375 46.998886 5.7550087 11
0.44943902 46.997276 7.4267054 12
1.135985 47.452862 -0.83963031 7
1.0586387 -3.6771734 -0.33573806 5
1.026235 -2.5290117 -0.33758348 4
0.99299049 -1.8582286 -0.3380602 3
0.96372759 -1.4184105 -0.3399843 2
0.97168243 -0.9893983 -0.34131318 0.75
1.1069592 -0.53690845 -0.34301162 0
1.1031126 0.57150996 -0.34445179 0
1.0043144 1.0088844 -0.34512416 0.80000001
0.99651432 1.4463488 -0.34464037 2
1.0805435 1.9124625 -0.34890598 3
0.86666083 2.0161364 -0.34720606 3
1.0529401 2.6524496 -0.35002181 4
0.96729696 3.9111047 -0.35156468 5
1.1355336 47.46175 0.81649315 8
1.1341869 47.435589 2.4733982 9
1.1337296 47.444366 4.1375661 10
1.1334279 47.459438 5.8132877 11
1.1320502 47.432487 7.4978213 12
1.3326524 -3.6283319 -0.33928648 5
1.5924362 -3.5308888 -0.34015033 5
1.302682 -2.4241378 -0.34055281 4
1.481514 -2.336493 -0.34261006 4
1.3230506 -1.6656001 -0.34180024 3
1.3605202 -1.3775244 -0.34370989 2.5
1.3927242 -1.025081 -0.34461296 2
1.3122388 -0.59735453 -0.34414384 1
1.3420594 -0.22715443 -0.34526235 0.60000002
1.3342497 0.21470769 -0.34732044 0.5
1.3373246 0.58229041 -0.3468129 1
1.3971971 1.0640999 -0.34796047 2
1.3762481 1.4327471 -0.35021242 2.5
1.3496175 1.7406522 -0.35126656 3
1.4299715 2.4857562 -0.35285637 4
1.3939996 3.8204684 -0.35520756 5
1.8338937 47.938477 -0.84831697 7
1.8551935 -3.4327612 -0.34281057 5
1.7354457 -2.1758833 -0.34525299 4
1.9762971 -1.9914209 -0.34814426 4
1.661532 -1.3488231 -0.34481472 3
1.9098606 -0.9981786 -0.34825489 3
1.6379895 -0.57080942 -0.34633458 2
1.7323339 -0.19922008 -0.34840614 2
1.7408458 0.22558387 -0.35038251 2
1.6501403 0.60296679 -0.34979627 2
1.8663421 1.1371977 -0.35136339 3
1.6847903 1.3992088 -0.35109964 3
1.7836244 2.2672126 -0.35596919 4
1.813379 3.6807318 -0.35914037 5
1.8315902 47.897961 0.8246997 8
1.8307313 47.893719 2.4987855 9
1.8305551 47.9067 4.1801844 10
1.8294572 47.896622 5.8699403 11
1.8292023 47.907887 7.5768843 12
2.1168301 -36.777077 -1.927245 6
2.121273 -3.3289394 -0.34692949 5
2.3649704 -3.1815314 -0.34855944 5
2.1857591 -1.7699369 -0.34954742 4
2.3803568 -1.5325631 -0.35189191 4
2.1016119 -0.56447959 -0.3520751 3
2.1779137 -0.21373495 -0.35373813 3
2.1892121 0.23552428 -0.35568503 3
2.1123283 0.58979517 -0.3542679 3
2.015125 0.94126379 -0.35785475 3
2.2272391 1.8266561 -0.35676458 4
2.0188453 2.0604243 -0.35642326 4
2.2253981 3.5049024 -0.36364356 5
2.1157858 -36.76815 1.934813 9
2.1152284 -36.7616 3.2266963 10
2.114574 -36.753391 4.5258431 11
2.1136539 -36.740639 5.8348904 12
2.1132727 -36.737183 7.159421 13
2.6430881 -36.757027 -1.9278947 6
2.5436556 48.371784 -0.85625237 7
2.6431429 -36.760178 -0.63942069 7
2.6183305 -3.0388143 -0.35281208 5
2.4995704 -1.363868 -0.35407364 4
2.7107625 -0.94625551 -0.35790944 4
2.7581387 0.92337775 -0.36170501 4
2.5446324 1.4058281 -0.36128306 4
2.7184389 3.1637106 -0.36593628 5
2.4700267 3.3335299 -0.36370105 5
2.6442435 -36.777752 0.64796674 8
2.5427318 48.367691 0.83366811 8
2.6430404 -36.763588 1.9364938 9
2.5422277 48.371349 2.5257366 9
2.6423385 -36.756329 3.2293663 10
2.54021 48.34708 4.2217946 10
2.6418836 -36.752491 4.5300851 11
2.641155 -36.744911 5.8411484 12
2.5405655 48.366741 5.9319034 11
2.6416328 -36.753979 7.169517 13
2.5385194 48.342125 7.6510768 12
3.1736176 -36.782047 -0.64042586 7
2.8445148 -2.856987 -0.35473216 5
3.0575905 -2.657618 -0.35657704 5
2.8214641 -0.59782451 -0.35900104 4
2.8725548 -0.28704527 -0.35961196 4
2.8977916 0.1971024 -0.36145973 4
2.8553419 0.5113796 -0.36108172 4
3.1833689 2.7721584 -0.37081876 5
2.9492483 2.969223 -0.36740914 5
3.1725993 -36.772385 0.64871979 8
3.172657 -36.775051 1.9394189 9
3.1715643 -36.7645 3.2338846 10
3.1721807 -36.773617 4.5379772 11
3.1707027 -36.758667 5.8501239 12
3.1708555 -36.762497 7.1794848 13
3.5524676 43.782539 -2.3102839 6
3.2695324 48.843342 -0.8650471 7
3.2781463 -2.4581068 -0.36073872 5
3.4406078 -2.2114487 -0.3602151 5
3.5658512 2.2950766 -0.37293819 5
3.3784432 2.5375814 -0.3713997 5
3.269136 48.847992 0.84300995 8
3.2664888 48.819756 2.551724 9
3.2669687 48.837223 4.2686896 10
3.2664223 48.83976 5.9955382 11
3.7033634 -36.777519 -0.64110374 7
3.7051749 -1.8488482 -0.36503568 5
3.9023387 -1.4445662 -0.36669463 5
3.989691 1.4780505 -0.37464237 5
3.8670073 1.7603303 -0.37399551 5
3.7225127 2.0314915 -0.37313315 5
3.7023706 -36.769478 0.64965117 8
3.7043524 -36.790749 1.9429718 9
3.7025766 -36.77496 3.2392764 10
3.7011743 -36.762859 4.5428801 11
3.700134 -36.754356 5.857439 12
3.6998916 -36.753742 7.187571 13
4.0116096 49.33041 -0.87430435 7
4.2369738 -36.79417 -0.64228421 7
4.0204391 -1.1658139 -0.36893073 5
4.088501 1.1862413 -0.37496865 5
4.2383909 -36.807903 0.65144908 8
4.0098939 49.318428 0.85237873 8
4.2363911 -36.792133 1.9461763 9
4.0098238 49.326347 2.5813375 9
4.2358046 -36.788586 3.2456257 10
4.0082994 49.316742 4.3156247 10
4.2354317 -36.786892 4.55303 11
4.2343397 -36.779007 5.870594 12
4.0065565 49.304543 6.0595155 11
4.2339849 -36.777489 7.2035141 13
4.7693329 49.816929 -0.88374549 7
4.7715287 -36.800797 -0.64342433 7
4.6644449 -29.398912 -0.51596171 7
4.7725105 -36.809658 0.65273732 8
4.675674 -29.470171 0.52502894 8
4.7692199 49.823322 0.86254734 8
4.688127 -29.54911 1.5727483 9
4.7715621 -36.803715 1.9503297 9
4.6937947 -29.585518 2.6261368 10
4.7676778 49.815063 2.6106186 9
4.7710257 -36.800953 3.2525501 10
4.7065682 -29.666483 3.6941175 11
4.7670174 49.815903 4.3652835 10
4.7700648 -36.794926 4.5621634 11
4.7150922 -29.720816 4.7727804 12
4.7684994 -36.78429 5.8818994 12
4.7253017 -29.785732 5.8693976 13
4.7659883 49.812988 6.1302676 11
4.7687693 -36.787735 7.2183342 13
5.0018115 -28.857124 -0.50757676 7
5.0025353 -28.86207 0.51552081 8
4.9997158 -28.846672 1.5391395 9
5.0001659 -28.850033 2.5670946 10
5.0014796 -28.858376 3.602217 11
5.0019174 -28.861687 4.6460471 12
4.9980021 -28.840021 5.6968002 13
5.3111644 -36.826183 -1.946059 6
5.545506 50.325027 -0.89377064 7
5.3091221 -36.81329 -0.64480281 7
5.4288087 -28.862822 -0.50891125 7
5.5340357 15.878231 -0.29465225 7
5.5480075 16.671236 -0.30801392 7
5.5338798 15.878562 0.29216051 8
5.5594873 16.706079 0.30575481 8
5.3114743 -36.830727 0.6545068 8
5.4280005 -28.859276 0.51689857 8
5.5452724 15.911554 0.88151437 9
5.5639157 16.720041 0.92167848 9
5.5455871 50.33247 0.87300175 8
5.4274492 -28.857082 1.5437871 9
5.5491819 15.923388 1.4735059 10
5.569766 16.738216 1.5412689 10
5.3092618 -36.816658 1.9549699 9
5.5642333 15.966744 2.0740952 11
5.5728621 16.748243 2.1649334 11
5.4264565 -28.852554 2.5740848 10
5.5580921 15.950162 2.6730094 12
5.5805092 16.771759 2.796953 12
5.5432067 50.317894 2.641263 9
5.3078403 -36.808064 3.2597003 10
5.5664873 15.974712 3.2858131 13
5.5801644 16.771606 3.4328814 13
5.4241958 -28.841322 3.6095426 11
5.5567098 15.251407 3.745213 14
5.5750389 15.999711 3.9089236 14
5.5557389 15.249544 4.3463497 15
5.5917196 16.806728 4.0860691 14
5.3069253 -36.802959 4.5722632 11
5.4279242 -28.86179 4.6582375 12
5.5766463 16.005089 4.5384417 15
5.595746 16.819555 4.7461691 15
5.5405092 50.300495 4.4147015 10
5.3062501 -36.799526 5.8960438 12
5.4248886 -28.846468 5.7129855 13
5.5417862 50.318722 6.2021437 11
5.3052802 -36.794071 7.2339187 13
5.7565618 15.118992 -0.84862167 6
5.8592577 -28.873289 -0.51044136 7
5.758378 15.124384 -0.28338724 7
5.7585125 15.125422 0.28147054 8
5.8575993 -28.865826 0.51855743 8
5.7551737 15.11746 0.84657997 9
5.8583064 -28.869968 1.5489092 9
5.7549529 15.11758 1.4139107 10
5.759161 15.129176 1.986226 11
5.8582025 -28.870131 2.5829864 10
5.7537475 15.115855 2.5601037 12
5.7591252 15.130495 3.1451735 13
5.8575945 -28.867825 3.623111 11
5.7604427 15.134626 3.7367332 14
5.7638621 15.144215 4.3397756 15
5.8566322 -28.863791 4.6717567 12
5.8528004 -28.845676 5.728991 13
6.2933559 -28.886927 -1.5461285 6
6.3399529 50.843021 -0.90417945 7
6.1303401 15.115371 -0.28550673 7
6.1328402 15.122048 0.28398699 8
6.1329861 15.123157 0.85435355 9
6.3390331 50.841778 0.8836779 8
6.1341691 15.126745 1.4271185 10
6.0131764 15.140246 1.9990286 11
6.2549005 15.114223 2.0074542 11
6.130981 15.120224 2.5830765 12
6.338047 50.840038 2.6735687 9
6.1404209 15.143963 3.1752696 13
6.1360407 15.133844 3.7689104 14
6.1363149 15.135215 4.3747406 15
6.2860341 -28.857212 4.6849189 12
6.336061 50.830387 4.4691715 10
6.288168 -28.867607 5.7507896 13
6.3361888 50.837517 6.2771373 11
6.2868419 -28.862198 6.8282456 14
6.762671 44.024162 -2.3414292 6
6.637754 15.107931 -0.28867641 7
6.6373072 15.107783 0.2874172 8
6.6356821 15.104626 0.86401951 9
6.6339188 15.101345 1.4424702 10
6.6415901 15.119184 2.0270414 11
6.640635 15.117908 2.6146858 12
6.5113292 15.118239 3.1988525 13
6.7630029 15.103171 3.2161555 13
6.641284 15.120622 3.8121812 14
6.6427884 15.124537 4.4256868 15
6.7215495 -28.867283 6.8516765 14
7.027575 15.10524 -0.87368596 6
7.1535664 51.371387 -0.91498888 7
7.028326 15.107433 -0.29135138 7
7.0316081 15.115005 0.29053521 8
7.0178962 15.086468 0.87161648 9
7.1539869 51.379894 0.89508235 8
7.0242305 15.100524 1.4567262 10
7.0184903 15.088931 2.04302 11
7.0277462 15.109209 2.6390295 12
7.1520662 51.371796 2.7070529 9
7.0315161 15.117837 3.2407289 13
7.0297956 15.114804 3.8483374 14
7.0267177 15.108897 4.4647241 15
7.1490335 51.355808 4.5243654 10
7.1498895 51.367474 6.3550758 11
7.2831798 15.086136 -0.2928389 7
7.2905116 15.101735 0.29237977 8
7.2904534 15.102199 0.87863272 9
7.2825141 15.086526 1.46549 10
7.2850409 15.092289 2.0576382 11
7.2894301 15.101876 2.6559987 12
7.2885122 15.101822 4.4934373 15
7.9875751 51.912498 -0.92624956 7
8.5963163 -36.882687 -0.65592092 7
8.5933113 -36.87059 0.66660225 8
8.5984659 -36.893372 1.9917629 9
8.5884676 -36.851364 3.3175983 10
8.590621 -36.861324 4.6551085 11
9.156847 -36.894005 -0.65827858 7
8.9176455 32.707027 -0.59583068 7
9.1536264 -36.881771 0.66922134 8
8.9321651 32.761765 0.58823717 8
9.1535225 -36.88205 1.9981472 9
8.9410553 32.796032 1.776585 9
8.9537153 32.844025 2.9729981 10
9.1530113 -36.880714 3.3318293 10
8.9588451 32.864651 4.1767287 11
9.1502848 -36.870464 4.6724715 11
8.9759893 32.928989 5.3994765 12
9.1476364 -36.860527 6.0239811 12
8.9891243 32.978779 6.637557 13
9.1488609 -36.866161 7.3929358 13
9.2334433 32.057438 -0.58612007 7
9.2325106 32.056038 0.57811892 8
9.227829 32.041744 1.7429527 9
9.2315521 32.0564 2.9136276 10
9.2305775 32.054882 4.0904598 11
9.2349911 32.071945 5.2803559 12
9.2344503 32.071964 6.4812646 13
9.7256327 32.034683 -1.757845 6
9.719347 -36.896389 -0.66062796 7
9.7275572 32.042717 -0.58813536 7
9.7202749 -36.900574 0.67213476 8
9.727354 32.043804 0.58058774 8
9.7282457 32.04847 1.7509897 9
9.7173586 -36.890182 2.0060437 9
9.7264156 32.044243 2.9251912 10
9.7152491 -36.882866 3.3443801 10
9.726141 32.045109 4.1069102 11
9.7161789 -36.887039 4.6918621 11
9.7265625 32.048267 5.2992272 12
9.7111778 -36.868778 6.0475826 12
9.7303896 32.062572 6.5072803 13
9.7140465 -36.880318 7.4230642 13
10.027601 44.037083 -2.3730342 6
10.290215 -36.913204 -0.66339016 7
10.229394 32.039822 -0.59050804 7
10.285726 -36.897766 0.67481309 8
10.230942 32.046307 0.5834651 8
10.226406 32.033894 1.7582865 9
10.283594 -36.890759 2.013999 9
10.229003 32.043652 2.9385166 10
10.287768 -36.906315 3.3596504 10
10.229059 32.045521 4.125659 11
10.283922 -36.893192 4.7110291 11
10.230196 32.050766 5.3237028 12
10.28131 -36.88448 6.0738282 12
10.225755 32.038692 6.5319028 13
10.282882 -36.890736 7.454186 13
10.865417 -36.926941 -2.0123775 6
10.866132 -36.929947 -0.66630942 7
10.863091 -36.920235 0.67811513 8
10.862432 -36.918594 2.0239241 9
10.858936 -36.907333 3.3736806 10
10.856413 -36.899368 4.7313209 11
10.853729 -36.890877 6.0999942 12
10.855954 -36.899017 7.4866548 13
11.443217 -36.933208 -0.66914552 7
11.43786 -36.916527 0.68110126 8
11.446088 -36.943581 2.0341918 9
11.437772 -36.917362 3.3893485 10
11.433464 -36.904053 4.7525601 11
11.436895 -36.91568 6.1306853 12
11.435431 -36.911533 7.5217957 13
12.031055 -36.953358 -0.67245179 7
12.028377 -36.945675 0.68486202 8
12.028473 -36.946503 2.0437481 9
12.020681 -36.923145 3.4054601 10
12.023111 -36.931137 4.7778616 11
12.021225 -36.925896 6.1604772 12
12.017761 -36.915825 7.5571084 13
12.511131 54.862312 -0.99062377 7
12.616713 -36.949825 0.68833321 8
12.619205 -36.957615 2.0542684 9
12.61671 -36.950836 3.4244497 10
12.613095 -36.940781 4.8021131 11
12.610196 -36.932823 6.1912589 12
12.610086 -36.933029 7.5969563 13
13.212369 -36.957447 -0.67891061 7
13.217807 -36.973106 0.69233751 8
13.21289 -36.959862 2.0648177 9
13.209954 -36.952152 3.441874 10
13.200451 -36.927101 7.6339755 13
13.82261 -36.987053 -2.0638354 6
13.822809 -36.988049 -0.68292606 7
13.813355 -36.963722 2.0759904 9
13.812825 -36.962769 3.4610536 10
13.810477 -36.956963 4.853909 11
13.81168 -36.960648 6.259944 12
13.811032 -36.959393 7.6808815 13
14.434772 -37.003479 -0.68684351 7
14.425352 -36.979813 0.70014602 8
14.426706 -36.983727 2.0886192 9
14.42131 -36.97081 4.8824735 11
14.421001 -36.970467 6.2960644 12
14.417026 -36.960739 7.7234068 13
15.046969 -37.001507 -0.6906215 7
15.045524 -36.99839 0.70461965 8
15.045403 -36.998936 3.5035994 10
15.040687 -36.987785 4.912776 11
15.038607 -36.983116 6.3343658 12
15.674266 -37.018341 -0.69493943 7
15.671788 -37.012928 0.70921302 8
15.668056 -37.004524 2.1145084 9
15.664039 -36.995461 3.5242674 10
15.664062 -36.995918 4.9432626 11
15.663198 -36.994293 6.3741655 12
16.31111 -37.038395 -0.69951373 7
16.300871 -37.015568 0.71377796 8
16.299923 -37.013798 2.1282728 9
16.296074 -37.00547 3.5472031 10
16.299995 -37.014748 4.9765716 11
16.295626 -37.005249 6.4157186 12
16.949404 -37.042313 -2.1287053 6
16.95018 -37.044384 -0.70402324 7
16.947023 -37.037872 0.71892887 8
16.943651 -37.030876 2.1431005 9
16.941668 -37.026928 3.5722623 10
17.594446 -37.043938 2.158329 9
17.594128 -37.043633 3.597924 10
17.595606 -37.0471 5.0468459 11
17.593685 -37.043423 6.5072742 12
18.259949 -37.06728 -0.71387261 7
18.255068 -37.057732 0.72939551 8
18.255938 -37.059841 2.1743767 9
18.254446 -37.057167 3.6243665 10
18.251192 -37.050915 5.0825582 11
18.251064 -37.05101 6.5539546 12
18.926649 -37.073841 -0.71902752 7
18.932421 -37.085464 0.73531568 8
18.926664 -37.074535 2.1910264 9
18.924244 -37.070137 3.6518726 10
18.919329 -37.060852 5.120667 11
18.916405 -37.05547 6.602087 12
19.599344 -37.074093 5.1608486 11
19.595108 -37.066414 6.6534505 12
19.608412 -37.089928 -0.72459352 7
19.601435 -37.07708 0.74075276 8
19.604544 -37.083271 2.2080171 9
19.609863 -37.093647 3.6815813 10
20.298487 -37.101074 -2.2094567 6
20.303133 -37.109871 -0.73046952 7
20.30209 -37.108269 0.7472201 8
20.294199 -37.09417 2.2258492 9
20.29867 -37.102642 3.7110462 10
20.292133 -37.091015 5.2032204 11
20.288015 -37.083813 6.7081289 12
21.00094 -37.114868 -0.73629344 7
21.007322 -37.126431 0.7536788 8
21.004917 -37.122475 2.2454731 9
20.994345 -37.104111 3.7409828 10
20.987913 -37.093056 5.2452278 11
20.981716 -37.08242 6.7616282 12
21.722858 -37.141331 -0.74279398 7
21.716894 -37.131428 0.76012778 8
21.711077 -37.121788 2.2641108 9
21.713751 -37.126633 3.7743154 10
21.703321 -37.109112 5.290997 11
21.695448 -37.095951 6.8201318 12
22.441879 -37.141594 -0.74902982 7
22.444513 -37.146225 0.76704317 8
22.431637 -37.125214 2.2837822 9
22.438797 -37.137333 3.8077755 10
22.429049 -37.121487 5.338098 11
22.428425 -37.120735 6.8831143 12
23.187231 41.468597 -2.4913292 6
23.192781 -37.172806 -0.75615919 7
23.18487 -37.160412 0.77422357 8
23.18696 -37.164021 2.3064601 9
23.178625 -37.150936 3.8429027 10
23.171085 -37.13913 5.3878822 11
23.168495 -37.135262 6.9466906 12
23.936377 -37.170036 -2.3092167 6
23.942396 -37.179634 -0.76307321 7
23.937632 -37.172497 0.78164774 8
23.939957 -37.176357 2.3283634 9
23.935984 -37.170448 3.8800697 10
23.928265 -37.158726 5.4399605 11
23.932486 -37.165535 7.0158181 12
24.712393 -37.195835 -0.77046871 7
24.706377 -37.187038 0.78942186 8
24.701235 -37.179554 2.3505762 9
24.695347 -37.170944 3.9167235 10
24.700584 -37.179073 5.4942346 11
24.693859 -37.169205 7.0826058 12
25.493828 -37.206478 -0.77804971 7
25.492096 -37.204185 0.79756242 8
25.484762 -37.193733 2.374398 9
25.48329 -37.191818 3.9570544 10
25.48148 -37.189423 5.5491929 11
25.472906 -37.177155 7.1529589 12
25.813332 -19.27076 -1.6816911 6
25.860458 -16.567038 -1.6032577 6
25.826529 -18.71138 -0.54872352 7
25.83293 -18.158283 -0.54324263 7
25.861223 -17.630901 -0.53843772 7
25.872965 -17.101955 -0.53349489 7
25.874622 -16.058701 -0.52376658 7
25.88147 -15.554501 -0.51931393 7
25.841682 -18.722364 0.56647229 8
25.851326 -18.171215 0.56099838 8
25.866255 -17.634338 0.55585819 8
25.872864 -17.101889 0.55075133 8
25.877123 -16.577696 0.54579991 8
25.9014 -15.566454 0.53681183 8
25.898964 -15.564978 1.5944957 9
25.8535 -18.730936 1.6841398 9
25.86832 -18.183163 1.6680878 9
25.874964 -17.640276 1.6521693 9
25.883347 -17.10881 1.637 9
25.892828 -16.587742 1.622512 9
25.880953 -18.192045 2.7802434 10
25.88867 -17.649616 2.7537885 10
25.904551 -17.122822 2.7292585 10
25.909868 -16.598648 2.7046368 10
25.913221 -15.573525 2.6575882 10
25.871403 -18.743914 2.8076069 10
25.886061 -18.754541 3.9390366 11
25.888048 -18.197039 3.8994853 11
25.895565 -17.654322 3.862329 11
25.893234 -17.115343 3.8252168 11
25.913696 -16.601093 3.7929006 11
25.935455 -15.586867 3.7295258 11
25.88686 -18.755135 5.0787883 12
25.891722 -18.199627 5.0283322 12
25.907959 -17.662767 4.9820771 12
25.907238 -17.12459 4.9344969 12
25.923376 -16.607288 4.8919787 12
25.951685 -15.596599 4.8114233 12
25.933876 -16.095388 5.9505649 13
25.961424 -15.602433 5.9052315 13
25.894907 -18.760973 6.2330494 13
25.917727 -18.217903 6.175385 13
25.92502 -17.6744 6.1164565 13
25.931416 -17.140564 6.0596905 13
25.929485 -17.139286 7.1950912 14
25.935463 -16.615013 7.1302776 14
25.971647 -15.608557 7.0149417 14
25.917257 -18.777172 7.4078913 14
25.912886 -18.214512 7.3316607 14
25.93461 -17.680937 7.2657247 14
25.967278 -16.635374 8.284337 15
25.975489 -15.610847 8.1415529 15
26.058628 -5.6067867 -2.3283551 5
26.036562 -7.586143 -1.4157226 6
26.0597 -6.195591 -1.3984098 6
26.077854 -5.6108241 -1.3925779 6
26.299585 -37.229206 -0.78619766 7
26.277254 -15.284822 -0.52277511 7
26.008965 -8.8060598 -0.47197869 7
26.031 -8.4001112 -0.47014228 7
26.037252 -7.9924035 -0.4681367 7
26.048395 -7.5895047 -0.46633321 7
26.055807 -7.1885948 -0.46457496 7
26.052441 -6.7878065 -0.46273604 7
26.056803 -6.3919811 -0.4611432 7
26.06443 -5.9995484 -0.45971519 7
26.273937 -15.28287 0.53998375 8
26.039782 -8.8164215 0.4889144 8
26.026236 -8.39849 0.48637301 8
26.052412 -7.9969773 0.48468885 8
26.050238 -7.5899553 0.48259237 8
26.057875 -7.1890726 0.4807896 8
26.067379 -6.7916074 0.4791314 8
26.077339 -6.1996584 0.47678041 8
26.082405 -5.6115918 0.47455159 8
26.291187 -37.217556 0.80594575 8
26.032322 -8.8138199 1.4511415 9
26.04195 -8.4034853 1.4448562 9
26.057392 -7.9984226 1.4392409 9
26.057274 -7.5919194 1.4331117 9
26.071476 -7.1927381 1.428105 9
26.07477 -6.7934399 1.4228328 9
26.094004 -6.2035084 1.4163483 9
26.102182 -5.6157484 1.4098982 9
26.273726 -15.282727 1.6039796 9
26.283197 -37.206478 2.3990879 9
26.057516 -7.9983764 2.3972287 10
26.070501 -7.5956888 2.388212 10
26.087748 -7.1971388 2.3801413 10
26.089678 -6.5984626 2.3669558 10
26.091227 -6.0054169 2.3548217 10
26.112429 -5.6178489 2.3492513 10
26.258854 -15.27406 2.6703911 10
26.053272 -8.8208399 2.4189959 10
26.049486 -8.4058371 2.4072719 10
26.057768 -8.8222847 3.392211 11
26.069431 -8.4121933 3.3777642 11
26.076328 -8.0040703 3.3635216 11
26.08642 -7.6002412 3.3504941 11
26.090824 -7.1978955 3.337528 11
26.096884 -6.6002011 3.319561 11
26.118828 -6.0116758 3.3051181 11
26.115007 -5.6182971 3.2941477 11
