# .PCD v0.7 - Point Cloud Data file format
VERSION 0.7
FIELDS x y z intensity
SIZE 4 4 4 4
TYPE F F F F
COUNT 1 1 1 1
WIDTH 174
HEIGHT 1
VIEWPOINT 0 0 0 1 0 0 0
POINTS 174
DATA ascii
-33.003426 -10.750347 5.4960647 12
-33.008369 -10.752034 6.7463799 13
-17.085852 37.723335 2.1623397 9
-17.07353 37.697006 5.0737629 11
-16.075401 38.381218 3.6324351 10
-16.051247 38.324963 8.0691738 13
-15.577062 38.738239 0.71991497 8
-15.554708 38.684544 6.5959263 12
-14.024306 39.728306 5.1642928 11
-13.511048 40.093452 2.2078564 9
-13.536814 -36.592575 3.4039085 10
-13.544845 -36.614529 4.7837825 11
-12.938807 -36.575386 -0.68668866 7
-12.939117 -36.576485 0.66769934 8
-12.984874 40.43705 3.7062793 10
-12.360957 -36.599781 2.0149021 9
-11.219584 -36.648407 6.0604019 12
-10.869287 6.3655949 0.21938665 8
-10.828762 8.8897772 0.24357216 8
-10.814591 10.556698 0.26242664 8
-10.865392 6.3633642 0.65963137 9
-10.831717 8.1391411 0.70949543 9
-10.807262 10.549639 0.7904107 9
-10.867993 6.3649383 1.1018333 10
-10.828274 8.8895292 1.2252393 10
-10.859352 6.3599305 1.5453583 11
-10.828548 8.136898 1.6630368 11
-10.860091 6.3604155 1.9937223 12
-10.802904 10.545577 1.8531123 11
-10.83828 7.9039116 2.1247964 12
-10.810444 10.254748 2.3598096 12
-10.851787 6.355607 2.4450974 13
-10.830945 8.3842754 2.662791 13
-10.855518 6.3578448 2.9051855 14
-10.805606 9.9600935 2.8566864 13
-10.819893 8.3757973 3.1595981 14
-10.848667 6.353888 3.369772 15
-10.808563 9.1360569 3.7929344 15
-10.786955 12.511328 0.28647605 8
-10.791545 12.516763 0.86454219 9
-10.797619 10.540326 1.319333 10
-10.776876 12.499876 1.4426453 10
-10.791739 12.51722 2.0282645 11
-10.775537 12.498557 2.6129985 12
-10.772187 12.494795 3.2063196 13
-10.786917 10.836344 3.5301998 14
-10.756272 12.843942 3.8675144 14
-10.759716 12.480582 4.4155045 15
-10.289352 42.209648 6.870872 12
-9.7492495 42.63583 0.75206792 8
-9.5091038 -36.604752 -0.67021519 7
-9.5182314 -36.640663 4.638083 11
-9.1826944 42.982227 2.2920883 9
-8.4162855 -36.682426 7.3051715 13
-8.3998423 -36.609821 0.64540946 8
-8.0399485 43.727692 3.8781517 10
-8.0389862 43.723194 5.4470434 11
-7.86378 -36.674175 5.930254 12
-7.3126783 -36.654648 1.9484682 9
-7.3132787 -36.657791 3.259968 10
-6.8696785 44.493034 7.1186056 12
-6.2235088 -36.629589 -0.65917504 7
-6.2811518 44.93549 0.77908802 8
-5.8482366 -5.6943808 0.1414199 8
-5.8481269 -5.6943126 0.42656115 9
-5.8584366 -5.7044101 0.71400839 10
-5.8707967 -5.7165079 1.0045774 11
-5.8693371 -5.7151642 1.5905219 13
-5.8747149 -5.7204523 1.8910013 14
-5.548008 -5.7197351 1.2603459 12
-5.4007792 -5.7295065 2.1075022 15
-5.1611753 -36.711338 7.1954312 13
-4.6547432 -5.7029219 -0.12952405 7
-4.4204669 -5.7434101 1.9397359 15
-4.0257306 -5.721077 0.12086899 8
-4.0263844 -5.7220459 0.36531559 9
-4.0253716 -5.7206411 0.61048406 10
-4.0272098 -5.7233024 0.85763979 11
-4.035584 -5.735281 1.1089486 12
-4.0426364 -5.7453775 1.3636291 13
-4.0337672 -5.7327709 1.6162574 14
-4.0032082 -6.2426567 1.9848074 15
-3.5592289 -36.677231 0.63221151 8
-3.560082 -36.685936 1.9207509 9
-3.5618491 -36.704109 3.2154286 10
-3.5628963 -36.714817 4.5183754 11
-3.5637815 -36.723866 5.833005 12
2.17416 15.187352 2.9957213 13
3.4094257 -28.799971 -1.5299931 6
3.4078908 -28.787796 -0.51580423 7
3.4098487 -28.804968 0.49677479 8
3.4109402 -28.814861 1.511391 9
3.4132137 -28.834686 2.5312722 10
3.4119337 -28.824663 3.5550969 11
3.4121337 -28.82708 4.5889864 12
3.4144492 -28.847279 5.6379952 13
3.9861956 15.175666 3.6371093 14
3.9878585 15.181628 4.2207818 15
8.1601791 -36.808033 4.6173382 11
8.7180634 -36.82008 1.9705256 9
9.8382425 -36.814922 0.65218765 8
10.405537 -36.815319 -0.6812399 7
10.987973 -36.853756 3.3521736 10
10.991344 -36.866508 6.0813189 12
12.150186 -36.863007 4.7536221 11
13.928432 -36.850582 -0.70158803 7
13.932166 -36.861172 0.67437559 8
13.934704 -36.868595 2.0525925 9
14.555532 -36.905121 3.4581881 10
17.067625 -36.928383 6.4314294 12
17.694136 -36.883854 -0.72847271 7
17.70373 -36.904572 0.70060015 8
17.712061 -36.922657 2.1328249 9
17.712408 -36.924881 5.0160608 11
18.371273 -36.931892 3.5959294 10
22.837337 -16.885262 -1.496987 6
22.929747 -6.1994386 -1.2484593 6
22.862457 -15.430634 -0.48836035 7
22.938248 -8.7500124 -0.43230528 7
22.952707 -6.5606689 -0.41930437 7
22.858816 -15.428718 0.47548491 8
22.934816 -8.7492104 0.42583874 8
22.98962 -5.1670856 0.41065985 8
22.949188 -8.7552023 1.2857734 9
22.968727 -5.1628909 1.2343411 9
22.878027 -15.442221 1.4416429 9
22.943634 -8.7535934 2.1480792 10
22.985363 -5.1671376 2.0629115 10
22.879477 -15.443745 2.4110999 10
22.959764 -8.7602625 3.0181055 11
22.902628 -15.459908 3.3898356 11
22.99115 -5.1694613 3.7365379 12
22.913795 -15.950496 4.4196262 12
22.901293 -16.936434 5.5347409 13
22.922194 -15.474789 6.3849497 14
22.933239 -15.482816 7.4150896 15
23.132391 12.511378 -1.3682878 6
23.001907 -5.1713681 2.8977485 11
23.003967 -6.2230725 4.6369519 13
23.189581 11.69177 5.0653658 13
23.007784 -6.2246332 5.5086436 14
23.1731 11.682828 6.0099235 14
23.020102 -6.2285018 6.3971477 15
23.197855 11.694613 6.9809299 15
23.21056 14.324309 6.3173428 14
23.226732 14.797151 7.4013548 15
23.470287 11.004809 -0.44272438 7
23.46237 11.000489 0.46315947 8
23.434572 10.986872 1.3683852 9
23.42392 10.981268 2.2764528 10
23.445364 10.990664 3.1936333 11
23.421768 10.979002 4.1124854 12
29.323271 25.955412 7.640995 13
45.937843 -2.2614524 -0.80110937 7
45.990421 2.3524389 -0.79903173 7
45.930984 -4.2465978 0.8068288 8
45.97876 0.3724443 0.80727029 8
45.963531 -2.2647588 2.4159606 9
45.963005 -2.9264057 4.0343986 10
45.977985 -2.2675261 5.6589603 11
46.05373 8.3829126 -0.807989 7
46.121166 13.997737 -0.82793301 7
46.046001 5.0107493 0.81635886 8
46.056973 9.0659657 0.830167 8
46.125351 13.99787 0.85593295 8
46.048729 5.0099893 2.4366825 9
46.098419 10.453233 2.4903328 9
46.030258 1.0304554 4.0357819 10
46.058609 5.0099998 4.0637789 10
46.119049 11.153805 4.1660895 10
46.09668 5.0130596 5.7050409 11
46.150238 12.57003 5.8902016 11
46.025482 -0.29078969 7.2992034 12
46.080406 4.3431907 7.3433285 12
