# .PCD v0.7 - Point Cloud Data file format
VERSION 0.7
FIELDS x y z intensity
SIZE 4 4 4 4
TYPE F F F F
COUNT 1 1 1 1
WIDTH 1341
HEIGHT 1
VIEWPOINT 0 0 0 1 0 0 0
POINTS 1341
DATA ascii
1.8594953 1.3345901 -0.57057661 0
1.9429077 1.3531637 -0.58232528 0
2.0304959 1.3291987 -0.59462965 0
1.3964386 1.4216461 -0.50375021 0
1.448613 1.449857 -0.50982732 0
1.5411592 1.439648 -0.52348179 0
1.6584513 1.4461629 -0.53911477 0
1.7504125 1.4568237 -0.55174154 0
1.8616213 1.444371 -0.56744063 0
1.9610553 1.4504641 -0.58191228 0
2.0493155 1.44923 -0.59453511 0
1.4432155 1.5558218 -0.50713032 0
1.5504458 1.544997 -0.52200282 0
1.6362678 1.5618315 -0.53341883 0
1.7456001 1.5392866 -0.54894954 0
1.8359315 1.5731782 -0.56116688 0
1.9419913 1.5544161 -0.57593656 0
2.0484438 1.5335186 -0.59222227 0
1.4637436 1.637394 -0.5083006 0
1.5439576 1.6408533 -0.51932204 0
1.6491617 1.637336 -0.53331816 0
1.7512447 1.6284046 -0.54784232 0
1.8490971 1.6544631 -0.5602932 0
1.9457433 1.6430945 -0.57554984 0
2.0399001 1.6492765 -0.58736479 0
2.11168 1.6336172 -0.59820211 0
1.4485396 1.7532345 -0.50424027 0
1.5414387 1.7501186 -0.51689523 0
1.6500813 1.7452517 -0.53249955 0
1.7429392 1.7491417 -0.54422235 0
1.8560488 1.7464064 -0.55957246 0
1.9514004 1.7463228 -0.57318187 0
2.0305047 1.7650511 -0.58382297 0
2.1241002 1.7423557 -0.59756505 0
1.4852226 1.8507345 -0.50583923 0
1.5521936 1.8512509 -0.51638889 0
1.653674 1.834578 -0.530204 0
1.7631512 1.8472743 -0.54565454 0
1.8416159 1.8616377 -0.5559746 0
1.9587228 1.8561491 -0.5717662 0
2.0624492 1.8544474 -0.58575195 0
2.1312814 1.8530841 -0.59605628 0
1.4713246 1.945279 -0.50270694 0
1.5550311 1.9606702 -0.51369029 0
1.6559803 1.9468845 -0.52848297 0
1.7382727 1.9474006 -0.54021955 0
1.8404546 1.9556954 -0.55392873 0
1.9518906 1.930771 -0.5692417 0
2.039645 1.9610516 -0.58069545 0
2.1354554 1.9664662 -0.59410214 0
1.479331 2.0764732 -0.50075769 0
1.5576354 2.058692 -0.51240295 0
1.672742 2.0539007 -0.52793849 0
1.7621626 2.041512 -0.54119432 0
1.8625574 2.0470088 -0.55456895 0
1.9565839 2.0498757 -0.56861806 0
2.0537586 2.061065 -0.58121383 0
2.1513615 2.0387104 -0.59460622 0
1.5230086 2.1378238 -0.50546157 0
1.6458231 2.1243055 -0.52275884 0
1.756099 2.1249862 -0.53797984 0
1.8511025 2.1342945 -0.55187398 0
1.9737958 2.1483278 -0.56726903 0
2.0739424 2.1520503 -0.58351463 0
2.1576219 2.1345706 -0.59365702 0
1.5525614 2.2466233 -0.50697261 0
1.6062441 2.2546155 -0.51417285 0
1.5522815 2.353065 -0.50489593 0
1.629876 2.3586147 -0.51523715 0
1.5509455 2.4641149 -0.50279146 0
1.626766 2.4653683 -0.5126822 0
1.7272266 2.4491158 -0.52678657 0
1.5984932 2.5396578 -0.50750977 0
1.6508197 2.5413711 -0.51488948 0
1.7298486 2.5416405 -0.52515948 0
1.8162394 2.5493767 -0.53667545 0
1.5800034 2.6344373 -0.50225127 0
1.6677095 2.6497238 -0.51440191 0
1.7501 2.6528735 -0.52553719 0
1.8351915 2.6557012 -0.53739011 0
1.921237 2.6967573 -0.54792678 0
1.6527684 2.755053 -0.50964355 0
1.7665542 2.7771204 -0.52513713 0
1.8517997 2.7633753 -0.53655112 0
1.9429739 2.7687502 -0.54999459 0
1.8375155 2.8287818 -0.53426141 0
1.9411542 2.8519804 -0.54785889 0
2.0445838 2.869894 -0.56114435 0
0.11447934 -3.5535429 -0.43654591 0
-0.45385134 -3.408195 -0.42217797 0
-0.35490704 -3.4073772 -0.42064679 0
-0.28138122 -3.4114366 -0.42029354 0
0.037147008 -3.438952 -0.4232412 0
0.11223832 -3.4839795 -0.4345451 0
-1.0135075 -3.3117557 -0.42524758 0
-0.93032217 -3.3208485 -0.42466021 0
-0.83854741 -3.3270979 -0.42260844 0
-0.74253196 -3.3476791 -0.42320621 0
-0.6463635 -3.3672307 -0.42251611 0
-0.54767776 -3.3718884 -0.42059186 0
-0.44939357 -3.3750095 -0.42124566 0
-0.34176454 -3.3582489 -0.41905889 0
-0.24706864 -3.3899863 -0.41862527 0
-0.15783639 -3.3909497 -0.41761327 0
-0.055606294 -3.373893 -0.4163602 0
0.036008589 -3.3388767 -0.42071518 0
0.10785885 -3.3480368 -0.43063504 0
-1.3424686 -3.2004578 -0.42613703 0
-1.2483057 -3.2323267 -0.42661333 0
-1.1497281 -3.2515213 -0.42528874 0
-1.0511681 -3.2669721 -0.42466453 0
-0.95297122 -3.281044 -0.42359942 0
-0.86019546 -3.2179081 -0.42088589 0
-0.76606268 -3.2341113 -0.41990805 0
-0.64880294 -3.254324 -0.41958627 0
-0.53130233 -3.271131 -0.41787732 0
-0.4261812 -3.2589691 -0.41808656 0
-0.34497142 -3.2363548 -0.41642007 0
-0.24473001 -3.2505538 -0.41519594 0
-0.14424521 -3.263644 -0.41424289 0
-0.058462091 -3.2526731 -0.4133206 0
0.035039149 -3.2487018 -0.41844887 0
0.10347939 -3.2120943 -0.42672497 0
-1.549226 -3.1145535 -0.42712668 0
-1.4435869 -3.1428735 -0.42600861 0
-1.3595513 -3.1562128 -0.42524993 0
-1.2470835 -3.139266 -0.42420208 0
-1.1356009 -3.1393766 -0.42216367 0
-1.0425256 -3.1622286 -0.42197615 0
-0.93874401 -3.1476893 -0.42008159 0
-0.83686888 -3.1306446 -0.41843343 0
-0.74524564 -3.1462216 -0.41743684 0
-0.65394878 -3.1621332 -0.41733751 0
-0.56260908 -3.1759324 -0.41612935 0
-0.47072926 -3.185554 -0.41544878 0
-0.34723136 -3.1173928 -0.41346589 0
-0.23457484 -3.1156635 -0.41161352 0
-0.15387397 -3.1415462 -0.41101924 0
-0.063865863 -3.1449363 -0.41046551 0
0.034069717 -3.1585269 -0.41618258 0
0.10055974 -3.1214659 -0.42411828 0
-1.7005455 -3.0282893 -0.42644185 0
-1.6342874 -3.0451984 -0.42527914 0
-1.5499034 -3.060981 -0.42574978 0
-1.449386 -3.0403378 -0.42332861 0
-1.3555884 -3.0465291 -0.42253739 0
-1.2529624 -3.047384 -0.42149782 0
-1.1498828 -3.042099 -0.42062625 0
-1.0595466 -3.0656619 -0.41957992 0
-0.95683771 -3.0474615 -0.41769034 0
-0.85667884 -3.0304098 -0.41625059 0
-0.74663156 -3.0543849 -0.41509676 0
-0.63564181 -3.0736234 -0.41478503 0
-0.53440648 -3.0583687 -0.41275227 0
-0.45093444 -3.0515842 -0.41173381 0
-0.35896426 -3.0257297 -0.41149861 0
-0.24980509 -3.0277414 -0.40957102 0
-0.14067608 -3.0224974 -0.40786773 0
-0.05411144 -3.0275788 -0.40761501 0
0.054613549 -3.0558472 -0.41644803 0
0.58247572 -3.0345442 -0.48939785 0
0.63715678 -3.0805812 -0.49824232 0
-1.832075 -2.9261644 -0.42473403 0
-1.7518525 -2.9684548 -0.42509648 0
-1.6569475 -2.9506512 -0.42395097 0
-1.5504574 -2.956171 -0.4225786 0
-1.4498119 -2.9147367 -0.42097858 0
-1.3624051 -2.9477477 -0.41997996 0
-1.2551545 -2.9523895 -0.41852534 0
-1.1616229 -2.944942 -0.41850606 0
-1.0522307 -2.9752395 -0.41727582 0
-0.95945787 -2.9342487 -0.41477951 0
-0.85346705 -2.9384577 -0.41387263 0
-0.74698615 -2.9638519 -0.41268682 0
-0.65920401 -2.9719291 -0.41200241 0
-0.56678128 -2.9525974 -0.41103485 0
-0.45222354 -2.9157627 -0.40817487 0
-0.34832898 -2.9360766 -0.40904945 0
-0.26370662 -2.9398336 -0.40776929 0
-0.15758045 -2.9329796 -0.40571013 0
-0.052500278 -2.9375525 -0.40535271 0
0.052761115 -2.9515183 -0.41384497 0
0.46089578 -2.9250343 -0.46921611 0
0.54271179 -2.9805419 -0.48318613 0
0.62448686 -2.9484386 -0.49320528 0
-1.9487766 -2.8461907 -0.42502373 0
-1.8676056 -2.8751407 -0.42463544 0
-1.7594032 -2.8402033 -0.42220807 0
-1.6516073 -2.844985 -0.42004168 0
-1.54874 -2.8527575 -0.41980734 0
-1.4288425 -2.821723 -0.41836542 0
-1.3463968 -2.8590658 -0.41784009 0
-1.2580907 -2.8829176 -0.41664347 0
-1.1466624 -2.8473899 -0.41541681 0
-1.0433867 -2.8844438 -0.41476095 0
-0.94991273 -2.8133814 -0.41157651 0
-0.84832287 -2.8444886 -0.41121656 0
-0.74599379 -2.8728888 -0.41074267 0
-0.63961971 -2.8836296 -0.40936977 0
-0.54124761 -2.819571 -0.40735137 0
-0.45897985 -2.8258572 -0.40588307 0
-0.35753295 -2.8402717 -0.40619281 0
-0.2556535 -2.8500402 -0.40543705 0
-0.1527449 -2.8429706 -0.40333852 0
-0.050889112 -2.8475258 -0.40309036 0
0.050835639 -2.8450782 -0.41089424 0
0.35822853 -2.843853 -0.45399246 0
0.4407863 -2.841877 -0.46498519 0
0.54705602 -2.8507028 -0.48050538 0
0.63241297 -2.8512738 -0.49194652 0
-2.1218343 -2.7229903 -0.42387235 0
-2.0431743 -2.7579539 -0.42307377 0
-1.9142689 -2.7280951 -0.42192453 0
-1.857205 -2.7714615 -0.42197105 0
-1.7507411 -2.7379792 -0.4196693 0
-1.6477783 -2.7470727 -0.41905361 0
-1.5458517 -2.7528722 -0.41699514 0
-1.4418213 -2.749011 -0.41591689 0
-1.3476676 -2.7585695 -0.41543499 0
-1.2405978 -2.770642 -0.41418377 0
-1.1501187 -2.742197 -0.41220483 0
-1.0368584 -2.7625887 -0.41219211 0
-0.94139004 -2.7237833 -0.40937147 0
-0.84171629 -2.7504151 -0.40854636 0
-0.74356264 -2.7815905 -0.40862349 0
-0.65156889 -2.7507195 -0.40631646 0
-0.55681992 -2.7406473 -0.40482044 0
-0.44451535 -2.7368023 -0.4034842 0
-0.34625259 -2.7506711 -0.40369913 0
-0.24760036 -2.7602468 -0.40310484 0
-0.14790937 -2.7529619 -0.40096679 0
-0.029686719 -2.7658138 -0.4018231 0
0.049216133 -2.7547519 -0.4085145 0
0.2457518 -2.735795 -0.43689692 0
0.35366952 -2.7568266 -0.45137858 0
0.45678681 -2.750011 -0.46583313 0
0.54427654 -2.7294598 -0.47708732 0
0.65058267 -2.7470531 -0.49245551 0
-2.2334681 -2.6254773 -0.42324328 0
-2.1574552 -2.6493211 -0.42191905 0
-2.0420337 -2.6206179 -0.42022437 0
-1.963406 -2.6609495 -0.41974315 0
-1.8613299 -2.6527412 -0.41871145 0
-1.7383524 -2.6347063 -0.41699907 0
-1.6426425 -2.6517224 -0.41616642 0
-1.5394062 -2.6517112 -0.4147689 0
-1.4430994 -2.6582475 -0.4134106 0
-1.3455883 -2.6575015 -0.4129661 0
-1.2548445 -2.6322818 -0.41073915 0
-1.1521578 -2.6400168 -0.40935239 0
-1.0455326 -2.6506178 -0.40985012 0
-0.95117247 -2.6295109 -0.40735826 0
-0.85399508 -2.6541827 -0.40639639 0
-0.7332859 -2.6666183 -0.40553886 0
-0.63942116 -2.6157646 -0.40282431 0
-0.54410708 -2.6310735 -0.40202257 0
-0.44908968 -2.6451523 -0.40124235 0
-0.35401055 -2.6587718 -0.40122786 0
-0.25866333 -2.6688583 -0.40090188 0
0.04759663 -2.6644258 -0.40613469 0
0.16035241 -2.6332788 -0.42161167 0
0.2564224 -2.6445875 -0.43630326 0
0.34268007 -2.6447566 -0.44743842 0
0.44863003 -2.6436005 -0.46199015 0
0.54928404 -2.6543412 -0.47599137 0
0.64228463 -2.6273069 -0.48848253 0
0.71244508 -2.6652262 -0.49898699 0
-2.3029549 -2.5187674 -0.41904908 0
-2.2643332 -2.548872 -0.42083323 0
-2.1511483 -2.5287728 -0.41970071 0
-2.0455682 -2.5363348 -0.41749576 0
-1.9713566 -2.5675464 -0.41812915 0
-1.847706 -2.5545852 -0.41610816 0
-1.7414253 -2.5199542 -0.41420758 0
-1.6486572 -2.5511148 -0.41389653 0
-1.5514112 -2.5449045 -0.41268742 0
-1.4546789 -2.5614841 -0.41138795 0
-1.3404802 -2.5558147 -0.40994859 0
-1.2315532 -2.520998 -0.40879744 0
-1.1529019 -2.5419164 -0.40686321 0
-1.0467268 -2.5456901 -0.40647674 0
-0.93901664 -2.5389287 -0.40513968 0
-0.84422499 -2.5607224 -0.40363926 0
-0.77081907 -2.5846024 -0.40361795 0
-0.65522373 -2.5233209 -0.40105641 0
-0.50958306 -2.555892 -0.40090156 0
0.063914828 -2.5476139 -0.40563104 0
0.15554918 -2.5555398 -0.41910282 0
0.26499531 -2.5453088 -0.43471482 0
0.35908365 -2.5550508 -0.44805783 0
0.44080952 -2.5408254 -0.45859078 0
0.55336457 -2.5525334 -0.47401991 0
0.64381164 -2.553221 -0.48702022 0
0.73208928 -2.5202854 -0.4980697 0
-2.4075775 -2.4162173 -0.41881058 0
-2.3612313 -2.4737005 -0.42108411 0
-2.253119 -2.4291034 -0.41737464 0
-2.146071 -2.438895 -0.41683772 0
-2.0478983 -2.4425712 -0.41592669 0
-1.9479719 -2.4633462 -0.4147639 0
-1.8487567 -2.443975 -0.41360563 0
-1.7443409 -2.4359453 -0.41159642 0
-1.6559598 -2.4711456 -0.4120203 0
-1.5560983 -2.4335933 -0.40998802 0
-1.4449044 -2.4614973 -0.40865669 0
-1.3522868 -2.4490261 -0.40750796 0
-1.2615304 -2.4618759 -0.40683058 0
-1.1538233 -2.4501266 -0.4053323 0
-1.0427269 -2.4526594 -0.40264758 0
-0.94460392 -2.4458444 -0.4034501 0
-0.85277259 -2.4673743 -0.4017151 0
-0.76233977 -2.491045 -0.40087 0
0.060984783 -2.4323907 -0.40242064 0
0.14951359 -2.4560764 -0.41586 0
0.25455362 -2.4448647 -0.43083048 0
0.36041969 -2.43962 -0.44589347 0
0.45254159 -2.4517293 -0.45868739 0
0.54271883 -2.4471469 -0.47045112 0
0.6576246 -2.4369247 -0.48653874 0
0.72428942 -2.428654 -0.49393597 0
-2.4511652 -2.3565006 -0.41852257 0
-2.3442113 -2.3527308 -0.41669053 0
-2.2281413 -2.33426 -0.41596222 0
-2.1431928 -2.3440337 -0.41307455 0
-2.0620761 -2.3549614 -0.41369504 0
-1.9587002 -2.3362029 -0.41196033 0
-1.8430294 -2.3533938 -0.41073394 0
-1.7554355 -2.3553605 -0.41080576 0
-1.653726 -2.356878 -0.40875506 0
-1.5393225 -2.3330541 -0.40717068 0
-1.4478363 -2.3625786 -0.40713692 0
-1.3578792 -2.3390217 -0.40476313 0
-1.2511723 -2.3444784 -0.40321642 0
-1.1492401 -2.3523877 -0.40288433 0
-1.0529634 -2.3441896 -0.40115899 0
-0.92944235 -2.3562939 -0.40119419 0
-0.87724197 -2.3719978 -0.40055633 0
0.075815648 -2.3533869 -0.40179062 0
0.14341728 -2.3564107 -0.41269913 0
0.24406159 -2.3443015 -0.42680737 0
0.34497771 -2.335289 -0.4411608 0
0.46388564 -2.3445961 -0.45689192 0
0.56294578 -2.3567731 -0.47117138 0
0.65567368 -2.3447356 -0.48410678 0
0.73331642 -2.3362956 -0.49564335 0
-2.5407917 -2.2410207 -0.41613662 0
-2.4672167 -2.2721007 -0.41575798 0
-2.3628578 -2.2393336 -0.41530228 0
-2.2771974 -2.2528441 -0.41273984 0
-2.1752052 -2.2465966 -0.41243944 0
-2.0510681 -2.2432003 -0.41027331 0
-1.9296083 -2.235831 -0.40894771 0
-1.8413339 -2.2394617 -0.40776119 0
-1.7642698 -2.264163 -0.40752977 0
-1.6511035 -2.2487664 -0.40628731 0
-1.5359138 -2.2225714 -0.40425617 0
-1.4525132 -2.2475779 -0.40410355 0
-1.3460507 -2.2439528 -0.40259513 0
-1.2310042 -2.2414074 -0.40109873 0
-1.1276875 -2.2671413 -0.40105733 0
0.12940884 -2.2563729 -0.40816671 0
0.23509175 -2.2581723 -0.42343441 0
0.34910277 -2.2365456 -0.43980613 0
0.42945862 -2.2665827 -0.45106816 0
0.553738 -2.2519608 -0.46757841 0
0.65088403 -2.2405906 -0.48077196 0
0.73956221 -2.2437885 -0.49395892 0
-2.6212294 -2.1189682 -0.41406217 0
-2.5621703 -2.1638489 -0.41527662 0
-2.4542596 -2.1544867 -0.41297016 0
-2.3718145 -2.1530318 -0.4118574 0
-2.2610517 -2.1429138 -0.41037342 0
-2.1395481 -2.1473665 -0.408995 0
-2.0412359 -2.1384506 -0.40876997 0
-1.9608041 -2.1445532 -0.40625384 0
-1.8599344 -2.1341398 -0.40537497 0
-1.7540399 -2.1539114 -0.40451798 0
-1.6423826 -2.1393003 -0.40342835 0
-1.5566384 -2.130893 -0.4021188 0
-1.469389 -2.1591885 -0.40187919 0
-1.3475401 -2.1409988 -0.400686 0
0.099016048 -2.1270685 -0.40007406 0
0.16976842 -2.1383593 -0.4111076 0
0.25706834 -2.1650357 -0.42422962 0
0.34071502 -2.1463466 -0.4373489 0
0.45371097 -2.1547236 -0.45177948 0
0.5322032 -2.1440425 -0.4624896 0
0.65821993 -2.1509342 -0.4801535 0
0.74308807 -2.1505327 -0.49256328 0
-2.6666839 -2.0323639 -0.41169003 0
-2.5648901 -2.0432549 -0.41115198 0
-2.4535818 -2.0423155 -0.41000894 0
-2.3502388 -2.0432541 -0.4092803 0
-2.2384071 -2.0319262 -0.40719578 0
-2.1452487 -2.0524092 -0.40709737 0
-2.0345879 -2.041889 -0.40375775 0
-1.9528761 -2.0554712 -0.40548408 0
-1.8522222 -2.0550938 -0.40262008 0
-1.7413419 -2.0470371 -0.40208068 0
-1.6970934 -2.0840285 -0.40191793 0
-1.53748 -2.042125 -0.40092936 0
0.14231664 -2.0476017 -0.40535432 0
0.24954975 -2.0531585 -0.42113575 0
0.34932402 -2.055476 -0.43593213 0
0.44455373 -2.0388851 -0.44798088 0
0.56241989 -2.0453601 -0.46435815 0
0.64499885 -2.0554228 -0.47606996 0
0.74338716 -2.0544968 -0.49049696 0
-2.7206013 -1.9628245 -0.41195723 0
-2.6301212 -1.9456718 -0.40994018 0
-2.5362668 -1.9329922 -0.40790075 0
-2.462105 -1.9614137 -0.40896553 0
-2.3409333 -1.9389235 -0.40572679 0
-2.2486668 -1.9549015 -0.4056626 0
-2.1717033 -1.9713737 -0.40486497 0
-2.0646989 -1.9568262 -0.40312004 0
-1.9533097 -1.9605275 -0.40260714 0
-1.8391584 -1.9545339 -0.40124178 0
-1.6708063 -1.9928056 -0.40003026 0
0.14709567 -1.952021 -0.40417054 0
0.24533695 -1.9491543 -0.41876629 0
0.35954145 -1.9485759 -0.43472552 0
0.46296057 -1.9538561 -0.44877926 0
0.55314165 -1.939289 -0.46079728 0
0.649306 -1.9422692 -0.4744204 0
0.75559801 -1.9648107 -0.49039641 0
0.82189703 -1.9599829 -0.49953729 0
-2.7434099 -1.8433738 -0.40804705 0
-2.6816521 -1.8674359 -0.40887609 0
-2.5823145 -1.8536588 -0.40743643 0
-2.4572496 -1.8451667 -0.40514159 0
-2.3694038 -1.8600082 -0.40471581 0
-2.2593462 -1.8534065 -0.40312031 0
-2.1464274 -1.8660692 -0.40250388 0
-2.0456197 -1.8481226 -0.40085438 0
0.1717439 -1.8554022 -0.40509444 0
0.26585281 -1.8372991 -0.41934553 0
0.3469142 -1.8355625 -0.43058309 0
0.44772258 -1.8657272 -0.44479245 0
0.54623288 -1.8537399 -0.4580282 0
0.65284204 -1.8548262 -0.47321543 0
0.75850171 -1.8446921 -0.48798466 0
0.82609129 -1.8566184 -0.49756837 0
-2.8166511 -1.7308937 -0.40593332 0
-2.7584007 -1.7593694 -0.40577543 0
-2.6372616 -1.7537287 -0.40467525 0
-2.5429814 -1.7440499 -0.40374109 0
-2.4362273 -1.748791 -0.40296322 0
-2.3311203 -1.7504827 -0.40135852 0
-2.2156229 -1.7650559 -0.40087017 0
0.16785246 -1.7315556 -0.40164462 0
0.25113696 -1.7696321 -0.4159337 0
0.35545164 -1.7431362 -0.43011475 0
0.44686386 -1.7424654 -0.44191483 0
0.54548472 -1.7373977 -0.45560077 0
0.65019596 -1.7571982 -0.47066388 0
0.7605049 -1.7428144 -0.48617849 0
0.8367877 -1.7449718 -0.49546969 0
-2.8607531 -1.6471511 -0.40532929 0
-2.7623482 -1.6523565 -0.40410617 0
-2.6405191 -1.6488199 -0.40146992 0
-2.5824394 -1.6643928 -0.40158468 0
-2.4706151 -1.6943293 -0.4019641 0
-2.3770247 -1.6806667 -0.40073103 0
0.18406342 -1.6543691 -0.40340286 0
0.24136603 -1.6617426 -0.41142079 0
0.34959146 -1.6434351 -0.42692786 0
0.45286858 -1.6457179 -0.44098052 0
0.55801666 -1.6531667 -0.45558977 0
0.65282947 -1.6550387 -0.46891749 0
0.7565105 -1.6365162 -0.48312116 0
0.83132225 -1.6414452 -0.49302667 0
-2.8565991 -1.5534462 -0.40299749 0
-2.7387276 -1.5509315 -0.40161666 0
-2.6361227 -1.5684922 -0.40060666 0
0.18399738 -1.5510036 -0.4019179 0
0.25552607 -1.550456 -0.41012582 0
0.34548983 -1.5578172 -0.42435533 0
0.45910448 -1.5797797 -0.44086927 0
0.53736329 -1.5915512 -0.45011717 0
-2.923892 -1.4675702 -0.40170303 0
-2.8701952 -1.4663286 -0.40177414 0
0.2315807 -1.4928925 -0.40481326 0
1.3263506 1.2934692 -0.49642485 0
0.67162377 1.3500487 -0.4040629 0
0.74942094 1.356788 -0.41534948 0
0.84008801 1.3558135 -0.42742902 0
0.93302184 1.3497831 -0.43969846 0
1.0516077 1.3490674 -0.45842418 0
1.1676437 1.3569001 -0.4735733 0
1.2500535 1.3481106 -0.48486844 0
1.3205962 1.3636932 -0.49372172 0
0.68061829 1.4188768 -0.40435249 0
0.74771827 1.4507654 -0.41235185 0
0.85414279 1.4543399 -0.42839971 0
0.94807041 1.4533049 -0.43979856 0
1.0496877 1.4512849 -0.45585299 0
1.1369617 1.4504906 -0.46794423 0
1.2378464 1.4547634 -0.48094523 0
1.3462617 1.4513426 -0.49569497 0
0.68405914 1.5374048 -0.4002769 0
0.7402792 1.5622648 -0.40826294 0
0.85939366 1.555961 -0.42637527 0
0.94841623 1.5555736 -0.43926403 0
1.0333313 1.5418297 -0.45007697 0
1.1428057 1.5562519 -0.466043 0
1.2635099 1.5404493 -0.48274457 0
1.3430994 1.5517672 -0.49401969 0
0.6764825 1.6194284 -0.40190339 0
0.75038481 1.6327732 -0.40819788 0
0.84163386 1.6328881 -0.42209741 0
0.94446862 1.6354409 -0.43730626 0
1.0402036 1.6350617 -0.4498212 0
1.1501787 1.6451672 -0.46569705 0
1.2438728 1.6380095 -0.47735548 0
1.3564882 1.6494101 -0.49391928 0
1.401705 1.6477386 -0.49943385 0
0.73794645 1.7596309 -0.40518323 0
0.84975743 1.7394764 -0.42009225 0
0.94457823 1.7401091 -0.43433499 0
1.0508438 1.75203 -0.44926476 0
1.1496267 1.7480419 -0.46276277 0
1.2333043 1.7579813 -0.47418174 0
1.3448776 1.7516237 -0.4889805 0
0.76198721 1.8539784 -0.40665764 0
0.84138197 1.8553076 -0.41596651 0
0.93956679 1.855428 -0.43045408 0
1.0380722 1.848403 -0.44410092 0
1.1337115 1.8595072 -0.45832172 0
1.2561409 1.8458246 -0.47552094 0
1.3478386 1.8634961 -0.48799831 0
1.4228358 1.8530259 -0.49766973 0
0.76504892 1.9603974 -0.40566921 0
0.84218961 1.9564688 -0.41430041 0
0.94463646 1.9614671 -0.42794824 0
1.0618469 1.9560932 -0.44555238 0
1.1521583 1.9527019 -0.4583824 0
1.2475803 1.9573408 -0.47190723 0
1.3642936 1.954213 -0.48752204 0
1.413617 1.9253174 -0.49540374 0
0.79239845 2.0522161 -0.40669134 0
0.85042429 2.027262 -0.41357976 0
0.96885216 2.0348344 -0.43008384 0
1.0608872 2.0464146 -0.4436605 0
1.1526988 2.0319989 -0.45580402 0
1.237088 2.0621486 -0.46744817 0
1.3356223 2.0633602 -0.48202488 0
1.4266988 2.075274 -0.49320701 0
0.77756131 2.1496112 -0.40115771 0
0.85441649 2.1479504 -0.41288239 0
0.94293189 2.1396208 -0.4239527 0
1.0503596 2.1497707 -0.43859184 0
1.1452841 2.1464016 -0.45320377 0
1.2257719 2.1468475 -0.46359038 0
1.3338258 2.1528883 -0.47968143 0
1.4289474 2.1655595 -0.49204096 0
0.79363906 2.2962837 -0.40163857 0
0.84837395 2.2435491 -0.40962115 0
0.96089655 2.2459595 -0.42461595 0
1.0412393 2.2531428 -0.43537444 0
1.1244935 2.2608778 -0.44678965 0
1.2390643 2.2443359 -0.46385717 0
1.3413569 2.2579169 -0.47758031 0
1.4318615 2.2390242 -0.49162555 0
1.5013834 2.2404613 -0.49978814 0
0.84890652 2.3472471 -0.40722281 0
0.93123609 2.3612754 -0.41884828 0
1.0507488 2.3608079 -0.43446127 0
1.1702151 2.35274 -0.45115739 0
1.2722027 2.3433678 -0.46632051 0
1.3694973 2.3587971 -0.47929269 0
1.4509398 2.3425479 -0.49147767 0
1.5038341 2.3521681 -0.49887818 0
0.84819043 2.4318154 -0.40546456 0
0.95900249 2.4520333 -0.42078143 0
1.0626318 2.4346559 -0.43479151 0
1.1550074 2.452487 -0.44686449 0
1.2604296 2.4456224 -0.46201965 0
1.366362 2.4468412 -0.47678813 0
1.465903 2.4436035 -0.49067464 0
0.86814612 2.5512609 -0.40649962 0
0.93681866 2.5516136 -0.41477299 0
1.0520699 2.5078592 -0.43144423 0
1.1544864 2.5452311 -0.44517043 0
1.2418624 2.541775 -0.45714015 0
1.3440943 2.5478551 -0.4717629 0
1.4532654 2.5451989 -0.48694173 0
1.5342404 2.5581465 -0.49760592 0
0.87281775 2.6475132 -0.40438321 0
0.96334571 2.6633532 -0.41675588 0
1.2491044 2.6039929 -0.4574272 0
1.3423761 2.6350081 -0.46884727 0
1.4364001 2.6610031 -0.48207435 0
1.5205102 2.662854 -0.49401125 0
0.87320817 2.7819812 -0.40070838 0
0.95145351 2.7519896 -0.41294482 0
1.0289384 2.7221143 -0.42478082 0
1.4931377 2.7040715 -0.48923707 0
1.5588435 2.7299867 -0.49791166 0
0.93736464 2.8432453 -0.40897235 0
1.0615711 2.8493326 -0.42591429 0
0.95641422 2.9482472 -0.40875778 0
1.0370443 2.9321728 -0.42113844 0
1.1250204 2.9763048 -0.43168929 0
0.95379597 3.0387285 -0.40666386 0
1.0492361 3.0361786 -0.42021737 0
1.1570477 3.0610349 -0.43399212 0
0.94748956 3.1224158 -0.40426221 0
1.0376867 3.1485233 -0.41608337 0
1.1418563 3.1568005 -0.43055457 0
1.0627651 3.2236793 -0.41677254 0
1.1511182 3.279722 -0.42977914 0
1.2211025 3.2304952 -0.4385978 0
1.2454225 3.3427989 -0.43992555 0
-0.068869166 -2.7491851 -0.39983296 0
-0.14307384 -2.6629527 -0.39859512 0
-0.047666777 -2.6674731 -0.39856571 0
-0.56128228 -2.530432 -0.39883918 0
-0.45237154 -2.5536423 -0.39892268 0
-0.36046076 -2.5665765 -0.39868209 0
-0.24996281 -2.5790818 -0.39852151 0
-0.1382383 -2.5729439 -0.39622343 0
-0.046055615 -2.5774465 -0.39630336 0
0.0090792971 -2.5364971 -0.39770886 0
-0.71914983 -2.411345 -0.39855221 0
-0.64514619 -2.4272096 -0.39858299 0
-0.55430514 -2.4367161 -0.39658988 0
-0.45306191 -2.4547789 -0.39683843 0
-0.34671605 -2.4686017 -0.3960079 0
-0.24008431 -2.4772959 -0.39579582 0
-0.15045355 -2.4703233 -0.39347696 0
-0.062014997 -2.4779315 -0.39377314 0
0.0087756198 -2.4516582 -0.39593256 0
-1.0046105 -2.3020673 -0.39781734 0
-0.97307175 -2.3198123 -0.39843616 0
-0.83959639 -2.3593299 -0.39904529 0
-0.76366216 -2.3734028 -0.39773509 0
-0.64619988 -2.3488874 -0.39641631 0
-0.54658288 -2.3443327 -0.39442033 0
-0.45130587 -2.3511138 -0.39449239 0
-0.36592415 -2.3596752 -0.39304149 0
-0.26400504 -2.3701229 -0.39341828 0
-0.16111839 -2.3658621 -0.39096823 0
-0.050771441 -2.3594241 -0.39113998 0
0.025117584 -2.3340762 -0.39592838 0
-1.2363247 -2.2016163 -0.39991975 0
-1.1545247 -2.2204559 -0.39856821 0
-1.0656677 -2.2630553 -0.39917094 0
-0.95415461 -2.2567513 -0.3970643 0
-0.86297351 -2.2347658 -0.39666143 0
-0.75043267 -2.2762525 -0.3955012 0
-0.64975774 -2.2370188 -0.3932302 0
-0.54793388 -2.2415676 -0.39224163 0
-0.45150232 -2.2645535 -0.39187762 0
-0.35011047 -2.257678 -0.39064592 0
-0.25114784 -2.2546334 -0.3903828 0
-0.15322748 -2.2499001 -0.3878451 0
-0.064457491 -2.2489371 -0.38783324 0
0.040502105 -2.2561691 -0.3957766 0
-1.362278 -2.1077256 -0.39958349 0
-1.2685527 -2.1645014 -0.39931625 0
-1.1510028 -2.1442068 -0.39740434 0
-1.0552801 -2.1600749 -0.39693359 0
-0.96265793 -2.1493862 -0.39564219 0
-0.84785962 -2.1496763 -0.39371079 0
-0.7351889 -2.157548 -0.39233893 0
-0.65122539 -2.1279135 -0.39034083 0
-0.55821747 -2.1495697 -0.3898842 0
-0.44450623 -2.1642122 -0.38961703 0
-0.34890962 -2.150084 -0.38792133 0
-0.24980798 -2.1323662 -0.38648832 0
-0.14519691 -2.1321721 -0.38410053 0
-0.053589836 -2.1421838 -0.38473049 0
0.038987275 -2.1718247 -0.39367071 0
-1.624568 -2.0243647 -0.39931142 0
-1.4400231 -2.05234 -0.39852095 0
-1.3536327 -2.0839438 -0.39876705 0
-1.2419319 -2.0437078 -0.39669684 0
-1.1442322 -2.037667 -0.39463538 0
-1.0479463 -2.0695174 -0.39451066 0
-0.96124631 -2.0413404 -0.39268911 0
-0.84715664 -2.0606074 -0.39110631 0
-0.74511456 -2.0442359 -0.3902047 0
-0.65646976 -2.0402393 -0.38843712 0
-0.55184424 -2.0642045 -0.38743225 0
-0.44442254 -2.0445044 -0.38665909 0
-0.34673798 -2.0424559 -0.38505256 0
-0.2558046 -2.0314307 -0.38390991 0
-0.15307312 -2.0319736 -0.38212383 0
-0.051002648 -2.0399413 -0.38248754 0
0.05600059 -2.0425234 -0.39244702 0
-1.9389784 -1.9459364 -0.39989921 0
-1.7458738 -1.9466285 -0.39843878 0
-1.6401248 -1.9369507 -0.39808869 0
-1.5484453 -1.958113 -0.39695087 0
-1.4516851 -1.9478025 -0.39748067 0
-1.3500032 -1.9535462 -0.3953636 0
-1.2473773 -1.9507536 -0.39415601 0
-1.1390672 -1.9300368 -0.39272678 0
-1.0520226 -1.9715157 -0.39203408 0
-0.95753354 -1.9249835 -0.38972244 0
-0.86120135 -1.973245 -0.3899304 0
-0.75640851 -1.9579571 -0.38735402 0
-0.64471298 -1.9555718 -0.38621193 0
-0.54536897 -1.9834127 -0.38579836 0
-0.45566028 -1.9320166 -0.38394865 0
-0.34254876 -1.9335581 -0.38267899 0
-0.24889633 -1.9324383 -0.38142723 0
-0.14596133 -1.9379644 -0.37953687 0
-0.048621539 -1.9442258 -0.38003767 0
0.043206744 -1.9705212 -0.39013317 0
-2.0211375 -1.861299 -0.39956734 0
-1.9337969 -1.8327678 -0.39828444 0
-1.8312445 -1.855373 -0.39719579 0
-1.7391942 -1.8273995 -0.39719725 0
-1.6529775 -1.8606763 -0.39547291 0
-1.5496705 -1.8483316 -0.39465255 0
-1.441244 -1.8496428 -0.39272052 0
-1.362898 -1.8562644 -0.39247251 0
-1.2444955 -1.8570371 -0.39203733 0
-1.1444752 -1.8476207 -0.39082533 0
-1.0517745 -1.873036 -0.38944021 0
-0.94701058 -1.8373903 -0.38773227 0
-0.84207153 -1.8567221 -0.38771811 0
-0.75674665 -1.8406636 -0.3841224 0
-0.65030885 -1.8532786 -0.38386288 0
-0.5499742 -1.8737704 -0.38258082 0
-0.44552809 -1.8719018 -0.3810389 0
-0.35499364 -1.835048 -0.38049591 0
-0.24405284 -1.8323058 -0.37907749 0
-0.15168558 -1.8384705 -0.37743321 0
-0.059441693 -1.8449833 -0.377698 0
0.046410244 -1.856341 -0.38795111 0
0.11330585 -1.8603849 -0.39806479 0
-2.2403243 -1.7329073 -0.3998642 0
-2.1360245 -1.7522326 -0.3987534 0
-2.0216506 -1.7323191 -0.3976872 0
-1.9548098 -1.7491798 -0.39745709 0
-1.8433793 -1.747051 -0.39515075 0
-1.7536844 -1.745609 -0.39334998 0
-1.6490597 -1.7525842 -0.39387187 0
-1.5407734 -1.7343502 -0.39082617 0
-1.4426525 -1.7459111 -0.39079624 0
-1.3380615 -1.7688383 -0.38945839 0
-1.244085 -1.7465496 -0.38875616 0
-1.1475666 -1.7392642 -0.38750023 0
-1.0425171 -1.7571177 -0.38777244 0
-0.95337296 -1.7298148 -0.38478255 0
-0.86110395 -1.7627616 -0.38476861 0
-0.74686408 -1.7458814 -0.38269436 0
-0.64540499 -1.7454946 -0.38113484 0
-0.54952145 -1.7516975 -0.38022324 0
-0.46027645 -1.7437885 -0.37792546 0
-0.35995391 -1.7408614 -0.37853125 0
-0.25899035 -1.7522824 -0.37724289 0
-0.15802106 -1.7612501 -0.37587082 0
-0.056959443 -1.7677245 -0.3760249 0
0.036366984 -1.750029 -0.3847591 0
0.11823326 -1.7356673 -0.39633259 0
-2.5070522 -1.6158055 -0.39952573 0
-2.4484513 -1.6281021 -0.39895868 0
-2.3501034 -1.6361642 -0.39919817 0
-2.2471249 -1.6542474 -0.39794895 0
-2.1791704 -1.6608391 -0.39752734 0
-2.0725391 -1.6510185 -0.3956511 0
-1.9605135 -1.6558542 -0.39449143 0
-1.854668 -1.6422317 -0.39310253 0
-1.7532568 -1.645965 -0.39154232 0
-1.6510839 -1.6566503 -0.39026424 0
-1.5301886 -1.6417123 -0.38930717 0
-1.4584432 -1.6656305 -0.38797802 0
-1.348766 -1.6562614 -0.38707513 0
-1.2359939 -1.6339109 -0.38437971 0
-1.1421965 -1.6475662 -0.38681179 0
-1.0606027 -1.6483513 -0.3839705 0
-0.94765061 -1.6428617 -0.3821899 0
-0.85148615 -1.6521118 -0.38181794 0
-0.75769979 -1.6330557 -0.38067064 0
-0.65265542 -1.654799 -0.37865293 0
-0.55385077 -1.6411186 -0.37736073 0
-0.44907099 -1.6328665 -0.37520111 0
-0.3441909 -1.6646847 -0.37653553 0
-0.26045564 -1.642089 -0.3759737 0
-0.14652045 -1.6330565 -0.37317798 0
-0.052822363 -1.6389595 -0.37323651 0
0.049428046 -1.6525387 -0.38469374 0
0.14697377 -1.6408712 -0.39772591 0
-2.6641614 -1.5086465 -0.39958858 0
-2.5482378 -1.5409876 -0.39855888 0
-2.4410954 -1.5487003 -0.39699411 0
-2.3383851 -1.5549873 -0.39631489 0
-2.2468002 -1.5409278 -0.39524505 0
-2.1350992 -1.5559562 -0.394382 0
-2.0338678 -1.5501931 -0.39303988 0
-1.9297583 -1.5372783 -0.391202 0
-1.8491626 -1.5391361 -0.38980824 0
-1.7541867 -1.5472407 -0.39027512 0
-1.6482055 -1.5620137 -0.38812464 0
-1.5472047 -1.5528243 -0.38681999 0
-1.4490554 -1.5621879 -0.38602847 0
-1.3505507 -1.5423496 -0.38437623 0
-1.2385192 -1.5407062 -0.38271952 0
-1.1577072 -1.5639913 -0.38182133 0
-1.0582781 -1.5312817 -0.38165909 0
-0.95576143 -1.5525301 -0.38058427 0
-0.84164292 -1.5504028 -0.37863216 0
-0.74776953 -1.5309931 -0.37761837 0
-0.63333493 -1.5508348 -0.37613067 0
-0.54959804 -1.5309252 -0.37662974 0
-0.45070902 -1.5402477 -0.3723506 0
-0.35120359 -1.5633829 -0.37259907 0
-0.24048887 -1.5781144 -0.37312934 0
-0.14157483 -1.545066 -0.37070522 0
-0.049804609 -1.5468416 -0.37119123 0
0.042941466 -1.5616263 -0.38139856 0
0.13321751 -1.5488486 -0.39464629 0
-2.877141 -1.4183238 -0.39900437 0
-2.7757788 -1.4431953 -0.39917588 0
-2.6788397 -1.4419729 -0.39768687 0
-2.5638363 -1.4356021 -0.39662734 0
-2.4435546 -1.4539189 -0.39555979 0
-2.3489695 -1.4438608 -0.39392596 0
-2.261642 -1.4422574 -0.39240041 0
-2.1434755 -1.4475794 -0.39150432 0
-2.034652 -1.4385933 -0.39064756 0
-1.9715098 -1.4584923 -0.38993108 0
-1.8709093 -1.4471684 -0.38873947 0
-1.7634083 -1.4465052 -0.38664958 0
-1.6554638 -1.4602746 -0.38637877 0
-1.5536618 -1.4513744 -0.38478681 0
-1.4522154 -1.4368222 -0.38293791 0
-1.3449773 -1.4339143 -0.38198766 0
-1.2698061 -1.4711384 -0.38110566 0
-1.1465994 -1.4499201 -0.37909123 0
-1.0432329 -1.4426447 -0.37905294 0
-0.95337087 -1.437713 -0.3774049 0
-0.86186588 -1.4602673 -0.37593493 0
-0.74962658 -1.43388 -0.37425527 0
-0.65993446 -1.4723165 -0.37540123 0
-0.54854542 -1.4512559 -0.37289524 0
-0.45454669 -1.4480495 -0.37192798 0
-0.34522086 -1.4498354 -0.36990061 0
-0.25539017 -1.4572601 -0.37078562 0
-0.16385356 -1.4436308 -0.3675665 0
-0.056649406 -1.4396083 -0.36863574 0
0.051541932 -1.4536346 -0.38023633 0
0.15297797 -1.4666115 -0.3951897 0
-2.9246869 -1.3645566 -0.3975969 0
-2.8286541 -1.3444473 -0.39616093 0
-2.7430048 -1.3522038 -0.39596882 0
-2.6166785 -1.3604727 -0.39486057 0
-2.5308778 -1.3390306 -0.39331427 0
-2.4349821 -1.3559943 -0.39297885 0
-2.342468 -1.348707 -0.39167094 0
-2.2415025 -1.3555031 -0.39053634 0
-2.1489172 -1.3418387 -0.38908553 0
-2.0370924 -1.3546081 -0.38788638 0
-1.9422855 -1.3320036 -0.38645342 0
-1.8425041 -1.3588793 -0.38565773 0
-1.7380377 -1.3443899 -0.38450754 0
-1.6406666 -1.36156 -0.38314712 0
-1.529449 -1.3491378 -0.38222516 0
-1.4418682 -1.3277692 -0.38102841 0
-1.3686435 -1.3561746 -0.37987012 0
-1.2387551 -1.3548607 -0.37871754 0
-1.1469018 -1.3483285 -0.37689906 0
-1.0434133 -1.3521508 -0.37566563 0
-0.93355006 -1.33043 -0.3764897 0
-0.85334313 -1.3631641 -0.37353215 0
-0.75481814 -1.3572415 -0.37193087 0
-0.65119439 -1.3612148 -0.37244487 0
-0.5544706 -1.3446525 -0.37028506 0
-0.43493402 -1.3516692 -0.36964628 0
-0.35003304 -1.3478669 -0.36678877 0
-0.24972586 -1.3537774 -0.36893889 0
-0.15063462 -1.3528632 -0.36481291 0
-0.05386623 -1.3689396 -0.36716485 0
0.0049457154 -1.3816921 -0.37022507 0
-2.9517212 -1.2755324 -0.39633733 0
-2.8494828 -1.255685 -0.39452669 0
-2.7581689 -1.2391243 -0.39250106 0
-2.6591465 -1.2638735 -0.39242458 0
-2.5714803 -1.2447916 -0.39099795 0
-2.463589 -1.2586282 -0.38992503 0
-2.3723497 -1.2551585 -0.38899219 0
-2.2614574 -1.2383144 -0.38725221 0
-2.1437657 -1.2443504 -0.38652524 0
-2.0691581 -1.2614613 -0.38637742 0
-1.9624329 -1.251484 -0.38467059 0
-1.8479316 -1.2479494 -0.38323209 0
-1.7553577 -1.2538679 -0.3816812 0
-1.6565673 -1.2511851 -0.38086781 0
-1.5358013 -1.241549 -0.37912163 0
-1.4595169 -1.260668 -0.37866285 0
-1.3493531 -1.2426136 -0.37674803 0
-1.2434299 -1.2480481 -0.37523097 0
-1.1413333 -1.2483151 -0.37464711 0
-1.0428561 -1.2340462 -0.37292641 0
-0.97087944 -1.271947 -0.37249047 0
-0.85201508 -1.2523499 -0.37183374 0
-0.75704426 -1.2447745 -0.37033314 0
-0.64203852 -1.2550504 -0.36812797 0
-0.55096185 -1.2623539 -0.36913532 0
-0.47566757 -1.2863473 -0.36751065 0
-3.0053265 -1.1237216 -0.39395875 0
-2.9670134 -1.1093959 -0.393006 0
-2.7459722 -1.1634139 -0.39226544 0
-2.651268 -1.1460496 -0.38968951 0
-2.545023 -1.1564233 -0.38834417 0
-2.428071 -1.132875 -0.38710928 0
-2.341783 -1.1544069 -0.38611245 0
-2.2241828 -1.1363176 -0.38354579 0
-2.1209011 -1.1662911 -0.38370526 0
-2.0335376 -1.1515719 -0.3827453 0
-1.9385097 -1.1534319 -0.3817198 0
-1.8492149 -1.154842 -0.3808814 0
-1.7594917 -1.151955 -0.38002226 0
-1.6562433 -1.1533036 -0.37812364 0
-1.5488089 -1.1504407 -0.3766351 0
-1.4389428 -1.1597639 -0.37567416 0
-1.3350087 -1.1439438 -0.37423381 0
-1.2437609 -1.145381 -0.37226081 0
-1.1327053 -1.1498652 -0.37173563 0
-1.0612912 -1.1643326 -0.37225085 0
-0.94353122 -1.1539803 -0.36977461 0
-0.85121137 -1.1593657 -0.36858609 0
-0.75638646 -1.1466143 -0.36821157 0
-0.67129546 -1.1952572 -0.36734727 0
-3.008466 -1.0518976 -0.39169937 0
-2.916523 -1.0431886 -0.39096418 0
-2.8579736 -1.0456409 -0.39011842 0
-2.7576637 -1.0311179 -0.3878001 0
-2.5404315 -1.0763303 -0.38770893 0
-2.4465628 -1.0572395 -0.38516366 0
-2.3594224 -1.0397333 -0.38372436 0
-2.2681172 -1.0386299 -0.38274226 0
-2.1647687 -1.0442095 -0.3818633 0
-2.0577257 -1.0512621 -0.37986913 0
-1.9423981 -1.0455432 -0.37811655 0
-1.841601 -1.050019 -0.37781706 0
-1.7275339 -1.0582335 -0.37678486 0
-1.6243298 -1.0423269 -0.3759456 0
-1.5648969 -1.0609967 -0.3753446 0
-1.4439446 -1.0522779 -0.37272081 0
-1.3472681 -1.0484641 -0.37189215 0
-1.2358168 -1.0376126 -0.37047672 0
-1.162654 -1.0682396 -0.3687501 0
-1.0537207 -1.0498654 -0.36821386 0
-0.94777483 -1.0516576 -0.36785445 0
-0.85546774 -1.065855 -0.36631501 0
-3.0135241 -0.9577623 -0.38827109 0
-2.9277589 -0.95371407 -0.3875134 0
-2.8405123 -0.94779384 -0.38650781 0
-2.7531936 -0.96262193 -0.38689286 0
-2.6568248 -0.95022249 -0.38510039 0
-2.5647199 -0.93803155 -0.38347718 0
-2.4645741 -0.92152894 -0.38051179 0
-2.2526743 -0.95441341 -0.38132983 0
-2.1522765 -0.96662223 -0.37920046 0
-2.0277212 -0.96376127 -0.37826467 0
-1.9426374 -0.95766288 -0.37731755 0
-1.8522733 -0.94630224 -0.37517413 0
-1.7609549 -0.94783318 -0.37433845 0
-1.6549193 -0.95286626 -0.37274227 0
-1.5493307 -0.95210308 -0.3719916 0
-1.4654133 -0.94450462 -0.37076896 0
-1.3539877 -0.93647349 -0.36882615 0
-1.261889 -0.95634913 -0.36811149 0
-1.1502024 -0.94360059 -0.3671205 0
-1.0534166 -0.95435512 -0.36608377 0
-0.96825475 -0.95811051 -0.3650994 0
-3.0343575 -0.86961412 -0.38777989 0
-2.9470124 -0.84459698 -0.3860918 0
-2.8557222 -0.86278921 -0.38499168 0
-2.7653754 -0.85715264 -0.38355008 0
-2.6746378 -0.85005808 -0.38198456 0
-2.5551434 -0.84027636 -0.38092843 0
-2.4439318 -0.86118823 -0.38128361 0
-2.3552065 -0.86173332 -0.37891829 0
-2.2520592 -0.82991982 -0.37612262 0
-1.9633505 -0.89895415 -0.37611133 0
-1.8477702 -0.86211705 -0.37456334 0
-1.7257727 -0.84698534 -0.37249368 0
-1.6693062 -0.86302227 -0.37111357 0
-1.5438712 -0.85349309 -0.36868873 0
-1.428766 -0.85013688 -0.36777103 0
-1.3350608 -0.84701699 -0.36662126 0
-1.2410446 -0.85113293 -0.36537644 0
-1.1504307 -0.85287648 -0.36415085 0
-1.0532345 -0.85156316 -0.36302423 0
-3.0303717 -0.75227433 -0.38340196 0
-2.9571619 -0.75655961 -0.38234845 0
-2.8676548 -0.75559634 -0.38189164 0
-2.776618 -0.7529068 -0.38093793 0
-2.6568158 -0.74898666 -0.37991691 0
-2.5161192 -0.74065071 -0.37808093 0
-2.4258254 -0.75190717 -0.37726307 0
-2.3362157 -0.76103967 -0.37665752 0
-2.2503161 -0.75087583 -0.37574214 0
-1.7296039 -0.79192924 -0.37108335 0
-1.6351476 -0.77716762 -0.36959755 0
-1.5597779 -0.75506449 -0.36805537 0
-1.4526531 -0.74210465 -0.36529091 0
-1.3689331 -0.74954742 -0.36376953 0
-1.2481467 -0.74260569 -0.36317754 0
-1.1423419 -0.75618279 -0.3621971 0
-1.0926523 -0.79625374 -0.36226726 0
-3.0477262 -0.64177263 -0.38242954 0
-2.9716549 -0.64796025 -0.38142681 0
-2.8541098 -0.6367467 -0.3796728 0
-2.7466216 -0.6610285 -0.37819386 0
-2.6138961 -0.64891273 -0.37628791 0
-2.5278986 -0.64673144 -0.37536621 0
-2.438637 -0.64254624 -0.37435594 0
-2.3489563 -0.65510529 -0.37379071 0
-2.2496428 -0.64835292 -0.37243962 0
-1.5067096 -0.6898731 -0.36635217 0
-1.4248937 -0.68223983 -0.36474627 0
-1.3476034 -0.66815275 -0.36260667 0
-1.2515757 -0.63951445 -0.36195078 0
-1.1723099 -0.66384774 -0.36106014 0
-3.0320005 -0.54836893 -0.37833178 0
-2.9697032 -0.53706646 -0.3773036 0
-2.8664782 -0.55011487 -0.37729481 0
-2.7339907 -0.54498631 -0.37563223 0
-2.6305318 -0.55390823 -0.37543935 0
-2.5384405 -0.55349344 -0.37390038 0
-2.4478922 -0.55212319 -0.37244177 0
-2.3618195 -0.55057329 -0.37154761 0
-2.2489171 -0.55830753 -0.37003067 0
-2.1271636 -0.56052279 -0.36891654 0
-2.0472963 -0.53948075 -0.36753735 0
-1.964648 -0.53277755 -0.36625788 0
-1.8500023 -0.51586884 -0.36587745 0
-1.2029213 -0.57174343 -0.35687622 0
-1.197891 -0.59051585 -0.35785478 0
-3.0248022 -0.45802593 -0.37564185 0
-2.9819474 -0.45154175 -0.37507886 0
-2.8511186 -0.43173105 -0.3733604 0
-2.7412131 -0.46217343 -0.37257612 0
-2.6242497 -0.45522109 -0.37119833 0
-2.5371461 -0.44011009 -0.36986479 0
-2.451277 -0.46155563 -0.36990583 0
-2.3642673 -0.44517598 -0.36847544 0
-2.260299 -0.45916843 -0.36813128 0
-2.1374171 -0.45011136 -0.36612827 0
-2.055814 -0.44826412 -0.36529395 0
-1.9745682 -0.44543791 -0.36434817 0
-1.8359867 -0.44809619 -0.36216065 0
-1.7495235 -0.43976703 -0.36109355 0
-1.6441535 -0.42068616 -0.35939264 0
-1.5732112 -0.41451374 -0.3590509 0
-3.021564 -0.39139 -0.37410036 0
-2.9727523 -0.38506731 -0.37336966 0
-2.8851795 -0.3737238 -0.37205875 0
-2.7436578 -0.36862814 -0.37062815 0
-2.6292348 -0.35978806 -0.36933494 0
-2.541786 -0.34782398 -0.36810154 0
-2.4548595 -0.35386801 -0.36730471 0
-2.3675225 -0.3412821 -0.36610398 0
-2.2638366 -0.36883235 -0.36550322 0
-2.1432705 -0.35599047 -0.36355484 0
-2.0611331 -0.35754871 -0.3624908 0
-1.960667 -0.33312145 -0.36085072 0
-1.831728 -0.35451928 -0.35999939 0
-1.7368422 -0.35277805 -0.35949707 0
-1.6488072 -0.34481439 -0.35897434 0
-1.5283115 -0.35207775 -0.35771129 0
-1.4612209 -0.34862113 -0.3558425 0
-1.3444387 -0.33381709 -0.35382414 0
-1.2816963 -0.32788664 -0.35449779 0
-2.2721696 -0.29431924 -0.36288232 0
-1.8211631 -0.28911662 -0.3584308 0
-1.7281458 -0.29976669 -0.35655919 0
-1.6532559 -0.28677619 -0.35513529 0
-1.5324502 -0.27717614 -0.35411716 0
-1.4544312 -0.26941997 -0.35400856 0
-1.3585936 -0.26589221 -0.35343015 0
-1.2859294 -0.26114225 -0.35166812 0
-2.2719455 0.29429018 -0.34964004 0
-2.1855493 0.28309911 -0.34904841 0
-1.8203186 0.28898257 -0.34358802 0
-1.7257169 0.29081568 -0.34018239 0
-1.6639969 0.28863931 -0.33906361 0
-1.5526772 0.2807833 -0.33930779 0
-1.4384778 0.27076641 -0.33840626 0
-1.3460358 0.25693575 -0.33744296 0
-1.254904 0.26210994 -0.33694816 0
-2.8563232 0.36998597 -0.35364187 0
-2.7532244 0.37007189 -0.3525351 0
-2.6482637 0.36256632 -0.35147595 0
-2.5367398 0.36556375 -0.35013124 0
-2.4319558 0.35046032 -0.34956732 0
-2.345782 0.33804324 -0.34898409 0
-2.2461774 0.35656467 -0.34701428 0
-2.1480536 0.35666668 -0.34616089 0
-2.0478985 0.35518995 -0.34453502 0
-1.9515442 0.34448153 -0.34375226 0
-1.860734 0.35028586 -0.34188637 0
-1.7342404 0.35908434 -0.3402921 0
-1.6507298 0.3476359 -0.33982998 0
-1.5513352 0.34620038 -0.33945128 0
-1.4386425 0.34451672 -0.33781195 0
-1.3656911 0.34640673 -0.33669332 0
-1.2498264 0.31024808 -0.33611441 0
-2.832207 0.42881691 -0.35172313 0
-2.7729263 0.46739516 -0.34934878 0
-2.6490045 0.44981825 -0.34918001 0
-2.5667191 0.46414137 -0.347449 0
-2.455018 0.43803868 -0.34669915 0
-2.3413055 0.44784817 -0.34579843 0
-2.2346144 0.46243584 -0.34461522 0
-2.120563 0.44963092 -0.3438049 0
-2.0426457 0.44541246 -0.3431834 0
-1.9411912 0.45254764 -0.34188971 0
-1.8535615 0.44598034 -0.34028101 0
-1.741362 0.43985227 -0.34041625 0
-1.6508701 0.44229302 -0.33712649 0
-1.5487213 0.41987637 -0.33657533 0
-1.4664562 0.4089179 -0.33513862 0
-2.7481606 0.55805814 -0.34706843 0
-2.6380744 0.55545306 -0.34576553 0
-2.5445776 0.55475134 -0.34518006 0
-2.4600041 0.53630978 -0.3449364 0
-2.3611495 0.55030501 -0.34354842 0
-2.257617 0.56029612 -0.34182552 0
-2.1652112 0.55376816 -0.3407414 0
-2.0680888 0.53785098 -0.34006345 0
-1.9420882 0.52662408 -0.33777481 0
-1.8262115 0.50923485 -0.33773446 0
-1.3009607 0.59566742 -0.33033615 0
-1.2269325 0.59390575 -0.32979834 0
-1.150779 0.56229591 -0.32977587 0
-1.089421 0.56651652 -0.32906085 0
-2.7272835 0.65626287 -0.34443498 0
-2.6492703 0.64965945 -0.34394959 0
-2.5434437 0.65096295 -0.34278408 0
-2.4488835 0.64546788 -0.34169421 0
-2.3483734 0.65513843 -0.33996117 0
-2.2326951 0.65714854 -0.33871311 0
-2.1170294 0.65615517 -0.33774996 0
-2.0273886 0.64425993 -0.33697271 0
-1.5480937 0.68219215 -0.32884023 0
-1.4416883 0.67870849 -0.32979387 0
-1.3431059 0.66200686 -0.32884401 0
-1.2530857 0.6490894 -0.32787019 0
-1.1523937 0.65275306 -0.32755324 0
-1.0532025 0.65302914 -0.32624447 0
-0.9900167 0.67897451 -0.32169867 0
-2.7055809 0.71287346 -0.34354088 0
-2.653317 0.76033944 -0.34129012 0
-2.544317 0.74885994 -0.34035718 0
-2.4475038 0.75858849 -0.33929598 0
-2.3501084 0.76539892 -0.33807072 0
-2.2559879 0.7525028 -0.33682367 0
-2.1647794 0.73939103 -0.33579114 0
-2.0627303 0.75446683 -0.33448076 0
-1.9659047 0.75114244 -0.33336496 0
-1.7673981 0.77883214 -0.33005095 0
-1.6572912 0.75323725 -0.32964203 0
-1.5482811 0.73944873 -0.32959238 0
-1.4725456 0.75820512 -0.32712173 0
-1.3669777 0.74842155 -0.3258507 0
-1.2469995 0.74297404 -0.32596847 0
-1.1596893 0.76014698 -0.32458007 0
-1.0482866 0.75251228 -0.32379898 0
-0.94617057 0.75359619 -0.32198644 0
-0.89318579 0.79922998 -0.32115304 0
-2.6235423 0.84414011 -0.33938941 0
-2.5635684 0.84865636 -0.33890256 0
-2.4583673 0.85302299 -0.33660272 0
-2.3417356 0.85659271 -0.334746 0
-2.2380629 0.86140394 -0.33460066 0
-2.1375666 0.84330744 -0.33346727 0
-2.0408785 0.85336691 -0.33226827 0
-1.9241772 0.85729986 -0.33182022 0
-1.8400644 0.86395258 -0.32920235 0
-1.7368405 0.84071523 -0.32882208 0
-1.6457498 0.85865057 -0.32637072 0
-1.5473008 0.83283752 -0.32604066 0
-1.4416035 0.84168243 -0.32456669 0
-1.3564008 0.85165066 -0.32483003 0
-1.2540449 0.85234034 -0.32328138 0
-1.1457317 0.84267265 -0.32310948 0
-1.059116 0.85871387 -0.3201862 0
-0.95518661 0.84877932 -0.31989789 0
-0.8529852 0.85596859 -0.31845492 0
-0.77154499 0.8937726 -0.31639537 0
-2.5484388 0.95287395 -0.33532414 0
-2.4432518 0.95355445 -0.33400479 0
-2.3450096 0.95411062 -0.33321899 0
-2.245023 0.95112562 -0.33196312 0
-2.1527977 0.94866902 -0.33148244 0
-2.0415628 0.95229638 -0.32947409 0
-1.9458622 0.94177961 -0.32871896 0
-1.8416106 0.9456653 -0.32600576 0
-1.7604479 0.96377933 -0.32497635 0
-1.6549354 0.95284021 -0.32487029 0
-1.5539579 0.93965203 -0.32468951 0
-1.4346421 0.94565296 -0.32294157 0
-1.340849 0.94785076 -0.32059506 0
-1.2590051 0.96334499 -0.31861201 0
-1.1528609 0.94575572 -0.31879401 0
-1.0472116 0.94256842 -0.31846172 0
-0.95308942 0.95649886 -0.31589991 0
-0.85224539 0.95951259 -0.31685194 0
-0.74612391 0.95282596 -0.31258827 0
-0.65596592 0.96383095 -0.3125222 0
-0.59573197 0.9931671 -0.31032094 0
-2.5052214 1.0193722 -0.33275259 0
-2.4627755 1.0601788 -0.3319028 0
-2.3542349 1.0510492 -0.33065578 0
-2.2590427 1.04747 -0.32965717 0
-2.1481409 1.0496322 -0.32762858 0
-2.0632241 1.0539755 -0.32638302 0
-1.9587669 1.0542051 -0.32531306 0
-1.8573459 1.0517613 -0.32449037 0
-1.7547342 1.0458659 -0.32462835 0
-1.6415884 1.0515261 -0.3232376 0
-1.5490596 1.0543451 -0.32143897 0
-1.4547837 1.0599413 -0.319105 0
-1.3562165 1.0490181 -0.31795299 0
-1.2403711 1.0474442 -0.31727332 0
-1.1527224 1.0466937 -0.3167015 0
-1.0475129 1.0425344 -0.31466165 0
-0.93749058 1.0486249 -0.31523728 0
-0.84369135 1.0511101 -0.31304032 0
-0.75477082 1.0574992 -0.31149653 0
-0.6624133 1.052332 -0.31098136 0
-0.55461717 1.0475957 -0.30941495 0
-0.45292178 1.0581722 -0.30850932 0
-0.36548942 1.0824826 -0.30619961 0
-2.4256673 1.131664 -0.32866085 0
-2.3462346 1.1428431 -0.32739049 0
-2.2555475 1.152598 -0.32660571 0
-2.1588666 1.1555538 -0.32530102 0
-2.0519848 1.142662 -0.32464483 0
-1.9462217 1.1579831 -0.32409996 0
-1.8423119 1.1506798 -0.32316309 0
-1.7412741 1.1437843 -0.32168242 0
-1.6555173 1.1508228 -0.32013106 0
-1.5496298 1.1463028 -0.31870916 0
-1.4471207 1.1528522 -0.3171134 0
-1.34639 1.1503515 -0.31568694 0
-1.2373763 1.1394356 -0.31568643 0
-1.1364946 1.1378655 -0.3139604 0
-1.0633883 1.1662874 -0.31329012 0
-0.95502901 1.1556228 -0.31178036 0
-0.86227328 1.1485906 -0.3101964 0
-0.74975055 1.1414176 -0.31044394 0
-0.64209044 1.1530313 -0.30771413 0
-0.54969531 1.1597118 -0.30621535 0
-0.4462395 1.1559809 -0.3051132 0
-0.33620352 1.1417097 -0.30530202 0
-0.24825293 1.1373293 -0.30364224 0
-0.14799917 1.1457042 -0.30167592 0
-0.062484674 1.1636077 -0.30608791 0
0.02117311 1.1806294 -0.31642064 0
-2.3452439 1.2407378 -0.3259939 0
-2.2294655 1.2624732 -0.32423535 0
-2.1376903 1.2512792 -0.32358599 0
-2.0447133 1.2364255 -0.32296818 0
-1.9458318 1.2540698 -0.32144743 0
-1.837258 1.2472068 -0.31959042 0
-1.7562927 1.2545561 -0.31856516 0
-1.6445292 1.2472365 -0.31756315 0
-1.5444931 1.2484244 -0.31611973 0
-1.456694 1.2612988 -0.31324679 0
-1.3474377 1.2552687 -0.31354684 0
-1.2489735 1.2533882 -0.31251034 0
-1.148365 1.2379961 -0.31226346 0
-1.0348125 1.2382202 -0.31087902 0
-0.94809544 1.2595509 -0.30828089 0
-0.84955132 1.2590561 -0.30873397 0
-0.74022484 1.25429 -0.30723539 0
-0.65264249 1.255069 -0.3054347 0
-0.53977239 1.2370623 -0.30477574 0
-0.4490537 1.2390233 -0.30300856 0
-0.34905034 1.2461916 -0.30235085 0
-0.24553575 1.2443998 -0.30071294 0
-0.17806606 1.2679479 -0.30046558 0
-0.034843352 1.2489204 -0.30906698 0
0.058057889 1.2451817 -0.32186943 0
0.14101936 1.2549456 -0.33317909 0
0.24323547 1.2656844 -0.3454152 0
0.33589944 1.2929831 -0.35799894 0
-2.2569089 1.3426085 -0.32248145 0
-2.1672347 1.3531874 -0.32116532 0
-2.0565448 1.3461947 -0.31999174 0
-1.9374093 1.3490061 -0.3182514 0
-1.8330163 1.3357242 -0.31726086 0
-1.750658 1.3410157 -0.31643632 0
-1.6543863 1.3570285 -0.31431112 0
-1.5430782 1.360914 -0.31206667 0
-1.4388318 1.3421267 -0.31218624 0
-1.3504262 1.3551952 -0.31165197 0
-1.2419765 1.3583825 -0.30935317 0
-1.1484576 1.3304362 -0.30966604 0
-1.0459778 1.3545288 -0.30678818 0
-0.95303851 1.3581682 -0.30649826 0
-0.85008281 1.3324426 -0.30679256 0
-0.75520986 1.358796 -0.30409181 0
-0.66797352 1.3672032 -0.30245104 0
-0.5553239 1.3341856 -0.30228835 0
-0.43412739 1.3510214 -0.30198342 0
-0.38685814 1.331938 -0.30343997 0
-0.033490982 1.3335346 -0.30699602 0
0.043902859 1.3548216 -0.31719121 0
0.14448924 1.3533392 -0.33073878 0
0.24714249 1.3576078 -0.34413582 0
0.36055481 1.3493123 -0.36043406 0
0.44552827 1.3512285 -0.37373096 0
0.5501132 1.3376734 -0.3876332 0
0.63055634 1.3642467 -0.39450398 0
-2.2534735 1.4752772 -0.31910688 0
-2.1465082 1.4469907 -0.31863725 0
-2.0618279 1.4578009 -0.31652525 0
-1.9580262 1.4483535 -0.31564292 0
-1.8405557 1.4447298 -0.314439 0
-1.7443376 1.4415462 -0.31288195 0
-1.6511149 1.4494715 -0.31123272 0
-1.5632994 1.4605223 -0.31094679 0
-1.45871 1.4430246 -0.31088886 0
-1.3533864 1.4259588 -0.30863959 0
-1.2590011 1.4658238 -0.3075763 0
-1.1558105 1.4401851 -0.30624557 0
-1.0444818 1.4618261 -0.30473804 0
-0.95459259 1.4466376 -0.30442315 0
-0.84800714 1.44723 -0.30327466 0
-0.74021924 1.4619839 -0.3020761 0
-0.64828765 1.4181697 -0.30406865 0
-0.57262522 1.421941 -0.3001731 0
-0.43117025 1.4845029 -0.30229589 0
-0.025729954 1.4391477 -0.3055276 0
0.043389898 1.4514204 -0.3152186 0
0.15667799 1.4425049 -0.33114249 0
0.25605288 1.4557273 -0.34353507 0
0.33672571 1.4691507 -0.35568905 0
0.4470953 1.4383442 -0.3723864 0
0.54311413 1.4368671 -0.38512677 0
0.63238734 1.4489088 -0.39589524 0
