# .PCD v0.7 - Point Cloud Data file format
VERSION 0.7
FIELDS x y z intensity
SIZE 4 4 4 4
TYPE F F F F
COUNT 1 1 1 1
WIDTH 1347
HEIGHT 1
VIEWPOINT 0 0 0 1 0 0 0
POINTS 1347
DATA ascii
1.14184 -3.2529612 -0.31029418 0
1.2683812 -3.2608786 -0.30938187 0
1.3504181 -3.2409098 -0.30943319 0
1.4606771 -3.2205501 -0.3093949 0
-1.2597182 -3.1279473 -0.32003677 0
-1.0018201 -3.1136003 -0.31977794 0
-0.75196433 -3.1747656 -0.3186124 0
-0.68228149 -3.1837554 -0.31842178 0
-0.56444526 -3.1420143 -0.3180795 0
-0.4615337 -3.1237257 -0.31767535 0
-0.34918427 -3.134887 -0.31726715 0
-0.2586526 -3.1358771 -0.31620789 0
-0.14650896 -3.1477106 -0.31578261 0
-0.056288078 -3.1434937 -0.3156423 0
0.033705305 -3.1435483 -0.31583816 0
0.14607298 -3.1368787 -0.31513724 0
0.25740761 -3.1205885 -0.3145833 0
0.35741463 -3.1395085 -0.3143855 0
0.43702221 -3.1652482 -0.31352773 0
0.5394994 -3.1777148 -0.31319797 0
0.65106732 -3.1477616 -0.31266177 0
0.76243013 -3.1192629 -0.31260157 0
0.85121351 -3.1843731 -0.31178534 0
0.9667834 -3.15909 -0.31142339 0
1.0548673 -3.1243792 -0.31138337 0
1.1750382 -3.1771834 -0.31073201 0
1.2653944 -3.1421912 -0.31040314 0
1.3473611 -3.148736 -0.30877841 0
1.4371164 -3.168541 -0.30978304 0
1.5370224 -3.1463227 -0.30881262 0
1.6406333 -3.1280336 -0.30903286 0
-1.22578 -3.0436771 -0.32063243 0
-0.97398502 -3.0270903 -0.32030895 0
-0.73103154 -3.0863907 -0.31917438 0
-0.66556019 -3.0355213 -0.31940538 0
-0.53593433 -3.0255766 -0.31877902 0
-0.44825879 -3.0338876 -0.31819844 0
-0.36102048 -3.0430756 -0.31792337 0
-0.27327642 -3.0466113 -0.31714427 0
-0.14229636 -3.0572209 -0.31651551 0
-0.054665975 -3.0528102 -0.3162393 0
0.054485466 -3.0491574 -0.31600794 0
0.16378918 -3.0485392 -0.31600213 0
0.24994807 -3.0301485 -0.31508863 0
0.33634898 -3.0197668 -0.31495562 0
0.44798377 -3.0318182 -0.31456047 0
0.5460121 -3.0824106 -0.31378829 0
0.65438449 -3.0532975 -0.31306723 0
0.74089676 -3.0311723 -0.31313527 0
0.83454782 -3.062782 -0.31203827 0
0.94027984 -3.0724866 -0.31208169 0
1.0474101 -3.0305691 -0.31197569 0
1.1435971 -3.0921688 -0.31129247 0
1.2523433 -3.0467272 -0.31058523 0
1.3569853 -3.049789 -0.31046617 0
1.4449704 -3.068469 -0.31024754 0
1.549625 -3.041858 -0.30956933 0
1.6589086 -3.055748 -0.30932802 0
1.7274474 -3.0592146 -0.30890402 0
1.8184848 -3.0317836 -0.30930924 0
-1.191842 -2.9594069 -0.32122809 0
-0.94614995 -2.9405806 -0.32083997 0
-0.72015595 -2.9462247 -0.31976265 0
-0.64705026 -2.917146 -0.32018679 0
-0.54030532 -2.9279168 -0.31913322 0
-0.45661736 -2.9441707 -0.31899056 0
-0.35032326 -2.9528985 -0.31844282 0
-0.26516777 -2.9562061 -0.31768778 0
-0.13808376 -2.9667318 -0.3172484 0
-0.053043865 -2.9621267 -0.3168363 0
0.052862197 -2.9584458 -0.31656066 0
0.1589267 -2.9580164 -0.31664312 0
0.24248855 -2.9397087 -0.3155939 0
0.3476063 -2.9297705 -0.31544077 0
0.45217296 -2.9155691 -0.3153379 0
0.53922945 -2.9609175 -0.31450224 0
0.65671319 -2.9606278 -0.31366053 0
0.76000226 -2.9269693 -0.31321222 0
0.85753989 -2.9523315 -0.31317911 0
0.9553895 -2.9693098 -0.31261337 0
1.0386417 -2.9369209 -0.31240416 0
1.1405538 -2.953234 -0.3120029 0
1.23691 -2.9487686 -0.31097585 0
1.3452431 -2.9469254 -0.31152436 0
1.4462023 -2.9604321 -0.31032634 0
1.5515857 -2.9408779 -0.31047297 0
1.6593604 -2.9549026 -0.30984777 0
1.7460296 -2.9586477 -0.31084138 0
1.8602817 -2.9554434 -0.3095068 0
1.9431168 -2.9451036 -0.30869913 0
2.0068064 -2.9039354 -0.30882478 0
-1.1579038 -2.8751369 -0.32182372 0
-0.91831493 -2.8540709 -0.32137099 0
-0.64752012 -2.8235905 -0.3206653 0
-0.52381098 -2.8385341 -0.31958291 0
-0.44270587 -2.8544648 -0.31955731 0
-0.33962601 -2.862721 -0.31896228 0
-0.25705916 -2.8658009 -0.31823128 0
-0.13387114 -2.8762424 -0.3179813 0
-0.051421754 -2.8714433 -0.3174333 0
0.051238935 -2.8677342 -0.3171134 0
0.15406419 -2.8674936 -0.31728411 0
0.25529847 -2.8464267 -0.31598887 0
0.35746917 -2.8392162 -0.31613934 0
0.45852676 -2.8229797 -0.31587422 0
0.56252599 -2.856353 -0.31462404 0
0.65848768 -2.8715539 -0.3145498 0
0.75750893 -2.833823 -0.31370977 0
0.86076903 -2.8126769 -0.31405655 0
0.9477706 -2.8749554 -0.31308994 0
1.0492738 -2.8371258 -0.31297386 0
1.1472541 -2.847986 -0.31259227 0
1.2437936 -2.8501043 -0.31146139 0
1.3487219 -2.8461056 -0.31195638 0
1.4465016 -2.8565502 -0.31094378 0
1.5507094 -2.8399622 -0.31099486 0
1.6567212 -2.8537834 -0.31113291 0
1.7338519 -2.8442111 -0.30965179 0
1.8458152 -2.8415916 -0.31002143 0
1.9590265 -2.8785119 -0.30877733 0
2.0539856 -2.8397446 -0.30933902 0
2.128859 -2.8141308 -0.30871645 0
-1.1239656 -2.7908666 -0.32241938 0
-1.0900276 -2.7065964 -0.323015 0
-0.89047986 -2.7675612 -0.32190201 0
-0.64730054 -2.7328916 -0.32142222 0
-0.54718179 -2.7442551 -0.32038569 0
-0.44847724 -2.7608604 -0.32001054 0
-0.34909543 -2.7725484 -0.31977153 0
-0.24895053 -2.7753956 -0.31877476 0
-0.12965854 -2.7857528 -0.3187142 0
-0.049799643 -2.7807598 -0.31803027 0
0.049615663 -2.7770224 -0.31766617 0
0.14920169 -2.7769709 -0.31792504 0
0.24719219 -2.7560465 -0.31649122 0
0.34614748 -2.7492785 -0.31675339 0
0.44400081 -2.7335424 -0.3165181 0
0.56540614 -2.7335865 -0.31545043 0
0.65716195 -2.7747056 -0.31498611 0
0.75362623 -2.7405009 -0.31403512 0
0.85315746 -2.7182114 -0.31460208 0
0.95857328 -2.7735326 -0.31361938 0
1.059016 -2.7420983 -0.31372008 0
1.1485252 -2.7560985 -0.31231126 0
1.250031 -2.756042 -0.31287819 0
1.3463029 -2.7390182 -0.31198886 0
1.4461873 -2.7573099 -0.31187826 0
1.5481521 -2.7412376 -0.31172499 0
1.6469712 -2.745806 -0.31135595 0
1.7314153 -2.7508421 -0.3113398 0
1.8385887 -2.7436316 -0.31062844 0
1.9458201 -2.7732015 -0.30963379 0
2.0525389 -2.7535203 -0.31006229 0
2.1621416 -2.7476652 -0.30931464 0
2.2244928 -2.7316489 -0.30821443 0
-1.0560894 -2.6223261 -0.32361066 0
-0.86264485 -2.6810513 -0.32243302 0
-0.62636781 -2.6445169 -0.32198414 0
-0.56800002 -2.6504796 -0.32120225 0
-0.45289049 -2.6674287 -0.32054773 0
-0.3573302 -2.6831927 -0.3206538 0
-0.26009539 -2.6836576 -0.31941429 0
-0.12263753 -2.634937 -0.31993571 0
-0.056729063 -2.6480048 -0.31934774 0
0.032526366 -2.6541014 -0.31891215 0
0.1443392 -2.6864481 -0.31856602 0
0.2390859 -2.6656663 -0.31699356 0
0.35367429 -2.6557572 -0.31725088 0
0.44852656 -2.6418629 -0.3172341 0
0.54508454 -2.635354 -0.3158384 0
0.65476328 -2.6788096 -0.31527007 0
0.74949616 -2.6509533 -0.31489778 0
0.86266166 -2.6167982 -0.31488514 0
0.94797069 -2.6805365 -0.3140626 0
1.0434308 -2.6454821 -0.31402552 0
1.1528426 -2.6586192 -0.3127763 0
1.2521157 -2.658936 -0.31366944 0
1.3440862 -2.6383479 -0.31268343 0
1.442876 -2.6578078 -0.31253248 0
1.5417771 -2.6409724 -0.31294382 0
1.6374748 -2.643297 -0.31162924 0
1.7456385 -2.659302 -0.31171787 0
1.84185 -2.6250334 -0.31103945 0
1.9493388 -2.6548991 -0.31059951 0
2.0591364 -2.6818745 -0.31005156 0
2.1369276 -2.6241965 -0.30927259 0
2.260498 -2.6571918 -0.30872783 0
2.33834 -2.6321328 -0.30803657 0
-1.0221514 -2.5380561 -0.32420629 0
-0.81625313 -2.5368683 -0.32331803 0
-0.7484256 -2.509531 -0.32155061 0
-0.64913595 -2.5376174 -0.32163516 0
-0.55342245 -2.5522625 -0.3218686 0
-0.45319811 -2.5586226 -0.32163194 0
-0.36058152 -2.567487 -0.32095116 0
-0.24963236 -2.5759993 -0.32004139 0
-0.14671636 -2.5575435 -0.31966755 0
-0.036771525 -2.5717635 -0.31898528 0
0.056551971 -2.5690973 -0.31855527 0
0.15639073 -2.5683587 -0.31865817 0
0.25509262 -2.5517032 -0.3176474 0
0.34441274 -2.5518036 -0.31796366 0
0.44497472 -2.5418422 -0.31772444 0
0.55861741 -2.518343 -0.31675068 0
0.6511519 -2.5838196 -0.31552067 0
0.76219875 -2.5556586 -0.31574953 0
0.85189712 -2.5232091 -0.31530946 0
0.93843865 -2.5557446 -0.31482694 0
1.0457193 -2.5440881 -0.31428054 0
1.1564884 -2.5497925 -0.31442574 0
1.247503 -2.5536981 -0.31363928 0
1.3402594 -2.540287 -0.31354406 0
1.4560399 -2.5499258 -0.31349933 0
1.5687865 -2.5734377 -0.31162205 0
1.6485399 -2.5378892 -0.31268856 0
1.7554728 -2.5794048 -0.31185532 0
1.8247573 -2.5228062 -0.31194425 0
1.9333081 -2.5557587 -0.31154275 0
2.0474899 -2.551383 -0.31041473 0
2.1630521 -2.5427208 -0.31004739 0
2.2532949 -2.5363998 -0.30921376 0
2.3672745 -2.5522852 -0.30889174 0
2.4394176 -2.5555954 -0.3091149 0
-1.5459015 -2.4557703 -0.3578299 0
-1.047719 -2.424469 -0.32446939 0
-0.95819342 -2.454766 -0.32357797 0
-0.8558439 -2.4427323 -0.32256615 0
-0.75077724 -2.4530313 -0.32253951 0
-0.64284891 -2.4759619 -0.3217428 0
-0.55769002 -2.4320247 -0.32287034 0
-0.46005937 -2.4434521 -0.32131585 0
-0.34304383 -2.4427907 -0.32148325 0
-0.23803437 -2.456953 -0.32085165 0
-0.15000525 -2.4629164 -0.32034674 0
-0.061764121 -2.4641705 -0.32048503 0
0.043916062 -2.4556177 -0.31950176 0
0.14863281 -2.4400578 -0.31889984 0
0.25386468 -2.4377816 -0.31835568 0
0.35851988 -2.4257946 -0.31876302 0
0.45245564 -2.4518685 -0.3180823 0
0.54969579 -2.478024 -0.31710234 0
0.66026348 -2.4699552 -0.31574667 0
0.75557286 -2.4424345 -0.31670639 0
0.83889765 -2.4272635 -0.31585449 0
0.93942708 -2.4324324 -0.31623864 0
1.0445957 -2.4411125 -0.3143672 0
1.1549045 -2.4370625 -0.31539914 0
1.2598032 -2.4442778 -0.31417787 0
1.3528523 -2.4500148 -0.31417096 0
1.4443768 -2.447639 -0.31378248 0
1.5327495 -2.4613864 -0.31314957 0
1.6371485 -2.4430263 -0.31365532 0
1.7569876 -2.466253 -0.31283262 0
1.849524 -2.4448786 -0.31186223 0
1.9311531 -2.4419413 -0.31174064 0
2.0558257 -2.4519844 -0.31073549 0
2.1458392 -2.4505398 -0.31048089 0
2.2313414 -2.4403827 -0.31078702 0
2.3388422 -2.4503715 -0.31012905 0
2.4568098 -2.4655423 -0.3100419 0
2.5379088 -2.4399517 -0.30937833 0
-1.5109248 -2.3628664 -0.3576571 0
-1.4476738 -2.3747275 -0.34578586 0
-1.3846345 -2.3083758 -0.33960772 0
-1.2625681 -2.3255837 -0.32493523 0
-1.1533664 -2.3609858 -0.32477397 0
-1.0636743 -2.3452966 -0.32472035 0
-0.94998938 -2.358952 -0.32401618 0
-0.85874146 -2.3219497 -0.32267687 0
-0.76110011 -2.365267 -0.32366255 0
-0.64220178 -2.3677001 -0.32229674 0
-0.53411275 -2.3292382 -0.32317716 0
-0.43223989 -2.3430123 -0.32202005 0
-0.34745425 -2.3514018 -0.32149366 0
-0.26386479 -2.36867 -0.32171917 0
-0.16211873 -2.3802545 -0.3212488 0
-0.059177775 -2.3613067 -0.3214981 0
0.042397574 -2.3706818 -0.31994981 0
0.14345509 -2.3550107 -0.31906572 0
0.24507976 -2.3534243 -0.31889459 0
0.34611383 -2.341821 -0.31924653 0
0.45841104 -2.3417697 -0.31809515 0
0.55086356 -2.3551395 -0.31827319 0
0.66562301 -2.3544943 -0.31705412 0
0.74753261 -2.3231378 -0.31698671 0
0.84972292 -2.3482971 -0.3166514 0
0.96696121 -2.3523495 -0.31533456 0
1.045342 -2.3380363 -0.31579152 0
1.1368362 -2.340642 -0.31559059 0
1.2529507 -2.3478613 -0.31503007 0
1.3448346 -2.3551948 -0.31526053 0
1.431213 -2.3477945 -0.31425548 0
1.5469933 -2.3566656 -0.31459582 0
1.6544596 -2.3457918 -0.31325075 0
1.7693063 -2.338968 -0.31328952 0
1.8749802 -2.3709073 -0.31237584 0
1.9526123 -2.3404243 -0.31167638 0
2.0542409 -2.3458643 -0.31167531 0
2.1703143 -2.3736377 -0.31158677 0
2.23876 -2.3453934 -0.30991077 0
2.328908 -2.3371801 -0.31125936 0
2.44468 -2.3503423 -0.31035963 0
2.5608735 -2.3583386 -0.30995518 0
2.6350288 -2.3578987 -0.3093645 0
-1.4322354 -2.2636826 -0.35097802 0
-1.3472279 -2.2463856 -0.33606449 0
-1.2641197 -2.2511902 -0.32552871 0
-1.1584679 -2.2477441 -0.32457691 0
-1.0620269 -2.2553461 -0.32538614 0
-0.9823119 -2.2515635 -0.32502225 0
-0.86267692 -2.2336843 -0.32401839 0
-0.75305009 -2.2565379 -0.32433003 0
-0.65411341 -2.2519019 -0.32257602 0
-0.54714996 -2.2382619 -0.32356226 0
-0.44900122 -2.2515929 -0.32217464 0
-0.35244262 -2.2718837 -0.32260939 0
-0.25083652 -2.2516012 -0.32255849 0
-0.15349115 -2.2535021 -0.32236734 0
-0.05617547 -2.2409334 -0.32162917 0
0.040296786 -2.2534022 -0.32078904 0
0.13827738 -2.2699633 -0.31923163 0
0.23629482 -2.269067 -0.31943354 0
0.3498067 -2.255208 -0.31971753 0
0.46174642 -2.2325084 -0.31898823 0
0.56405085 -2.2383349 -0.31852344 0
0.64260608 -2.2730839 -0.31775415 0
0.73989105 -2.2438898 -0.31780246 0
0.85585755 -2.2443814 -0.31799263 0
0.95997524 -2.2435825 -0.31596139 0
1.0628328 -2.2428598 -0.31728923 0
1.158602 -2.2709262 -0.3154861 0
1.2407248 -2.2469029 -0.31597227 0
1.3377663 -2.248179 -0.31537879 0
1.4512645 -2.2341871 -0.31535569 0
1.5540724 -2.2488608 -0.31495419 0
1.6611695 -2.2624788 -0.3152177 0
1.7460607 -2.2406576 -0.31356445 0
1.8671241 -2.2596486 -0.31278709 0
1.9671793 -2.2465107 -0.31296635 0
2.0482602 -2.2401476 -0.31318626 0
2.1512461 -2.2538443 -0.31204075 0
2.264957 -2.2729993 -0.31186807 0
2.3431764 -2.2527161 -0.31112164 0
2.4276032 -2.2356095 -0.31121188 0
2.5401194 -2.2403893 -0.31025741 0
2.6508112 -2.271358 -0.30958137 0
2.7366447 -2.2449477 -0.30968538 0
-1.3460701 -2.1385083 -0.34487757 0
-1.2561663 -2.1636188 -0.32950661 0
-1.1602094 -2.1370671 -0.32597163 0
-1.0546333 -2.1587849 -0.32539451 0
-0.9426015 -2.1604109 -0.32525858 0
-0.86129165 -2.1387708 -0.32412907 0
-0.75614262 -2.1622367 -0.32452101 0
-0.65122932 -2.1277559 -0.32452494 0
-0.55733234 -2.1465979 -0.32347021 0
-0.44799787 -2.1656358 -0.32274467 0
-0.34427306 -2.169313 -0.32361978 0
-0.23782179 -2.1349416 -0.32285812 0
-0.14486361 -2.12675 -0.32348588 0
-0.053255539 -2.1246951 -0.32265678 0
0.038190346 -2.1350703 -0.32091698 0
0.15210596 -2.1589968 -0.31992081 0
0.24845043 -2.1586938 -0.31987283 0
0.352779 -2.1720648 -0.32051161 0
0.4445889 -2.1495562 -0.31960902 0
0.55226421 -2.1399975 -0.31905502 0
0.64963746 -2.1785967 -0.31821969 0
0.74629116 -2.1591837 -0.31896734 0
0.85226357 -2.1377451 -0.31823039 0
0.96033001 -2.1580572 -0.31750217 0
1.0556623 -2.1476099 -0.31725585 0
1.1480333 -2.151166 -0.31647804 0
1.2472508 -2.1484246 -0.31675565 0
1.3488361 -2.1626351 -0.31545475 0
1.4357084 -2.1424205 -0.31668213 0
1.5592985 -2.1557794 -0.31496143 0
1.6497259 -2.1590595 -0.31415132 0
1.7369044 -2.1329765 -0.31413865 0
1.8413352 -2.1644206 -0.31353769 0
1.9385762 -2.1509395 -0.31377357 0
2.0360317 -2.1533864 -0.31276742 0
2.1370549 -2.1446376 -0.31308553 0
2.2488573 -2.1620798 -0.31235769 0
2.3739111 -2.1550364 -0.31152797 0
2.467741 -2.1765454 -0.31031439 0
2.5201719 -2.1283731 -0.31126332 0
2.6252298 -2.1534247 -0.31074166 0
2.7513855 -2.1599417 -0.30982652 0
2.8296056 -2.1247394 -0.30958861 0
-1.3176916 -2.0606778 -0.34412375 0
-1.2356244 -2.0598052 -0.33361006 0
-1.1388956 -2.0282004 -0.32673028 0
-1.0471753 -2.0680976 -0.32567146 0
-0.96101552 -2.0408294 -0.32621872 0
-0.84498096 -2.0555398 -0.32460672 0
-0.74064702 -2.0475643 -0.3241303 0
-0.65689516 -2.041398 -0.32569531 0
-0.55089569 -2.0609558 -0.32399461 0
-0.43983358 -2.0522473 -0.32415718 0
-0.34534466 -2.0341892 -0.32337207 0
-0.26066691 -2.0359309 -0.32316539 0
-0.15356176 -2.0396631 -0.32400608 0
-0.051128391 -2.0398262 -0.32319972 0
0.055846673 -2.0334566 -0.32073462 0
0.15280016 -2.029494 -0.3203952 0
0.25500971 -2.0255933 -0.32062683 0
0.34465468 -2.059202 -0.32136819 0
0.45813099 -2.0651844 -0.3209095 0
0.54397953 -2.0347707 -0.31951156 0
0.65347749 -2.0480564 -0.31953636 0
0.7493248 -2.0716646 -0.32020918 0
0.8489576 -2.0438995 -0.3186751 0
0.94928896 -2.0537093 -0.31931961 0
1.0491251 -2.0356576 -0.31732672 0
1.1538624 -2.0547109 -0.31738129 0
1.2499422 -2.0286794 -0.31637767 0
1.3462591 -2.0405049 -0.317269 0
1.4631629 -2.0745647 -0.31563672 0
1.5472698 -2.0454431 -0.31561708 0
1.6431856 -2.0475745 -0.31532145 0
1.7544283 -2.0427172 -0.3149085 0
1.8495516 -2.052104 -0.31540287 0
1.9636502 -2.057317 -0.31395248 0
2.0583754 -2.0560551 -0.31410936 0
2.147187 -2.0448484 -0.31316146 0
2.2276981 -2.0515158 -0.31309688 0
2.3363149 -2.060632 -0.31210086 0
2.450943 -2.0699079 -0.31185865 0
2.5402527 -2.0535443 -0.31151068 0
2.6553156 -2.0639246 -0.31099066 0
2.7607031 -2.0422163 -0.30976108 0
2.8708918 -2.040113 -0.31066021 0
-1.2409859 -1.9614469 -0.33827457 0
-1.156178 -1.9273738 -0.33096567 0
-1.052917 -1.9729 -0.32649636 0
-0.94225866 -1.9287457 -0.32621917 0
-0.84341234 -1.9707075 -0.32580432 0
-0.7440874 -1.9266287 -0.32513183 0
-0.64045388 -1.9478078 -0.32592052 0
-0.54265684 -1.9518692 -0.32456011 0
-0.46054617 -1.9707948 -0.32440129 0
-0.3638947 -1.9706548 -0.3229107 0
-0.24857581 -1.9742671 -0.32361582 0
-0.15611397 -1.9518069 -0.32416165 0
-0.04885098 -1.9483 -0.32373443 0
0.058016744 -1.9520307 -0.32143101 0
0.14857513 -1.9736429 -0.32098359 0
0.24653126 -1.9582481 -0.32105938 0
0.36317161 -1.9681129 -0.32128569 0
0.4534311 -1.9601219 -0.3210443 0
0.54400408 -1.9372723 -0.32070449 0
0.64586145 -1.9281578 -0.32058424 0
0.7360239 -1.9472115 -0.32118803 0
0.85181701 -1.9439662 -0.31928378 0
0.95954716 -1.9461429 -0.31902805 0
1.0623118 -1.9453951 -0.31833109 0
1.1530399 -1.953907 -0.31749865 0
1.2453883 -1.9372469 -0.31833452 0
1.341518 -1.9411966 -0.31741461 0
1.4470803 -1.9708997 -0.31654236 0
1.5415184 -1.949368 -0.31618711 0
1.6542336 -1.9514772 -0.31554002 0
1.7469383 -1.9383084 -0.31641293 0
1.849476 -1.9560694 -0.3148219 0
1.958128 -1.937192 -0.31476092 0
2.0650926 -1.9570997 -0.31406385 0
2.1596644 -1.9416184 -0.31365108 0
2.2644217 -1.9592757 -0.3127816 0
2.3620005 -1.9471298 -0.31323311 0
2.4474487 -1.9497421 -0.31282431 0
2.5518177 -1.9448748 -0.31179157 0
2.6492841 -1.9597573 -0.31160882 0
2.7680168 -1.9570892 -0.31093752 0
2.8720245 -1.9695997 -0.30968189 0
2.952908 -1.9331808 -0.31038386 0
-1.7245177 -1.8327489 -0.39897421 0
-1.6567831 -1.812042 -0.38887841 0
-1.1421123 -1.8436254 -0.33200535 0
-1.038542 -1.8494622 -0.32762116 0
-0.95173711 -1.8428235 -0.32700875 0
-0.84504366 -1.8632637 -0.32709587 0
-0.76458144 -1.8673019 -0.32419562 0
-0.65099669 -1.8573879 -0.32597855 0
-0.54746437 -1.8356322 -0.32547677 0
-0.44132295 -1.8631662 -0.32527 0
-0.35055006 -1.8627627 -0.32455865 0
-0.24724811 -1.8563426 -0.3244243 0
-0.13634415 -1.8511244 -0.32399276 0
-0.05881355 -1.8268374 -0.32407713 0
0.037226442 -1.8456935 -0.32226619 0
0.15298182 -1.8549492 -0.32210976 0
0.24620958 -1.8485714 -0.32181048 0
0.34429082 -1.8658757 -0.32192913 0
0.44962263 -1.8393418 -0.32134131 0
0.55731422 -1.8491457 -0.32064161 0
0.65756947 -1.8594995 -0.32180339 0
0.76363617 -1.8577287 -0.32073298 0
0.84748131 -1.8334166 -0.32127514 0
0.93893844 -1.8471997 -0.31979704 0
1.0533466 -1.8447272 -0.3190316 0
1.1521568 -1.8598897 -0.31852677 0
1.2589384 -1.8591957 -0.31835428 0
1.3589683 -1.8508943 -0.31801841 0
1.450256 -1.8611959 -0.31723428 0
1.54461 -1.8510519 -0.31620309 0
1.6498559 -1.8570793 -0.31715837 0
1.7649273 -1.8490682 -0.31594932 0
1.8446707 -1.8428067 -0.31628147 0
1.9224858 -1.8483089 -0.31568781 0
2.0385551 -1.8506109 -0.31460425 0
2.1586928 -1.8496691 -0.31391332 0
2.2751803 -1.8662714 -0.31413561 0
2.3533368 -1.8473809 -0.31399488 0
2.4371912 -1.8574518 -0.31250733 0
2.5185335 -1.8353385 -0.31274819 0
2.6200013 -1.8524327 -0.31208169 0
2.7343833 -1.8466082 -0.31121978 0
2.8397586 -1.859055 -0.31130561 0
2.9652238 -1.8515536 -0.31122994 0
3.042757 -1.8399764 -0.31110179 0
-1.7108839 -1.7170234 -0.39924848 0
-1.6613168 -1.7654606 -0.39141241 0
-1.546273 -1.7505448 -0.37411031 0
-1.4330498 -1.7339739 -0.35629603 0
-1.370128 -1.7072127 -0.34803799 0
-1.1393983 -1.7405199 -0.32950947 0
-1.0595878 -1.7551887 -0.32868734 0
-0.94348115 -1.7678995 -0.32736072 0
-0.85944432 -1.7342045 -0.32678708 0
-0.74814546 -1.7552172 -0.32654744 0
-0.661318 -1.749433 -0.32646665 0
-0.55089784 -1.7550174 -0.32645658 0
-0.44256154 -1.7664185 -0.3256337 0
-0.34937099 -1.7535471 -0.32532245 0
-0.25615016 -1.7337532 -0.32508051 0
-0.15632577 -1.7422649 -0.32453468 0
-0.056276217 -1.7481627 -0.32440087 0
0.043717131 -1.7422769 -0.3230086 0
0.14333725 -1.7380722 -0.32314652 0
0.24968606 -1.7459507 -0.32210875 0
0.34206685 -1.7582434 -0.3221451 0
0.45723945 -1.7606446 -0.32217717 0
0.56414807 -1.7445923 -0.32176465 0
0.64956963 -1.7639258 -0.32218286 0
0.76590455 -1.7480742 -0.32078886 0
0.85272712 -1.7558942 -0.3215324 0
0.9538784 -1.7569865 -0.31924176 0
1.0506241 -1.730155 -0.3197332 0
1.1595896 -1.7576108 -0.31955418 0
1.2589853 -1.7671862 -0.31908804 0
1.3463179 -1.72782 -0.31870115 0
1.445657 -1.7496774 -0.31757951 0
1.5511084 -1.7712654 -0.31739697 0
1.6460263 -1.7575368 -0.31721008 0
1.7507902 -1.7485164 -0.31720066 0
1.8582071 -1.7610315 -0.31610718 0
1.944788 -1.7525892 -0.31559643 0
2.0546448 -1.7438265 -0.31522503 0
2.1485629 -1.7368315 -0.31561407 0
2.2423875 -1.7604195 -0.31467664 0
2.3576102 -1.7439953 -0.31357744 0
2.4590271 -1.7651443 -0.31305799 0
2.5733356 -1.7647655 -0.31238163 0
2.6496327 -1.7529606 -0.31233963 0
2.7596865 -1.7507945 -0.31270057 0
2.8251843 -1.7361439 -0.31282017 0
2.9362543 -1.7659153 -0.31188294 0
3.0572615 -1.7602502 -0.31192654 0
3.1171424 -1.7358054 -0.31214651 0
-1.639038 -1.6686885 -0.38991618 0
-1.5546412 -1.6521368 -0.37865645 0
-1.4502572 -1.6802562 -0.3625811 0
-1.3527232 -1.6368365 -0.35038045 0
-1.2453244 -1.6542851 -0.33254585 0
-1.1517944 -1.6614711 -0.32809743 0
-1.0434266 -1.6318748 -0.32957244 0
-0.93963528 -1.6514324 -0.32880229 0
-0.84450281 -1.6384087 -0.3273876 0
-0.74753445 -1.6636136 -0.32735547 0
-0.64839977 -1.6437227 -0.32749355 0
-0.53945988 -1.6490446 -0.32688403 0
-0.45893911 -1.6359487 -0.32603028 0
-0.3488175 -1.6369162 -0.32681647 0
-0.24668238 -1.638764 -0.32541057 0
-0.14805008 -1.6502708 -0.32481143 0
-0.053289641 -1.6551112 -0.32477194 0
0.045808911 -1.6481252 -0.32372391 0
0.15084703 -1.6448768 -0.32359877 0
0.24970102 -1.6303993 -0.32274354 0
0.35494217 -1.6403855 -0.32208607 0
0.45302963 -1.6382786 -0.32404774 0
0.55618095 -1.6472533 -0.32233015 0
0.6567868 -1.6454937 -0.32213646 0
0.75088024 -1.6554303 -0.32191879 0
0.84976274 -1.648728 -0.32086781 0
0.94920474 -1.6348994 -0.3201859 0
1.0632042 -1.658602 -0.31996346 0
1.1542655 -1.6449711 -0.32005972 0
1.2514521 -1.6542419 -0.32006478 0
1.3486009 -1.6477836 -0.31849468 0
1.4506291 -1.6328305 -0.31832573 0
1.5566493 -1.6543519 -0.31794795 0
1.6431638 -1.6611354 -0.31759214 0
1.7467995 -1.6554515 -0.31749088 0
1.8485864 -1.6541167 -0.31615567 0
1.9467249 -1.6621014 -0.31585214 0
2.0363245 -1.6461681 -0.31752905 0
2.1337435 -1.6422316 -0.31506792 0
2.2460747 -1.6451892 -0.31454876 0
2.3239703 -1.6431196 -0.31436995 0
2.434082 -1.643815 -0.3136929 0
2.5364535 -1.6604867 -0.31366703 0
2.6578865 -1.6596444 -0.3139455 0
2.7657003 -1.6455564 -0.31336656 0
2.8648732 -1.6494457 -0.31300145 0
2.9684641 -1.6530532 -0.31234196 0
3.0712147 -1.65308 -0.31207827 0
3.1467719 -1.6647351 -0.31146613 0
-1.5365763 -1.5567266 -0.37637344 0
-1.4412072 -1.5651827 -0.36462462 0
-1.3515902 -1.5433614 -0.35391098 0
-1.2477487 -1.5413898 -0.34139955 0
-1.1448685 -1.559185 -0.33013105 0
-1.0433706 -1.533185 -0.32933599 0
-0.94392717 -1.5439346 -0.32987052 0
-0.85477632 -1.5479566 -0.32819051 0
-0.74750876 -1.5415952 -0.32691857 0
-0.64893019 -1.5472697 -0.32835981 0
-0.56001461 -1.5695367 -0.32757488 0
-0.44635215 -1.5482652 -0.32644936 0
-0.35685009 -1.5413282 -0.32694855 0
-0.250038 -1.5390873 -0.32598287 0
-0.15021405 -1.5504128 -0.32544559 0
-0.050071605 -1.5542142 -0.32515025 0
0.049951594 -1.5507635 -0.32429931 0
0.14934751 -1.5400673 -0.3236165 0
0.25393552 -1.5394783 -0.32338512 0
0.34913325 -1.5511745 -0.32317704 0
0.45658195 -1.571858 -0.32288322 0
0.55194598 -1.5474436 -0.32226598 0
0.6390537 -1.5270717 -0.32277232 0
0.73327672 -1.5408764 -0.32301912 0
0.85373008 -1.5254145 -0.32117185 0
0.94420946 -1.5491225 -0.32112703 0
1.0526423 -1.5513518 -0.32066187 0
1.1575823 -1.5531957 -0.32082748 0
1.2561462 -1.5562984 -0.3198514 0
1.3379291 -1.533529 -0.31889886 0
1.4404941 -1.5309 -0.3190169 0
1.5449495 -1.5503756 -0.31859204 0
1.6486132 -1.5402237 -0.31865948 0
1.7498301 -1.5433309 -0.31717217 0
1.8593669 -1.5476563 -0.31727114 0
1.9534041 -1.5487304 -0.31764358 0
2.041245 -1.5500396 -0.31604373 0
2.1646082 -1.553799 -0.31546095 0
2.2746468 -1.5599314 -0.31508139 0
2.3471227 -1.5528469 -0.3144536 0
2.4537749 -1.5567188 -0.31546283 0
2.5447466 -1.5473614 -0.31485319 0
2.6386929 -1.553092 -0.31397474 0
2.7212582 -1.5409887 -0.31424701 0
2.8194692 -1.5437253 -0.3131876 0
2.922642 -1.546231 -0.3128584 0
3.0308089 -1.5483453 -0.31286108 0
3.1532917 -1.5825946 -0.31156433 0
3.235678 -1.509603 -0.31237835 0
-1.4501421 -1.4763932 -0.36526996 0
-1.3434069 -1.4481319 -0.3534629 0
-1.2384356 -1.4485699 -0.34319243 0
-1.1435553 -1.4674239 -0.33357212 0
-1.0412903 -1.439738 -0.33003134 0
-0.9403314 -1.4251518 -0.32971033 0
-0.84549963 -1.4562681 -0.32967538 0
-0.75522107 -1.4613206 -0.32787532 0
-0.65946776 -1.4458477 -0.32768172 0
-0.54453331 -1.4722726 -0.32844871 0
-0.45903069 -1.4369285 -0.32683617 0
-0.35332149 -1.4457119 -0.32673281 0
-0.24499701 -1.4427421 -0.32732832 0
-0.14302216 -1.4310038 -0.32597491 0
-0.056273881 -1.4307749 -0.32620075 0
0.046072043 -1.4307848 -0.32489756 0
0.15671624 -1.4485401 -0.32433128 0
0.25773594 -1.4551915 -0.32424077 0
0.35973206 -1.4441332 -0.32328606 0
0.44275433 -1.4517152 -0.32405117 0
0.54760277 -1.4485904 -0.32338879 0
0.64402252 -1.4475446 -0.32297972 0
0.75792211 -1.4548421 -0.3217805 0
0.84906769 -1.4232328 -0.32294971 0
0.94320071 -1.4520248 -0.32101133 0
1.0489511 -1.450189 -0.32169929 0
1.1498542 -1.4539416 -0.32093704 0
1.2456323 -1.4389671 -0.31980196 0
1.3645573 -1.4502172 -0.31916311 0
1.4467984 -1.4313534 -0.32037428 0
1.5391989 -1.4380268 -0.3195951 0
1.638598 -1.4452171 -0.31817427 0
1.7447733 -1.4522866 -0.31803718 0
1.8505249 -1.4526476 -0.31751975 0
1.9479632 -1.441005 -0.31688145 0
2.071346 -1.4573377 -0.31644863 0
2.1337805 -1.4410218 -0.31616604 0
2.2460732 -1.4474623 -0.316394 0
2.3564367 -1.4481677 -0.31616008 0
2.4539578 -1.4600792 -0.31557125 0
2.5633054 -1.4515455 -0.31520677 0
2.6716604 -1.4380184 -0.31446195 0
2.7622437 -1.4613721 -0.31386042 0
2.8468044 -1.4459519 -0.3140603 0
2.9639535 -1.4875683 -0.31305727 0
3.0426874 -1.4195635 -0.31348857 0
3.1739771 -1.4532721 -0.31241727 0
3.2646561 -1.4385709 -0.31212837 0
-1.346961 -1.3646164 -0.35139322 0
-1.2527254 -1.3624022 -0.34320736 0
-1.1470747 -1.3680592 -0.33495486 0
-1.0479275 -1.3282574 -0.33029971 0
-0.96304691 -1.3631045 -0.32952446 0
-0.85647953 -1.3455836 -0.33016557 0
-0.74724823 -1.3532948 -0.328751 0
-0.65786314 -1.3466429 -0.32877201 0
-0.55122417 -1.3353156 -0.32909885 0
-0.45210168 -1.3388274 -0.32753021 0
-0.35655436 -1.361205 -0.32697216 0
-0.25678837 -1.3709532 -0.32760695 0
-0.1628653 -1.357782 -0.32570463 0
-0.053189505 -1.3507274 -0.32647613 0
0.043430082 -1.3494061 -0.32555845 0
0.14396915 -1.3693876 -0.3238833 0
0.24796383 -1.3652261 -0.32475805 0
0.33909932 -1.3523517 -0.3242175 0
0.45311183 -1.3418765 -0.3240307 0
0.53950214 -1.339617 -0.32479575 0
0.65595973 -1.3426729 -0.32380962 0
0.74921322 -1.3567972 -0.32336015 0
0.85658103 -1.3557284 -0.32160446 0
0.94828761 -1.3458468 -0.32231987 0
1.0357928 -1.329191 -0.32232514 0
1.1502273 -1.3598537 -0.32091743 0
1.2504182 -1.3481134 -0.32108378 0
1.3461709 -1.3469684 -0.3204203 0
1.4690821 -1.352933 -0.32019356 0
1.5431563 -1.3415433 -0.31920126 0
1.6560636 -1.3585041 -0.31856841 0
1.7502114 -1.3440058 -0.31836498 0
1.8406709 -1.3412482 -0.31836197 0
1.9386922 -1.3500024 -0.31786004 0
2.0493634 -1.3416314 -0.31760621 0
2.1574757 -1.368795 -0.31762907 0
2.2259929 -1.3416762 -0.31681275 0
2.358506 -1.3579346 -0.31665149 0
2.4451294 -1.346519 -0.31564292 0
2.5444026 -1.3540668 -0.31501052 0
2.6268628 -1.3419745 -0.31551617 0
2.7209511 -1.3656087 -0.31497335 0
2.8370228 -1.3236108 -0.31467173 0
2.9264021 -1.3399161 -0.31384838 0
3.0565464 -1.355709 -0.31329677 0
3.1374784 -1.3558413 -0.31369326 0
3.220701 -1.3918054 -0.31305033 0
3.3192446 -1.3229814 -0.31261289 0
-1.6383917 -1.2302363 -0.3996177 0
-1.5585847 -1.2293395 -0.38762918 0
-1.461275 -1.2338188 -0.3717759 0
-1.3687063 -1.2245668 -0.3585864 0
-1.2492915 -1.2334455 -0.33925423 0
-1.1496456 -1.2543012 -0.33244076 0
-1.0558048 -1.2445277 -0.33031526 0
-0.95232373 -1.2588249 -0.33033249 0
-0.85413575 -1.2359635 -0.3300283 0
-0.74958283 -1.2351928 -0.32909191 0
-0.64757258 -1.2619842 -0.32939094 0
-0.55677551 -1.2476454 -0.32892591 0
-0.44923869 -1.249254 -0.32859915 0
-0.35948411 -1.259737 -0.32720295 0
-0.25170743 -1.2420409 -0.3296397 0
-0.14860132 -1.2522291 -0.32717496 0
-0.053851578 -1.2479129 -0.32663772 0
0.049075063 -1.2490544 -0.32597908 0
0.15182874 -1.2388568 -0.32630137 0
0.25288662 -1.2489109 -0.32607037 0
0.36061212 -1.2533276 -0.32500121 0
0.4449155 -1.2488418 -0.32502154 0
0.55963421 -1.2579064 -0.32440889 0
0.63709646 -1.246935 -0.32448551 0
0.73062205 -1.2470497 -0.3242152 0
0.84388572 -1.2480186 -0.32150573 0
0.95443302 -1.2431374 -0.32262003 0
1.0611348 -1.247458 -0.32191634 0
1.1469561 -1.2543323 -0.32247517 0
1.2505605 -1.2444985 -0.32124683 0
1.3457346 -1.2429764 -0.321547 0
1.4394491 -1.2477728 -0.320095 0
1.5534878 -1.2558719 -0.31893209 0
1.6406481 -1.2399238 -0.31974748 0
1.7404289 -1.2368711 -0.3194584 0
1.8380078 -1.2412589 -0.31948626 0
1.9548323 -1.2599142 -0.31890708 0
2.0393412 -1.2399575 -0.318284 0
2.1512284 -1.2592025 -0.31741416 0
2.2492478 -1.2525427 -0.31698337 0
2.3632498 -1.2502261 -0.31665868 0
2.4652843 -1.2594261 -0.31657821 0
2.5745873 -1.246385 -0.31617111 0
2.6788273 -1.2265601 -0.31527948 0
2.7613523 -1.2643454 -0.31480247 0
2.8477104 -1.2468616 -0.31528875 0
2.9710333 -1.283913 -0.31497914 0
3.0900953 -1.2316473 -0.31433025 0
3.1778252 -1.2403792 -0.31381834 0
3.2736351 -1.2507995 -0.3135201 0
3.3544431 -1.2542317 -0.31332675 0
-1.6278248 -1.1509476 -0.39966321 0
-1.5496193 -1.1465425 -0.38746333 0
-1.445915 -1.1687205 -0.37197086 0
-1.3508527 -1.1407938 -0.35961241 0
-1.2525916 -1.1404119 -0.34744328 0
-1.1564156 -1.1442678 -0.33508015 0
-1.0505301 -1.148886 -0.33219892 0
-0.93588459 -1.1588458 -0.33192393 0
-0.85047913 -1.1520081 -0.33123171 0
-0.75842762 -1.1495519 -0.32972002 0
-0.653117 -1.1504022 -0.33017242 0
-0.53536201 -1.1512178 -0.32848325 0
-0.4535636 -1.1463948 -0.32803652 0
-0.35054877 -1.1746386 -0.3285583 0
-0.24517567 -1.1857514 -0.32451612 0
-0.18534866 -1.1951538 -0.32406816 0
0.24088088 -1.1856525 -0.32425678 0
0.34778351 -1.1666731 -0.32633638 0
0.45984036 -1.1419886 -0.32553533 0
0.53951269 -1.1485919 -0.32484347 0
0.64357346 -1.1568013 -0.32624111 0
0.74937153 -1.1537448 -0.32191274 0
0.84086561 -1.1486366 -0.32367864 0
0.95376265 -1.1492885 -0.322947 0
1.0509708 -1.1330273 -0.32274264 0
1.1548613 -1.1652728 -0.32196677 0
1.2414463 -1.1431943 -0.32276419 0
1.3405329 -1.1418666 -0.3205387 0
1.4581267 -1.1512476 -0.31997666 0
1.5543737 -1.150129 -0.32080996 0
1.6478542 -1.1474953 -0.32068878 0
1.7401574 -1.1392187 -0.32099119 0
1.868083 -1.1479545 -0.31947643 0
1.9652075 -1.1502321 -0.31888402 0
2.063611 -1.1491505 -0.31830615 0
2.1550016 -1.1599423 -0.31772086 0
2.2675536 -1.1653379 -0.31737223 0
2.318301 -1.1497477 -0.31774223 0
2.4256935 -1.1317055 -0.31703803 0
2.5274916 -1.1353573 -0.31688699 0
2.6202612 -1.1545694 -0.31648621 0
2.7213657 -1.1760207 -0.31690791 0
2.8374166 -1.1309348 -0.31622395 0
2.924212 -1.1413934 -0.31540638 0
3.0386176 -1.1610062 -0.3149403 0
3.1257215 -1.143301 -0.31508881 0
3.213583 -1.1494772 -0.31439874 0
3.3355696 -1.1485071 -0.31401506 0
3.4083545 -1.1371799 -0.31435129 0
-1.5657486 -1.0493051 -0.39260915 0
-1.4415009 -1.0569198 -0.37309334 0
-1.344548 -1.0397346 -0.35972625 0
-1.2411209 -1.048169 -0.34782806 0
-1.1454799 -1.0486275 -0.33926886 0
-1.0412855 -1.0339965 -0.33299688 0
-0.95645243 -1.0580051 -0.33145875 0
-0.84332913 -1.0508664 -0.33014768 0
-0.74687803 -1.0505457 -0.33036008 0
-0.65485024 -1.0529208 -0.33015561 0
-0.57277912 -1.0919944 -0.33042929 0
0.55574381 -1.0781256 -0.32507032 0
0.65445101 -1.0605545 -0.32696173 0
0.75706166 -1.0465086 -0.32380769 0
0.85932785 -1.0636519 -0.32400867 0
0.94896972 -1.039048 -0.32361874 0
1.033847 -1.0524549 -0.32358855 0
1.148456 -1.0576215 -0.32261032 0
1.2545342 -1.0594791 -0.32149342 0
1.3486695 -1.0481786 -0.32154071 0
1.4582891 -1.0595114 -0.3220197 0
1.5546632 -1.0499283 -0.32179868 0
1.6597515 -1.0396318 -0.32119557 0
1.7369772 -1.0522945 -0.32018584 0
1.8471088 -1.0635157 -0.32011187 0
1.9310727 -1.0394127 -0.3193959 0
2.0402155 -1.0607573 -0.3189154 0
2.1451852 -1.048198 -0.31891164 0
2.2259996 -1.0384585 -0.31822249 0
2.3470778 -1.0543468 -0.3180429 0
2.4542546 -1.0814157 -0.31760997 0
2.5847383 -1.0302224 -0.31811768 0
2.6705987 -1.0424078 -0.31699446 0
2.7650261 -1.0564698 -0.31674394 0
2.8617084 -1.0467254 -0.3160978 0
2.9570935 -1.0577374 -0.31584185 0
3.0542483 -1.043366 -0.31545871 0
3.1509914 -1.0512487 -0.31514624 0
3.247632 -1.0577586 -0.31493148 0
3.3567166 -1.0403924 -0.31517842 0
3.4361978 -1.0649755 -0.31474346 0
-1.5435387 -0.96364945 -0.39082694 0
-1.4560438 -0.94340295 -0.37763748 0
-1.3397452 -0.94006205 -0.36001414 0
-1.2569791 -0.94819409 -0.34828773 0
-1.1370002 -0.94640589 -0.33564585 0
-1.0547001 -0.95550394 -0.33306816 0
-0.94450891 -0.94820112 -0.33214581 0
-0.85046643 -0.95135021 -0.33197728 0
-0.75584501 -0.96992898 -0.32958445 0
0.68392926 -0.98973876 -0.32237911 0
0.76218098 -0.94980097 -0.32644215 0
0.84421104 -0.94847476 -0.32484695 0
0.93997991 -0.94340181 -0.32451314 0
1.0374229 -0.95537865 -0.32333437 0
1.1428497 -0.95127124 -0.32320184 0
1.2454813 -0.95331782 -0.32282367 0
1.3470019 -0.95236981 -0.32280868 0
1.4551957 -0.95271873 -0.32245827 0
1.5475619 -0.95102388 -0.32179949 0
1.6442544 -0.9465847 -0.32131317 0
1.7634525 -0.95561826 -0.32066879 0
1.8554281 -0.94244784 -0.32033563 0
1.9775454 -0.95729464 -0.32003939 0
2.0652335 -0.94211215 -0.32013157 0
2.1761537 -0.94046909 -0.31917885 0
2.262948 -0.93970442 -0.31896183 0
2.3632565 -0.95185554 -0.31768116 0
2.4169855 -0.94342196 -0.3185825 0
2.529887 -0.96662921 -0.31799936 0
2.6432636 -0.95275468 -0.31779566 0
2.7359703 -0.94208622 -0.31678247 0
2.8482294 -0.950297 -0.31676796 0
2.9633319 -0.95750004 -0.31649312 0
3.0529194 -0.94657171 -0.31682941 0
3.1503904 -0.95181417 -0.31718501 0
3.2809155 -0.99124914 -0.31654641 0
3.3806906 -0.91666543 -0.3139134 0
3.4584415 -0.93774736 -0.31349948 0
-1.5489116 -0.84827787 -0.39361706 0
-1.4529511 -0.85024554 -0.37906733 0
-1.3485278 -0.83240068 -0.36342689 0
-1.2426262 -0.83536625 -0.34794238 0
-1.1456164 -0.86574298 -0.33470973 0
-1.0493587 -0.84834129 -0.33211708 0
-0.95191878 -0.85152686 -0.33330178 0
-0.87338847 -0.87653464 -0.33157817 0
0.85577035 -0.85893363 -0.32497945 0
0.94149721 -0.84229726 -0.32492754 0
1.0551656 -0.85980451 -0.32437277 0
1.138303 -0.84579051 -0.32520393 0
1.2376522 -0.84878737 -0.32394442 0
1.3494499 -0.84823138 -0.32331398 0
1.431934 -0.8496688 -0.3230423 0
1.5435946 -0.84811848 -0.32320875 0
1.6353047 -0.85024732 -0.32239002 0
1.7465876 -0.84555227 -0.32180119 0
1.842766 -0.84199852 -0.32186121 0
1.9365242 -0.85339445 -0.32114434 0
2.0274208 -0.84189796 -0.32005894 0
2.1402445 -0.85304654 -0.31979707 0
2.2491486 -0.84720755 -0.31975868 0
2.3472934 -0.84603286 -0.31987932 0
2.4401314 -0.84834826 -0.31861854 0
2.5478134 -0.84999865 -0.31821209 0
2.6526253 -0.84296149 -0.31857499 0
2.7493756 -0.85214907 -0.31853408 0
2.8361385 -0.87904096 -0.31805468 0
2.9328487 -0.88608921 -0.31824937 0
3.0300956 -0.82160252 -0.31577989 0
3.1177444 -0.84536827 -0.31531328 0
3.2492175 -0.88101685 -0.31461334 0
3.3348536 -0.8025201 -0.31568336 0
3.4597688 -0.83258045 -0.31486976 0
-1.5362635 -0.74104178 -0.39480323 0
-1.4522152 -0.77035433 -0.38037193 0
-1.3702253 -0.75020343 -0.36901063 0
-1.2594904 -0.74055374 -0.35515514 0
-1.1442726 -0.75223768 -0.34214363 0
-1.043597 -0.75494379 -0.33470243 0
-0.96853906 -0.76711452 -0.33115882 0
0.95527703 -0.75018871 -0.32559308 0
1.0458828 -0.75335854 -0.32424051 0
1.1523088 -0.75432533 -0.32439902 0
1.2400012 -0.7377522 -0.32601848 0
1.3514733 -0.74852616 -0.32500631 0
1.4626008 -0.76048815 -0.32437131 0
1.5323114 -0.73426217 -0.32351214 0
1.6572512 -0.74441952 -0.32395336 0
1.760137 -0.74573934 -0.32307476 0
1.8671906 -0.75035089 -0.32150781 0
1.9538727 -0.73398095 -0.32224694 0
2.059386 -0.74509853 -0.32208881 0
2.1667578 -0.75758785 -0.32117006 0
2.2531426 -0.75183851 -0.320135 0
2.342411 -0.74443978 -0.32008219 0
2.4691117 -0.75084758 -0.31957874 0
2.5883169 -0.74185157 -0.31903267 0
2.6795008 -0.72653961 -0.31764638 0
2.7671494 -0.75030535 -0.31717974 0
2.8547983 -0.7740711 -0.31671312 0
2.9621577 -0.75770617 -0.31711441 0
3.0701149 -0.73881173 -0.31740761 0
3.1659448 -0.73792791 -0.31671935 0
3.2542844 -0.75851935 -0.31608012 0
3.3517394 -0.73086774 -0.31513155 0
3.4403472 -0.75018823 -0.31447926 0
3.5064974 -0.76458359 -0.31399453 0
-1.4257083 -0.69016916 -0.37908942 0
-1.334813 -0.66978592 -0.36545098 0
-1.2506316 -0.65008742 -0.35390702 0
-1.1594716 -0.64579624 -0.34301719 0
-1.0685167 -0.65664726 -0.33615065 0
0.99333394 -0.68126941 -0.3227548 0
1.058777 -0.65070021 -0.32634288 0
1.149562 -0.64643735 -0.3259539 0
1.2450229 -0.64915943 -0.32534477 0
1.3493277 -0.65669256 -0.32487911 0
1.4517504 -0.65220624 -0.32519475 0
1.5375794 -0.64638442 -0.32618934 0
1.6239563 -0.66082591 -0.3246845 0
1.7444812 -0.64606476 -0.32366338 0
1.8653679 -0.63433707 -0.32311952 0
1.931331 -0.64448363 -0.32249627 0
2.0479989 -0.65750468 -0.32129627 0
2.1514618 -0.65027606 -0.32136685 0
2.2651992 -0.64915729 -0.32055232 0
2.3751144 -0.64402795 -0.31931254 0
2.4600973 -0.64818066 -0.31874889 0
2.5201073 -0.64463717 -0.31941897 0
2.6288838 -0.63263106 -0.32028136 0
2.724246 -0.63497102 -0.31991547 0
2.8395979 -0.66915482 -0.31903657 0
2.9530039 -0.64392567 -0.31806692 0
3.0859156 -0.67290634 -0.31708848 0
3.1755185 -0.66864556 -0.31626651 0
3.2643013 -0.68733984 -0.3156656 0
3.3794255 -0.61113381 -0.31678307 0
3.4688272 -0.62730122 -0.31628403 0
3.5522118 -0.64238042 -0.31581858 0
-1.2114563 -0.57580006 -0.34805652 0
-1.1343918 -0.56711298 -0.33759803 0
-1.0876502 -0.59551358 -0.33225858 0
1.0774472 -0.56021082 -0.32545918 0
1.1522233 -0.54682761 -0.3260656 0
1.2620318 -0.56696892 -0.32580149 0
1.3354897 -0.53414232 -0.32516339 0
1.4535979 -0.55534017 -0.32539383 0
1.56432 -0.55040503 -0.32473591 0
1.6578239 -0.55314052 -0.32410267 0
1.747689 -0.54169005 -0.32396895 0
1.8438709 -0.54559773 -0.32321075 0
1.9537491 -0.54480469 -0.32278329 0
2.0480585 -0.55535084 -0.32202125 0
2.1387141 -0.54712468 -0.32170296 0
2.2200294 -0.55115163 -0.32092848 0
2.32603 -0.55081534 -0.32082173 0
2.4525933 -0.55320454 -0.32117796 0
2.5542524 -0.55062395 -0.32089642 0
2.6428761 -0.57630408 -0.32035002 0
2.7316062 -0.57517421 -0.31927106 0
2.831702 -0.55399907 -0.3192237 0
2.9324172 -0.53029704 -0.31927824 0
3.0218189 -0.54646438 -0.3187792 0
3.1112204 -0.56263173 -0.31828019 0
3.2453229 -0.58688283 -0.31753165 0
3.3150535 -0.5019744 -0.3177551 0
3.4497046 -0.52236366 -0.31686631 0
3.5718696 -0.5408622 -0.31605995 0
1.1496136 -0.45359415 -0.32679069 0
1.2477572 -0.44633871 -0.32632387 0
1.3391411 -0.44689599 -0.32599255 0
1.4392021 -0.45742831 -0.32548577 0
1.5590341 -0.44964382 -0.32539511 0
1.6442605 -0.44588935 -0.32585958 0
1.7593482 -0.44362897 -0.32487738 0
1.8518406 -0.44569564 -0.32276753 0
1.9640701 -0.4488264 -0.32230455 0
2.0701113 -0.45138526 -0.32189947 0
2.1538756 -0.45344225 -0.32131052 0
2.2560062 -0.44134614 -0.32228696 0
2.3394151 -0.45766664 -0.3218067 0
2.4455233 -0.45148432 -0.32111174 0
2.5537381 -0.44679269 -0.32135516 0
2.675447 -0.44430977 -0.32133907 0
2.7650313 -0.45918989 -0.32079327 0
2.8662164 -0.43401027 -0.32071772 0
2.9558592 -0.42599264 -0.31985712 0
3.0457425 -0.43894556 -0.31929883 0
3.1356258 -0.45189852 -0.31874055 0
3.2255092 -0.46485144 -0.31818229 0
3.3157318 -0.45363432 -0.3174929 0
3.4507306 -0.47210389 -0.31670684 0
3.5781679 -0.48953894 -0.31596485 0
-1.5024749 -0.39587593 -0.39572793 0
-1.46083 -0.34017801 -0.39161411 0
-1.3715501 -0.32980669 -0.37802917 0
1.1711686 -0.34454164 -0.32720891 0
1.2481005 -0.35220107 -0.32694271 0
1.3564708 -0.35113245 -0.32735577 0
1.4472381 -0.34828672 -0.32667127 0
1.5498718 -0.35269579 -0.3257193 0
1.6400096 -0.35762319 -0.3256647 0
1.7373983 -0.35321707 -0.32479256 0
1.8430198 -0.34697649 -0.32484213 0
1.9744294 -0.36889821 -0.32315648 0
2.0309536 -0.33735022 -0.32413593 0
2.1567621 -0.35825047 -0.32404745 0
2.2586169 -0.33390194 -0.32344967 0
2.361201 -0.35746601 -0.32281414 0
2.453881 -0.33573684 -0.32221913 0
2.5730388 -0.35681391 -0.32163483 0
2.6857371 -0.36744305 -0.32116106 0
2.7757363 -0.37975609 -0.32063702 0
2.8657355 -0.39206913 -0.320113 0
-1.4189454 -0.26699734 -0.38690338 0
1.1930332 -0.25130945 -0.326754 0
1.2522397 -0.23907499 -0.32692632 0
1.3658391 -0.25641057 -0.32693419 0
1.4419523 -0.23677781 -0.32786012 0
1.5376358 -0.25542173 -0.32604033 0
1.6428751 -0.25216028 -0.325519 0
1.7354835 -0.25010076 -0.32530355 0
1.8449014 -0.25791222 -0.32515216 0
1.9509348 -0.24345513 -0.32513225 0
2.0360739 -0.24895294 -0.32490578 0
2.1202831 -0.25924894 -0.32425532 0
2.2418573 -0.24818508 -0.32346153 0
2.3607311 -0.24601433 -0.3234424 0
2.4672718 -0.24797471 -0.32294452 0
2.5608542 -0.24832627 -0.32161009 0
2.6154089 -0.22523925 -0.32232827 0
1.2484502 -0.14756058 -0.32720259 0
1.3576783 -0.1578403 -0.32575554 0
1.4339629 -0.15016825 -0.32701316 0
1.5554031 -0.14514211 -0.3267276 0
1.65493 -0.14702384 -0.32633144 0
1.7505736 -0.15075476 -0.32586852 0
1.8289573 -0.15750386 -0.32545203 0
1.9469742 -0.15363276 -0.32472733 0
2.0407052 -0.14638467 -0.3240875 0
2.1257403 -0.15247838 -0.32382256 0
2.2500169 -0.14510855 -0.32278231 0
2.3776515 -0.15333675 -0.32243121 0
2.4627411 -0.15882219 -0.3221972 0
2.5492454 -0.14608449 -0.32238933 0
2.6248131 -0.14407636 -0.32277849 0
2.7243445 -0.13658674 -0.32320809 0
2.8238282 -0.12126607 -0.3235063 0
2.9418957 -0.13352124 -0.32242945 0
3.0506682 -0.13133782 -0.32198328 0
3.1594369 -0.12828685 -0.3214612 0
3.2775054 -0.1407589 -0.32040334 0
3.3682408 -0.14465746 -0.31978273 0
3.4589763 -0.14855604 -0.31916213 0
3.5497117 -0.1524546 -0.31854156 0
3.631166 -0.15597793 -0.31798649 0
1.2551694 -0.049731612 -0.32848105 0
1.3578799 -0.048670448 -0.32810614 0
1.4415096 -0.050419953 -0.32785556 0
1.5639384 -0.044878121 -0.32735297 0
1.6664424 -0.047772016 -0.32705733 0
1.7600689 -0.05043136 -0.32651037 0
1.8386135 -0.052676834 -0.32599008 0
1.9493204 -0.053792182 -0.32513532 0
2.0448689 -0.048028428 -0.32509804 0
2.1366677 -0.045898896 -0.32479692 0
2.2220223 -0.047733799 -0.32460108 0
2.350054 -0.050486162 -0.32430735 0
2.478086 -0.053238526 -0.32401362 0
2.5634406 -0.055073436 -0.32381776 0
2.6392744 -0.066255346 -0.32418656 0
2.7418408 -0.098148271 -0.32504568 0
1.2539594 0.052148532 -0.32933488 0
1.351891 0.045357574 -0.32974431 0
1.4350572 0.051397596 -0.32962081 0
1.5421396 0.048774429 -0.32946059 0
1.6677936 0.04536213 -0.3279689 0
1.7450866 0.054077044 -0.3288458 0
1.8457683 0.052924477 -0.32729918 0
1.9377886 0.052693348 -0.32651684 0
2.042239 0.043923318 -0.32551336 0
2.1393204 0.046000626 -0.32524034 0
2.2247274 0.047835726 -0.32507589 0
2.3431268 0.043513756 -0.32457143 0
2.4610608 0.061496168 -0.32496655 0
2.5663564 0.055176143 -0.32441816 0
2.6402588 0.056814045 -0.3242797 0
1.2545241 0.14824946 -0.32896948 0
1.3534151 0.14584699 -0.32944798 0
1.436752 0.1534718 -0.32970411 0
1.5651067 0.14598796 -0.32915905 0
1.6675377 0.14811623 -0.32903883 0
1.7649471 0.15198922 -0.32866907 0
1.8435152 0.15875141 -0.32828444 0
1.95112 0.15393727 -0.32727841 0
2.0495343 0.14404246 -0.32729602 0
2.1447363 0.1537417 -0.32675326 0
2.2322676 0.14400552 -0.32646337 0
2.3373644 0.1507753 -0.32578123 0
2.4542291 0.15832862 -0.32545188 0
2.5705001 0.14730959 -0.32433027 0
2.6345048 0.15098868 -0.32401514 0
1.2422007 0.2480146 -0.33128098 0
1.3577902 0.25742403 -0.32974666 0
1.4346236 0.24519829 -0.33036488 0
1.5578778 0.24729818 -0.32918775 0
1.6548814 0.24640815 -0.3278155 0
1.746659 0.25168481 -0.32771599 0
1.8456835 0.25252935 -0.32725599 0
1.9430459 0.24887601 -0.32784742 0
2.0424621 0.24551168 -0.32717937 0
2.1340799 0.26085135 -0.32669637 0
2.2240131 0.23969269 -0.32658944 0
2.3511944 0.25339541 -0.32605854 0
2.4789267 0.24921153 -0.32536721 0
2.5678365 0.2395581 -0.32519761 0
2.6346552 0.24575906 -0.32492101 0
1.1816326 0.3570103 -0.33082026 0
1.2476982 0.34394717 -0.33161861 0
1.366504 0.3581582 -0.33173832 0
1.4475257 0.34841132 -0.33159161 0
1.5400091 0.34744793 -0.33066553 0
1.6477188 0.35038999 -0.33024016 0
1.7438017 0.35421002 -0.33001369 0
1.8359604 0.33733383 -0.32902056 0
1.9536508 0.348272 -0.32910267 0
2.0479424 0.35351536 -0.3292872 0
2.1375637 0.35508895 -0.32912186 0
2.2356634 0.33026195 -0.32679549 0
2.3538127 0.36326957 -0.32668552 0
2.4704037 0.33800912 -0.32585311 0
2.5549593 0.34957698 -0.32555255 0
2.6248815 0.35912824 -0.32531917 0
1.1635355 0.45412222 -0.33477259 0
1.2533736 0.45590746 -0.33233938 0
1.3504347 0.45060837 -0.33092722 0
1.4352423 0.45616192 -0.33105022 0
1.5490258 0.45588085 -0.33054405 0
1.6334081 0.4513554 -0.33043903 0
1.7429527 0.45473444 -0.32945973 0
1.8505526 0.44534445 -0.32898229 0
1.9484553 0.43230358 -0.32766601 0
2.0259326 0.45699328 -0.32701087 0
2.1549337 0.44744667 -0.32673267 0
2.2558634 0.44168174 -0.32742661 0
2.3516562 0.45150489 -0.32750767 0
2.4648015 0.4456619 -0.32656756 0
2.5485685 0.46081367 -0.32601616 0
2.6131859 0.45337373 -0.32565993 0
1.0976799 0.58078074 -0.33276242 0
1.1502569 0.54668701 -0.33262143 0
1.2500007 0.53721297 -0.3336719 0
1.3335553 0.55904555 -0.33273226 0
1.4506279 0.54737628 -0.33188576 0
1.5471609 0.54613757 -0.33271363 0
1.6459457 0.55339974 -0.3323842 0
1.7789851 0.5514546 -0.33100665 0
1.858711 0.5471127 -0.3301256 0
1.9608989 0.55193102 -0.32944515 0
2.0507853 0.54038101 -0.32908285 0
2.1768887 0.55699843 -0.3286581 0
2.2626598 0.54455978 -0.32786584 0
2.3459799 0.56460983 -0.32785282 0
2.4321363 0.54862952 -0.32729101 0
2.5573201 0.55763257 -0.32642812 0
2.6027863 0.50925982 -0.32564124 0
-1.309563 0.64555681 -0.39124107 0
-1.2558397 0.68749398 -0.38364995 0
1.0667882 0.64525539 -0.33416533 0
1.1533444 0.65318298 -0.33295411 0
1.2627792 0.6613012 -0.33375877 0
1.3397781 0.63130862 -0.33424333 0
1.4497967 0.65139562 -0.33247322 0
1.5610839 0.65193194 -0.33142185 0
1.6654927 0.64991915 -0.331826 0
1.750562 0.65446788 -0.33147994 0
1.8367124 0.6569649 -0.33138198 0
1.9623641 0.64935815 -0.33057523 0
2.0736921 0.6591531 -0.33073315 0
2.1582189 0.65212268 -0.32944873 0
2.245903 0.6436013 -0.3287895 0
2.3333647 0.65063643 -0.32847738 0
2.4194069 0.65602309 -0.32810125 0
2.5478609 0.65188193 -0.3284035 0
2.6086142 0.62775326 -0.32944086 0
-1.3307139 0.72848827 -0.39606723 0
-1.2484328 0.75914556 -0.38447717 0
-1.1518993 0.76563996 -0.36893198 0
-1.0847182 0.79047191 -0.35963672 0
0.98335481 0.7720117 -0.33501133 0
1.0530102 0.74446988 -0.33482528 0
1.1516513 0.75107658 -0.33451641 0
1.2364186 0.75771636 -0.33374453 0
1.3484399 0.75094622 -0.33263618 0
1.4615885 0.74666446 -0.33252373 0
1.5318609 0.75075704 -0.33270657 0
1.6484795 0.75476414 -0.33187288 0
1.7572358 0.7535764 -0.33128241 0
1.8587313 0.74081993 -0.33111185 0
1.9478561 0.74432701 -0.3302893 0
2.0350602 0.74446321 -0.32968608 0
2.127903 0.74384451 -0.32971966 0
2.2401865 0.7564944 -0.32991144 0
2.349802 0.7469157 -0.32934594 0
2.4644794 0.75405282 -0.32849878 0
2.5610552 0.7538439 -0.32780552 0
-1.3215985 0.86546969 -0.39692754 0
-1.2486725 0.86943746 -0.38609365 0
-1.1518341 0.83896291 -0.37095159 0
-1.0435963 0.8440215 -0.35418135 0
-0.94956976 0.8619737 -0.34373403 0
0.89077365 0.8939575 -0.33815932 0
0.94289106 0.85002488 -0.33599988 0
1.0450883 0.85281426 -0.33548453 0
1.1597469 0.85979503 -0.33479363 0
1.2441226 0.84020281 -0.33461061 0
1.3453264 0.85347927 -0.33377099 0
1.4605442 0.85017604 -0.33177218 0
1.5725642 0.84637487 -0.33179107 0
1.6593122 0.84768355 -0.33143607 0
1.7510647 0.84764534 -0.33147061 0
1.85988 0.85704523 -0.3315776 0
1.9363074 0.84424853 -0.33160412 0
2.0570774 0.8474623 -0.33042619 0
2.1702359 0.82927012 -0.33033425 0
2.2680194 0.86664742 -0.32987738 0
2.3577759 0.84331578 -0.32942891 0
2.4514196 0.85697085 -0.32934669 0
2.5375075 0.85677415 -0.32916665 0
-1.3218479 0.92049444 -0.39884913 0
-1.2506404 0.95282829 -0.38854128 0
-1.1590971 0.93507975 -0.37409988 0
-1.0487859 0.95197624 -0.35974941 0
-0.94727784 0.96244174 -0.35046181 0
-0.85316914 0.96052212 -0.34437987 0
0.78072977 0.97295427 -0.33428061 0
0.85564488 0.94927341 -0.33579955 0
0.95264071 0.95602226 -0.33739448 0
1.0589293 0.95865911 -0.33764359 0
1.1323225 0.94521511 -0.33550268 0
1.2483252 0.94316828 -0.33453533 0
1.3661416 0.95883948 -0.33375528 0
