# .PCD v0.7 - Point Cloud Data file format
VERSION 0.7
FIELDS x y z intensity
SIZE 4 4 4 4
TYPE F F F F
COUNT 1 1 1 1
WIDTH 1403
HEIGHT 1
VIEWPOINT 0 0 0 1 0 0 0
POINTS 1403
DATA ascii
-12.622933 8.2336903 1.8597616 11
-12.585198 8.5979652 1.8808849 11
-12.554969 8.9778814 1.9047911 11
-12.520292 9.3639946 1.9294487 11
-12.494768 9.6259699 1.94649 11
-12.441975 10.164072 1.9826286 11
-12.725929 7.9178629 2.3830333 12
-12.427857 10.451783 2.0039084 11
-12.778383 41.221024 2.2529457 9
-12.714246 8.1645441 2.4024978 12
-12.680707 8.5322399 2.4303138 12
-12.634675 9.0357246 2.4700258 12
-12.566081 9.8261089 2.5366232 12
-12.515662 10.225149 2.5698893 12
-12.487606 10.65678 2.6104643 12
-12.425256 11.393474 2.6804285 12
-12.757576 8.5846453 2.9987371 13
-12.736258 8.9717741 3.0381267 13
-12.694998 9.3563128 3.0755634 13
-12.617414 10.160658 3.1593463 13
-12.718048 -35.535583 3.2393627 10
-12.582062 10.583347 3.2062848 13
-12.543284 11.018632 3.2558906 13
-12.505156 11.467837 3.3086789 13
-12.480496 11.777589 3.346205 13
-12.452468 12.091822 3.3845174 13
-12.408478 12.757288 3.469897 13
-12.778926 9.4189491 3.6753955 14
-12.743129 9.8197641 3.7245591 14
-12.729423 10.102058 3.7623167 14
-12.683177 10.669377 3.8370903 14
-12.641544 10.946281 3.8713284 14
-12.719479 -35.531925 4.5710173 11
-12.077262 40.967262 -3.7477441 5
-12.112129 41.098892 -2.2563658 6
-12.114721 7.7751627 -1.7585909 4
-12.203899 7.5894051 -1.2485765 5
-12.177562 7.8160458 -1.2570982 5
-12.130213 8.2834578 -1.2759999 5
-12.090961 8.6421528 -1.2910504 5
-12.051199 9.0088644 -1.3070199 5
-12.039557 9.2707634 -1.3199761 5
-12.044258 9.83498 -0.80536848 6
-12.018925 10.10346 -0.81327838 6
-12.166026 -35.610172 -0.71949869 7
-12.270134 7.7534537 -0.75188839 6
-12.220405 8.2190132 -0.76279944 6
-12.177437 8.573554 -0.77130866 6
-12.114102 9.0566025 -0.78332627 6
-12.077628 9.4394417 -0.79390675 6
-12.148538 41.235794 -0.76106799 7
-12.355209 7.8077874 -0.24629252 7
-12.292442 8.2680597 -0.2495351 7
-12.262526 8.6341143 -0.25255731 7
-12.217554 9.0000401 -0.25552872 7
-12.178071 9.3789396 -0.25883323 7
-12.127811 9.7613287 -0.2621938 7
-12.041345 10.571938 -0.27002701 7
-12.389621 8.2057505 0.2684415 8
-12.351082 8.5664358 0.27158907 8
-12.27615 9.1792049 0.27700225 8
-12.261722 9.4441261 0.2796849 8
-12.209448 9.8278255 0.28320709 8
-12.165016 10.228042 0.28711522 8
-12.13981 10.506113 0.28997111 8
-12.083046 11.075494 0.29588699 8
-12.051805 11.367521 0.29896164 8
-12.01288 11.659158 0.30197468 8
-12.172275 -35.620403 0.59470761 8
-12.185328 41.374058 0.74229187 8
-12.384826 8.988574 0.81142259 9
-12.33889 9.3653688 0.82140654 9
-12.252086 10.154606 0.84375006 9
-12.223277 10.579294 0.85704029 9
-12.180711 11.008019 0.87031877 9
-12.128809 11.441246 0.88371164 9
-12.101336 11.746167 0.89371705 9
-12.060429 12.219598 0.90966135 9
-12.012125 12.702346 0.92601585 9
-12.37966 9.8211365 1.3922974 10
-12.35211 10.089788 1.4052236 10
-12.297221 10.644241 1.4328717 10
-12.273257 10.933727 1.4480463 10
-12.231102 11.375929 1.4714291 10
-12.182943 11.826544 1.495496 10
-12.111462 12.628142 1.5408159 10
-12.060928 13.125598 1.5694044 10
-12.023831 13.466038 1.5892262 10
-12.169943 -35.605518 1.9098328 9
-12.389378 10.724983 2.0221274 11
-12.359119 11.011234 2.0425653 11
-12.329915 11.304965 2.0641141 11
-12.293578 11.766897 2.0997117 11
-12.240251 12.227524 2.1345036 11
-12.210471 12.551045 2.1601865 11
-12.135041 13.399712 2.2297695 11
-12.080977 13.92671 2.2736135 11
-12.046173 14.293791 2.3049922 11
-12.021854 14.68534 2.3399577 11
-12.228046 41.532581 2.2585578 9
-12.392102 11.693018 2.7089117 12
-12.35302 12.167444 2.7566862 12
-12.303735 12.648241 2.8051028 12
-12.260444 12.969088 2.8369906 12
-12.251984 13.336469 2.8786154 12
-12.208972 13.676483 2.9138861 12
-12.177285 14.039374 2.9536402 12
-12.11739 14.803862 3.0399203 12
-12.083685 15.200352 3.0853133 12
-12.046291 15.605596 3.1320329 12
-12.008321 16.024267 3.1809955 12
-12.367172 13.083425 3.5100582 13
-12.329673 13.422526 3.5532615 13
-12.310741 13.792074 3.6039875 13
-12.282292 14.162118 3.6542623 13
-12.241109 14.528605 3.7031076 13
-12.181882 15.325833 3.8155105 13
-12.263892 41.667896 3.7897301 10
-12.161501 -35.564617 4.5528059 11
-12.166367 -35.570644 5.8917117 12
-11.650752 11.63039 -2.0117681 4
-11.974889 8.9511042 -1.826324 4
-11.824521 10.22959 -1.9101709 4
-11.9914 9.5091686 -1.3294556 5
-11.967724 9.7716532 -1.3421854 5
-11.90278 10.298223 -1.3674183 5
-11.866084 10.566159 -1.3804579 5
-11.817072 10.985658 -1.4020225 5
-11.781889 11.431601 -1.4266353 5
-11.737514 11.7182 -1.4414988 5
-11.670729 12.336093 -1.476266 5
-11.637321 12.657707 -1.4949228 5
-11.602422 12.986828 -1.5142969 5
-11.947002 10.639191 -0.82875919 6
-11.922815 10.926582 -0.83790165 6
-11.869796 11.355618 -0.8512798 6
-11.829556 11.81129 -0.86647177 6
-11.733373 12.583396 -0.89223528 6
-11.676546 13.071253 -0.90921396 6
-11.644896 13.4163 -0.92178679 6
-11.604753 13.761892 -0.93430215 6
-11.621441 -35.672882 -0.71694815 7
-11.995627 10.994334 -0.27432632 7
-11.953141 11.436525 -0.27907071 7
-11.865986 12.191887 -0.28734198 7
-11.836718 12.514205 -0.2910966 7
-11.781557 13.003678 -0.29683051 7
-11.732265 13.518506 -0.30311057 7
-11.660786 14.237367 -0.31214303 7
-11.615056 14.601727 -0.31674603 7
-11.990443 11.974342 0.30554166 8
-11.952787 12.282345 0.30886683 8
-11.923534 12.607322 0.31256205 8
-11.846246 13.264182 0.31994292 8
-11.800601 13.797821 0.32629773 8
-11.74231 14.338635 0.33269045 8
-11.705816 14.717648 0.3372944 8
-11.65789 15.094658 0.34178558 8
-11.620336 -35.660908 0.59294575 8
-11.631413 41.679142 0.74303025 8
-11.943517 13.374597 0.94939059 9
-11.892231 13.705959 0.96054584 9
-11.869058 14.080297 0.97456914 9
-11.837934 14.457153 0.98859805 9
-11.791654 14.827408 1.0020266 9
-11.718027 15.63067 1.0326487 9
-11.670975 16.039925 1.0482274 9
-11.632777 16.476753 1.0654451 9
-11.619427 -35.649548 1.9034996 9
-11.996254 13.827448 1.6112862 10
-11.961583 14.191739 1.6334337 10
-11.92138 14.560821 1.6558995 10
-11.893285 14.957075 1.6812044 10
-11.850988 15.348612 1.7057226 10
-11.762591 16.168024 1.7580631 10
-11.719263 16.601553 1.7864586 10
-11.681215 17.059444 1.8172052 10
-11.6328 17.520109 1.8479766 10
-11.600199 18.024212 1.8830388 10
-11.978741 15.066425 2.3729091 11
-11.666926 41.820724 2.2632551 9
-11.903423 15.882165 2.4462118 11
-11.8661 16.312531 2.4858017 11
-11.817331 16.742823 2.5250311 11
-11.776896 17.201658 2.5682104 11
-11.74251 17.687988 2.6150963 11
-11.704593 18.189213 2.6637681 11
-11.648455 18.68285 2.7109456 11
-11.606443 19.221413 2.7642531 11
-11.623909 -35.654675 3.2194197 10
-11.972878 16.461586 3.2331889 12
-11.924393 16.896902 3.2845356 12
-11.885493 17.362812 3.3413677 12
-11.85218 17.855864 3.4029071 12
-11.806087 18.349768 3.4640934 12
-11.77123 18.882801 3.5321391 12
-11.714567 19.403664 3.5973954 12
-11.701072 41.957554 3.7988029 10
-11.627468 -35.656925 4.5433221 11
-11.621196 -35.628967 5.8737202 12
-11.467625 13.209007 -2.1386509 4
-11.259469 15.009117 -2.2954764 4
-11.559967 41.394756 -2.2650061 6
-11.383101 14.733206 -1.6203169 5
-11.350476 15.132442 -1.6465693 5
-11.261597 15.942143 -1.6997277 5
-11.215422 16.367474 -1.728231 5
-11.560392 13.317408 -1.5336815 5
-11.52002 13.659797 -1.5542704 5
-11.451809 14.185492 -1.5862147 5
-11.565082 14.118802 -0.94749475 6
-11.524693 14.486326 -0.96130717 6
-11.48766 14.870458 -0.97612321 6
-11.438862 15.252282 -0.9906953 6
-11.34899 16.068096 -1.0229461 6
-11.298583 16.491199 -1.0399034 6
-11.247099 16.929224 -1.0577126 6
-11.595273 41.535412 -0.76514626 7
-11.572781 14.982554 -0.32169336 7
-11.523719 15.367442 -0.32671583 7
-11.492351 15.79018 -0.33252743 7
-11.436044 16.19359 -0.33791983 7
-11.39684 16.636993 -0.34413478 7
-11.346852 17.081898 -0.35036874 7
-11.295981 17.543526 -0.35693613 7
-11.243536 18.022083 -0.36383888 7
-11.574254 15.904849 0.35183176 8
-11.534633 16.335464 0.35731083 8
-11.484093 16.766758 0.36273009 8
-11.434312 17.216084 0.36846575 8
-11.394186 17.698719 0.37483343 8
-11.332868 18.168097 0.38083938 8
-11.285252 18.680378 0.38766411 8
-11.584022 16.915071 1.082592 9
-11.539454 17.376959 1.1010799 9
-11.491179 17.852093 1.1202327 9
-11.441573 18.345253 1.1403407 9
-11.39029 18.857294 1.1614428 9
-11.540774 18.507208 1.9156144 10
-11.488403 19.022806 1.9513013 10
-11.013239 17.096582 -2.4900749 4
-11.154063 16.786707 -1.7559314 5
-11.107283 17.245218 -1.7875733 5
-11.198705 17.389805 -1.0768358 6
-11.158099 17.882349 -1.0978308 6
-11.08838 18.348579 -1.1171206 6
-11.078857 -35.73156 -0.71444762 7
-11.036098 41.828289 -0.76928109 7
-11.195565 18.528948 -0.37130389 7
-11.078664 -35.721779 0.59169769 8
-11.072277 41.980659 0.74379289 8
-11.081167 -35.720692 1.8990917 9
-11.083849 -35.720142 3.2111566 10
-11.138371 42.262009 3.8098521 10
-11.169609 42.396088 5.3694048 11
-11.082378 -35.696861 5.8586931 12
-10.537115 -35.792301 -2.0166972 6
-10.53927 -35.789818 -0.71206927 7
-10.474131 42.126579 -0.77369642 7
-10.504413 42.264683 0.74433511 8
-10.541656 -35.778351 1.8944336 9
-10.536623 42.410671 2.2744796 9
-10.540812 -35.765675 3.2018726 10
-10.547863 -35.779709 4.5196776 11
-10.602832 42.710396 5.3877077 11
-10.542369 -35.751129 5.8428016 12
-10.002976 -35.849648 -0.70984674 7
-10.006781 -35.852791 0.58985937 8
-10.007475 -35.844795 1.8906988 9
-10.007612 -35.834766 3.1954539 10
-10.010411 -35.834206 4.5085707 11
-10.029414 43.017357 5.4059906 11
-10.012509 -35.831047 5.8324389 12
-10.013815 -35.824951 7.1701145 13
-9.9096813 42.433582 -0.77845442 7
-9.9397764 42.579952 0.74551499 8
-9.9655905 42.708134 2.2807684 9
-9.997613 42.863102 3.833149 10
-9.310873 42.587383 -2.3045652 6
-9.4693203 -35.909805 -0.70775372 7
-9.3389025 42.734447 -0.7832846 7
-9.4704514 -35.902843 0.58893508 8
-9.3637257 42.866905 0.74628735 8
-9.3908587 43.010105 2.2876625 9
-9.4774141 -35.906658 3.1900198 10
-9.4245968 43.183784 3.8475518 10
-9.4777126 -35.896423 4.4994721 11
-9.4493141 43.316334 5.4241924 11
-9.4794807 -35.880089 7.1539168 13
-8.9479218 5.7411065 -1.6772168 3
-8.9426689 -35.976788 0.58856636 8
-8.9460554 -35.978256 1.8846104 9
-8.8141003 43.326828 2.2957032 9
-8.943346 -35.955204 3.1832488 10
-8.8394642 43.472229 3.8597255 10
-8.945694 -35.9524 4.4906149 11
-8.865468 43.621037 5.4440398 11
-8.9484358 -35.951073 5.8091803 12
-8.9471664 -35.933529 7.1389937 13
-8.4140759 -4.9047766 -0.86338824 5
-8.4096842 -36.034595 -0.70401645 7
-8.7620602 43.03017 -0.78820705 7
-8.4126015 -4.9037061 0.15916499 8
-8.4134502 -36.037605 0.58814204 8
-8.4203386 -4.9081488 0.50008762 9
-8.7899742 43.187737 0.74773681 8
-8.5189428 -4.8836918 0.8485446 10
-8.5550137 -4.8773561 1.4317673 11.666667
-8.4130182 -36.022636 1.8810614 9
-8.6447477 -4.8747859 1.9186381 13
-8.6262388 -4.8642812 2.2758453 14
-8.635787 -4.8695989 2.6459215 15
-8.4146767 -36.016582 3.1783383 10
-8.4162769 -36.010197 4.4829941 11
-8.4192085 -36.009399 5.7992263 12
-8.4195042 -35.997196 7.1276875 13
-8.1740685 -4.9224963 -0.84613955 5
-8.1861172 -4.9296751 -0.51195419 6
-8.185977 43.356846 -0.79388434 7
-8.1751022 -4.9229627 -0.17753816 7
-8.1781168 -4.9247031 0.15581039 8
-8.1744242 -4.9224 0.48937979 9
-8.255949 -4.9174023 1.0570371 10.666667
-8.1695566 -4.9192328 1.4998988 12
-8.2853584 -4.9080205 1.8614311 13
-8.2881193 -4.9095154 2.2135146 14
-8.2303982 43.63686 2.3037493 9
-8.1666975 -4.9172673 2.5437527 15
-8.2569265 43.800091 3.8760436 10
-7.8793001 -36.096195 -1.9941282 6
-7.824461 -4.9687376 -0.93075246 4.6666665
-7.8817987 -36.093391 -0.70225185 7
-7.8490338 -4.9579635 -0.49774328 6
-7.8519487 -4.9597158 -0.17312515 7
-7.8514147 -4.9593248 0.15124151 8
-7.8834271 -36.086601 0.5876894 8
-7.8200679 -4.9654546 0.58226126 9.333333
-7.6197495 43.800201 0.75038838 8
-7.8899755 -4.9572992 1.0232046 10.666667
-7.8444619 -4.9545832 1.459035 12
-7.8847818 -36.078568 1.8785604 9
-7.8453383 -4.95504 1.7932228 13
-7.8332515 -4.9472733 2.1284938 14
-7.6436229 43.961979 2.3129563 9
-7.8392282 -4.950933 2.4738722 15
-7.6653991 44.111931 3.8915865 10
-7.890204 -36.074734 4.477211 11
-7.6884551 44.269585 5.4913931 11
-7.8924637 -36.070602 5.7910209 12
-7.8948221 -36.06675 7.1191053 13
-7.5243101 -2.8018403 -1.278577 3
-7.5456786 -4.9962993 -0.80322063 5
-7.3578763 -36.163723 -0.7008267 7
-7.4208398 -5.015244 -0.58499426 5.6666665
-7.4519835 -5.0102315 -0.16782154 7
-7.4401197 -5.002286 0.14559717 8
-7.3573112 -36.145458 0.58755791 8
-7.4387746 -5.0011206 0.61618829 9.5
-7.4501858 -5.0085998 1.091704 11
-7.4472194 -5.0065908 1.4107902 12
-7.3605533 -36.14587 1.8770854 9
-7.4387736 -5.0006318 1.7318419 13
-7.399888 -5.0000901 2.1610236 14.333333
-7.5319057 -4.9861474 2.4097874 15
-7.3619032 -36.136951 3.1704566 10
-7.3609295 -36.116543 4.4696002 11
-7.3679452 -36.135181 5.7846203 12
-7.3676009 -36.117573 7.1083717 13
-6.8025122 -5.0857124 -1.0547127 4
-7.0104575 43.981834 -0.80529451 7
-6.8297749 -36.206486 -0.69897842 7
-7.0394545 -5.056109 -0.56643826 5.6666665
-6.8175678 -6.6168203 -0.18001525 7
-6.9773183 -5.0608621 -0.16158709 7
-6.9087253 -6.8992844 0.15590025 8
-6.8525243 -6.4630265 0.15073326 8
-6.8228331 -6.1651168 0.14740847 8
-7.06004 -5.0451279 0.14053591 8
-6.8306904 -36.194382 0.58742446 8
-6.9141283 -6.6155553 0.48770097 9
-6.8868341 -6.1925597 0.58080411 9.333333
-6.8483334 -5.820683 0.61688429 9.5
-6.8103971 -5.4017577 0.64651161 9.666667
-7.0638003 -5.0475807 0.59665483 9.5
-7.0285873 44.122498 0.7521196 8
-7.0558214 -6.8468647 1.1931465 11
-6.9976916 -6.6004896 0.9969933 10.5
-6.9515505 -6.1925688 0.9641344 10.5
-6.9185138 -5.7323804 1.0913228 11
-6.8781891 -5.3751836 1.0606652 11
-7.0634074 -5.0471625 1.0553675 11
-7.070621 -6.5737457 1.5156758 12
-7.0212975 -6.1636224 1.4671178 12
-6.9647059 -5.7704248 1.420647 12
-6.9213467 -5.4088144 1.3800932 12
-7.0197639 -5.091167 1.362981 12
-6.8373117 -36.21246 1.8760028 9
-7.1370158 -6.6352429 1.8806872 13
-7.0898967 -6.2235599 1.8210342 13
-7.0331416 -5.8268995 1.7633759 13
-6.9740801 -5.4109564 1.704729 13
-7.1452293 -5.0293603 1.6879634 13
-7.1770358 -6.5764446 2.2338805 14
-7.1446428 -6.2714062 2.1819384 14
-7.0885849 -5.8313007 2.1072254 14
-7.0347624 -5.3371229 2.191972 14.5
-7.144062 -5.0283527 2.1682563 14.5
-7.0508232 44.289165 2.3226364 9
-7.1742454 -6.0295992 2.4986084 15
-7.1333418 -5.7398686 2.4414678 15
-6.8415217 -36.217705 3.1693738 10
-6.8409028 -36.197311 4.4677858 11
-7.0889168 44.583305 5.5151629 11
-6.8426528 -36.189308 5.777802 12
-6.8455057 -36.186954 7.1028271 13
-6.5408859 4.8863058 -1.2880441 3
-6.6968083 -6.6887317 -1.0095165 4.5
-6.6688437 -6.2018762 -0.81063718 5
-6.5677781 -5.683969 -1.0795734 4
-6.4119835 44.284042 -0.81110376 7
-6.7670875 -6.6634736 -0.51224387 6
-6.712357 -6.1525869 -0.49069756 6
-6.6505771 -5.8190942 -0.63067007 5.5
-6.6042118 -5.3746653 -0.60792518 5.5
-6.7518148 -5.0848618 -0.60215414 5.5
-6.7622304 -6.1999574 -0.17351128 7
-6.7213464 -5.7334661 -0.16665077 7
-6.6774311 -5.3741541 -0.1613341 7
-6.7646527 -5.7702408 0.14287739 8
-6.7280307 -5.4149122 0.13913377 8
-6.7808003 -5.0689297 0.13683721 8
-6.7573943 -5.2811575 0.43827191 9
-6.4296546 44.435966 0.75378519 8
-6.4494967 44.603203 2.3319955 9
-6.4662237 44.74918 3.9258347 10
-6.4858122 44.915371 5.54215 11
-6.3932366 44.124821 -2.3668976 6
-6.3079004 -36.275726 -0.69775301 7
-6.3089542 -36.2631 0.58777082 8
-6.3121128 -36.262547 1.8744944 9
-6.3169198 -36.271381 3.1666191 10
-6.3172121 -36.254211 4.4639926 11
-6.315835 -36.227318 5.7696705 12
-6.3216 -36.241169 7.0958276 13
-5.7794933 -2.6350415 -1.0125412 3
-5.8106623 44.611588 -0.81757581 7
-5.7854724 -36.337631 -0.69649571 7
-5.7879972 -36.332771 0.58829027 8
-5.8281288 44.779301 0.75604385 8
-5.7885551 -36.315544 1.8735639 9
-5.8432951 44.929592 2.3423767 9
-5.7908564 -36.309185 3.1631784 10
-5.8579006 45.075924 3.9446661 10
-5.7918553 -36.294559 4.4591327 11
-5.8754511 45.245384 5.5698385 11
-5.7968116 -36.304531 5.7690148 12
-5.7990346 -36.297169 7.0906887 13
-5.2010384 44.928791 -0.82406002 7
-5.2621102 -36.38892 -0.69514155 7
-5.2663617 -36.395107 0.58884633 8
-5.2165174 45.100712 0.75801808 8
-5.2668705 -36.37545 1.8734106 9
-5.2289147 45.246265 2.3526306 9
-5.2697034 -36.371765 3.1625855 10
-5.2438016 45.413792 3.9651406 10
-5.2735162 -36.374695 4.4601126 11
-5.2568464 45.565853 5.5973253 11
-5.2751718 -36.362564 5.7665343 12
-5.2778978 -36.357574 7.0879107 13
-4.8721094 4.2106395 -1.016084 3
-4.5240684 -2.4661849 -0.82221925 3
-4.5871978 45.273865 -0.83126056 7
-4.7397895 -36.442871 -0.69394547 7
-4.7433414 -36.443981 0.58934498 8
-4.5981598 45.426125 0.76014721 8
-4.7465067 -36.442123 1.8740294 9
-4.7472224 -36.421398 3.1615572 10
-4.6223664 45.754391 3.9865305 10
-4.3909178 0.95380306 -0.87203187 2
-4.2213225 -36.526646 -0.69342268 7
-4.0006838 46.236717 5.6589384 11
-4.1363263 -28.483595 6.6033463 14
-3.6970532 3.6848433 -0.82393837 3
-3.9818091 45.913151 2.3760355 9
-3.7238519 -28.55933 3.4960005 11
-3.9918115 46.081127 4.0074024 10
-3.7254443 -28.550703 4.5199232 12
-3.7273746 -28.544445 5.5550051 13
-3.7299657 -28.542957 6.6048107 14
-3.3256407 45.771358 -2.4471784 6
-3.3327711 45.932095 -0.84570837 7
-3.5767648 -2.2947633 -0.6788227 3
-3.5119007 -0.76174432 -0.70062453 2
-3.5691218 1.6257912 -0.76017076 2
-3.3077645 -28.610044 0.46272266 8
-3.3400588 46.095413 0.76498032 8
-3.3114741 -28.618645 1.4700676 9
-3.347317 46.258785 2.3889546 9
-3.3121517 -28.601007 2.4793606 10
-3.315557 -28.606758 3.4963741 11
-3.3554716 46.435253 4.0313559 10
-3.3172684 -28.597715 4.5201335 12
-3.3191051 -28.589508 5.5547233 13
-3.3622162 46.593014 5.6938047 11
-3.3215086 -28.585855 6.6038418 14
-2.923579 -3.3700168 -0.55555004 4
-2.8690643 -2.1441739 -0.57271671 3
-3.1849482 1.7339126 -0.70272821 2
-2.8300178 3.2524304 -0.68093359 3
-2.8669806 5.225492 -0.73107678 4
-2.6940792 46.270313 -0.85342324 7
-2.4965799 -1.1373087 -0.53640711 2
-2.6128392 1.8009993 -0.61532867 2
-2.6993814 46.440437 0.76770085 8
-2.7042298 46.603485 2.4022217 9
-2.7092416 46.77018 4.0543518 10
-2.7146819 46.945377 5.7292123 11
-2.0474055 46.622387 -0.86161602 7
-2.1394064 -2.8551307 -0.4446066 4
-2.3202982 -2.0073514 -0.49105906 3
-2.188014 -1.1918713 -0.48764718 2
-2.0135157 -0.43621185 -0.47700274 1
-2.2635264 0.49110132 -0.53396773 1
-2.0825164 1.7957859 -0.53302556 2
-2.1783204 2.8946393 -0.57264471 3
-2.0495088 46.77623 0.7703616 8
-2.0525031 46.951359 2.4160588 9
-2.055115 47.118881 4.0792685 10
-2.0580258 47.29472 5.7653008 11
-1.8809302 -1.878227 -0.42583472 3
-1.7826099 -1.2302481 -0.42479923 2
-1.8029597 0.97431231 -0.4727101 1
-1.7875561 1.7774009 -0.48883882 2
-1.6952636 2.6205194 -0.4938668 3
-1.8866798 4.1038699 -0.5549624 4
-1.6281337 -3.5642951 -0.34988788 5
-1.3909243 46.95528 -0.86968017 7
-1.5867432 -0.72222281 -0.40478566 1
-1.5290742 0.3313598 -0.41865358 0
-1.408219 1.1248103 -0.41539815 1
-1.3708235 1.6832371 -0.42167199 2
-1.2909975 2.3443637 -0.42405686 3
-1.2748636 3.3865166 -0.44548953 4
-1.2669171 -3.3983424 -0.32375631 5
-1.5968844 -2.4833565 -0.36816558 4
-1.2642773 -2.3153906 -0.32908943 4
-1.3870597 -1.7125132 -0.35370535 3
-1.4215895 -1.2294304 -0.36893401 2
-1.2945492 -0.82952958 -0.3577081 1
-1.428598 -0.77761143 -0.37803566 1
-1.3971925 -0.30231225 -0.38413167 0
-1.2627729 0.68505108 -0.38403997 0
-1.3918048 47.144039 0.77364081 8
-1.3920068 47.311062 2.4309165 9
-1.392116 47.476616 4.1057024 10
-1.3930628 47.673134 5.8059931 11
-1.1285636 5.1275954 -0.46270043 5
-1.0171616 -3.4688489 -0.32249647 5
-0.91609031 -2.4602969 -0.32744059 4
-1.0932697 -2.3956211 -0.32849917 4
-1.0240945 -1.7984229 -0.33285201 3
-0.96084875 -1.3830273 -0.33240148 2
-1.0187882 -1.0163449 -0.33340207 1
-1.0568675 -0.6510427 -0.3356711 0
-1.118556 0.76956373 -0.36324227 0
-1.0029173 1.0320812 -0.35611033 0.5
-0.91635102 1.4553076 -0.35308868 1.6666666
-0.98603386 2.1357846 -0.37332058 3
-0.85620844 2.8778462 -0.37050453 4
-0.72594643 47.317986 -0.87852752 7
-0.76497263 -3.5265994 -0.3216415 5
-0.64185685 -2.5259612 -0.32502949 4
-0.54575831 -1.8692493 -0.32815859 2.75
-0.63339794 -1.4018333 -0.32966945 1.5
-0.63269591 -1.0385123 -0.33125782 0
-0.56204015 1.13811 -0.34277919 0
-0.54454952 1.3828368 -0.34560436 1
-0.5970645 1.6620765 -0.34543499 2
-0.5920977 2.1184249 -0.35099944 3
-0.61924613 2.7957904 -0.35412955 4
-0.41777396 2.8290262 -0.35443306 4
-0.59830987 4.0776553 -0.36444744 5
-0.72380018 47.488216 0.77662486 8
-0.72179216 47.670303 2.4461699 9
-0.71940565 47.83054 4.1325583 10
-0.71752834 48.029373 5.8450689 11
-0.055501834 47.503712 -2.5451443 6
-0.050905943 47.679005 -0.88758266 7
-0.34984726 -1.6272838 -0.32748121 2
-0.30239943 -1.2911165 -0.33323294 0.5
-0.33741933 -1.1618453 -0.32822067 0
-0.21499367 1.3621736 -0.34608415 0.5
-0.22944632 1.743187 -0.34563184 2
-0.24416955 2.1728427 -0.35000443 3
-0.11269195 2.8484223 -0.35480216 4
-0.15845093 4.0869069 -0.36357108 5
-0.046274513 47.851231 0.78001207 8
-0.041611638 48.02919 2.4618351 9
-0.036904816 48.222172 4.1634383 10
-0.032114707 48.385189 5.8852072 11
0.23406234 -3.5483427 -0.31489134 5
0.27364892 -2.5641387 -0.31965032 4
0.13665932 -2.0077615 -0.32159859 3
0.23760164 -1.7589241 -0.32360977 2.3333333
0.15109891 -1.3830363 -0.32443544 1
0.24648286 -1.1827812 -0.32717764 0
0.21556345 1.3720374 -0.33425751 0.5
0.22687362 1.7686659 -0.33703473 2
0.2400303 2.1944964 -0.33924851 3
0.27831933 2.8661001 -0.33595327 4
0.38719788 4.0899959 -0.33783069 5
0.63439405 48.037422 -0.89683151 7
0.63553172 -3.4833543 -0.31244561 5
0.64543921 -2.4913859 -0.31759661 4
0.61295933 -1.9205846 -0.32080394 3
0.59844315 -1.4223788 -0.32184651 1.6
0.6799624 -1.0498825 -0.32289892 0.25
0.62771088 1.1350894 -0.33007163 0
0.63754296 1.4336874 -0.32842508 1.25
0.61067265 1.6921661 -0.33124176 2
0.63317698 2.1063373 -0.3298974 3
0.67444181 2.7829189 -0.33103675 4
0.47994909 2.8425126 -0.33474389 4
0.67549765 4.0536494 -0.33574608 5
0.64151782 48.208221 0.78339672 8
0.6489861 48.401825 2.4786417 9
0.65628004 48.578533 4.1920547 10
0.66402441 48.783237 5.9316111 11
1.0043523 -3.3900874 -0.31038547 5
0.99290973 -2.3674238 -0.31516635 4
0.97783226 -1.7643729 -0.31888703 3
0.97407722 -1.3247001 -0.31803513 2
1.0031166 -0.99621552 -0.31998539 1
1.0763108 -0.65633661 -0.32011178 0.25
1.1121786 0.62062478 -0.32449561 0
1.0304042 0.99869817 -0.32456395 0.75
1.0361499 1.4334533 -0.32439834 2
1.0534089 1.9154809 -0.32547772 3
0.95911288 2.6831524 -0.32774642 4
0.94823408 3.9448369 -0.32943365 5
1.3683534 -24.19173 -1.2950127 6
1.3307511 48.4161 -0.90670764 7
1.359503 -3.2562008 -0.30833319 5
1.3587679 -2.1748133 -0.31301594 4
1.2231143 -1.6089731 -0.31718791 3
1.4343157 -1.4111313 -0.31436566 3
1.3373488 -0.97837722 -0.31660396 2
1.4162068 -0.62403852 -0.31865099 1.5
1.3342669 -0.20170277 -0.31922591 0.60000002
1.307358 0.24855785 -0.32031116 0.40000001
1.4027653 0.66305923 -0.31923482 1.3333334
1.4410887 0.97493106 -0.31901801 2
1.4128597 1.3686063 -0.32164982 2.5
1.387498 1.661406 -0.32070616 3
1.5675989 2.3408978 -0.32078528 4
1.3228416 2.5143313 -0.3248243 4
1.3557062 3.8094263 -0.3259401 5
1.3408611 48.604935 0.78752232 8
1.5643096 15.143767 2.4745452 12
1.3507042 48.782463 2.4963038 9
1.5595908 15.142838 3.0220425 13
1.4471109 15.15549 3.5770254 14
1.5506475 15.147882 4.1431274 15
1.360557 48.95842 4.2235007 10
1.3709346 49.150753 5.9754629 11
1.6705064 -23.557343 -1.2612997 6
1.8089542 -3.0259619 -0.30562702 5
1.8305639 -1.8090529 -0.3105543 4
1.6340845 -1.2018855 -0.31432965 3
1.7917607 -0.9578855 -0.3132253 3
1.8490696 -0.55009049 -0.3144356 2.6666667
1.6745375 -0.19357435 -0.31497028 2
1.6926939 0.20272486 -0.3157022 2
1.8135117 0.62427956 -0.31580925 2.5
1.8600639 1.0294535 -0.31564698 3
1.6874822 1.3199325 -0.31719446 3
1.9964961 1.9329112 -0.31527406 4
1.7906783 2.1442337 -0.31756043 4
1.9860045 3.4784153 -0.31930006 5
1.7409093 3.62185 -0.32153201 5
1.7926787 15.113105 0.86408502 9
1.7876203 15.108006 1.3967558 10
1.8915361 15.101491 1.9347962 11
1.8876441 15.106542 2.4769776 12
1.8830924 15.106297 3.0246186 13
1.8789659 15.110084 3.5808191 14
1.8749535 15.115707 4.1469722 15
2.0974338 -37.238041 -0.6894477 7
2.1226494 -2.8144958 -0.3034173 5
2.3143988 -2.650759 -0.3014743 5
2.1790359 -1.3807216 -0.30766776 4
2.3605337 -1.0598116 -0.30561998 4
2.0503354 -0.20460388 -0.31153536 3
2.0670178 0.20581801 -0.31150714 3
2.0313222 0.49922863 -0.31215489 3
2.3282399 1.451493 -0.31143692 4
2.1744499 1.6999172 -0.31327951 4
2.2158127 3.3128366 -0.31672904 5
2.1252306 15.080851 -0.19504665 7
2.1215849 15.085676 0.33570382 8
2.0926378 -37.227119 0.61272764 8
2.114589 15.067256 0.86622977 9
2.1105618 15.069378 1.3994343 10
2.2166591 15.07658 1.9395479 11
2.2111428 15.06929 2.4803705 12
2.2057743 15.063339 3.0270908 13
2.202163 15.069923 3.5839801 14
2.1976435 15.070777 4.1489496 15
2.0791512 -37.211506 4.5384126 11
2.0750582 -37.214558 5.8655772 12
2.0707555 -37.21468 7.2070351 13
2.0651977 -37.193165 8.5617361 14
2.6363165 -37.310207 -0.6900019 7
2.4506552 15.02903 -0.72372013 6
2.5107625 -2.4913349 -0.30157176 5
2.6792409 -2.3028154 -0.29972291 5
2.4519167 -0.89700449 -0.30715644 4
2.5325227 -0.62954181 -0.30539262 4
2.6158791 -0.26645738 -0.30542225 4
2.6495967 0.25908172 -0.30636638 4
2.6053226 0.63547045 -0.3069101 4
2.5163045 1.0073086 -0.30888614 4
2.4222569 1.2820683 -0.31142873 4
2.5281892 3.0291171 -0.31266969 5
2.5535171 15.012527 -0.19194798 7
2.5507629 15.021677 0.33882841 8
2.6320541 -37.310101 0.61605442 8
2.5456574 15.017298 0.87023968 9
2.5411692 15.016155 1.4037172 10
2.6261141 -37.286156 1.9223555 9
2.5360587 15.011584 1.9400657 11
2.532697 15.01813 2.4826739 12
2.4203839 15.030883 3.0287611 13
2.6224096 -37.294258 3.234432 10
2.6334248 15.014824 3.5904348 14
2.5201051 15.023344 4.1522956 15
2.6175563 -37.286343 4.5530481 11
2.6126246 -37.27779 5.8822494 12
2.6078382 -37.271984 7.2260451 13
2.6034329 -37.272484 8.5891304 14
2.9763699 -20.78141 -1.1168778 6
2.9663475 48.788113 -0.66044152 7
2.8380947 -2.1064491 -0.29832876 5
3.0614285 -1.7992865 -0.29760659 5
3.128448 2.2687621 -0.30518898 5
2.8886189 2.6046081 -0.30745015 5
2.9862106 14.965275 -0.18937781 7
2.9822564 14.966919 0.34234035 8
2.9789546 14.971148 0.87510157 9
2.9627445 48.974174 1.0488347 8
2.9732988 14.964375 1.4092038 10
3.1680393 -37.362865 1.9298919 9
2.9686191 14.962697 1.9468843 11
2.9647529 14.964469 2.4897842 12
2.9575369 49.135643 2.772239 9
2.9610164 14.968142 3.0393593 13
3.1626961 -37.351059 3.2443926 10
2.9555831 14.962792 3.5946805 14
2.9533656 14.974558 4.1635437 15
3.1578903 -37.345886 4.5668168 11
2.9532917 49.315922 4.5154114 10
3.1526046 -37.335453 5.8993154 12
2.9491758 49.501862 6.2830567 11
3.5285654 14.881856 -0.71954054 6
3.3117576 -1.3554871 -0.29679602 5
3.4604874 -1.0012654 -0.29630926 5
3.555943 -0.62745291 -0.29498816 5
3.5015187 1.3966268 -0.29920179 5
3.3650413 1.7766496 -0.3010017 5
3.2557442 2.0258918 -0.30298838 5
3.4208577 14.917252 -0.18704864 7
3.4176188 14.921341 0.34625864 8
3.3030238 14.926959 0.87858641 9
3.2999125 14.931936 1.4146044 10
3.5111935 14.896488 1.9568743 11
3.2896435 14.943602 3.0501189 13
3.2825425 14.931177 3.6052942 14
3.6921122 49.147694 -0.66050309 7
3.6792414 -4.2309351 -0.28407368 6
3.9957395 -3.9811711 -0.28359202 6
3.6396637 -0.24793112 -0.29575396 5
3.686456 0.22134769 -0.29711398 5
3.6536832 0.61449808 -0.29658511 5
3.6071029 1.0100908 -0.29823223 5
3.7351165 5.5909352 -0.30281931 6
3.7435441 14.860509 -0.18519568 7
3.7183678 -37.444565 0.62271494 8
3.7355099 14.8613 0.88343036 9
3.6904113 49.323341 1.0628076 8
3.7112339 -37.416988 1.9367145 9
3.689677 49.513821 2.8017735 9
3.7065179 -37.413971 3.2556138 10
3.7024434 -37.417717 4.5830946 11
3.6868627 49.678448 4.5585198 10
3.6982188 -37.420345 5.9219747 12
3.6858473 49.870213 6.3414693 11
3.6919985 -37.403187 7.2719688 13
3.6856263 -37.385094 8.6388559 14
4.3681884 48.653404 -2.355154 6
4.0117574 -18.483841 -1.0018804 6
4.2824926 -3.6967504 -0.28219113 6
4.0889788 5.2690029 -0.29901311 6
4.2641902 -37.490501 0.62595719 8
4.2597079 -37.490471 1.9449962 9
4.2549796 -37.488407 3.2685747 10
4.2363119 -37.444313 7.292542 13
4.2326593 -37.453316 8.669281 14
4.6414185 -32.474125 -0.5984183 7
4.4305553 49.516808 -0.66082388 7
4.5346651 -3.381047 -0.27985442 6
4.7762012 -3.056452 -0.27823722 6
4.6971173 4.5440545 -0.29125917 6
4.4189944 4.9283662 -0.29573631 6
4.4324923 49.705009 1.0777299 8
4.4334183 49.883343 2.8314564 9
4.7990866 -37.534184 4.6153913 11
4.436964 50.093258 4.6074595 10
4.7949414 -37.538044 5.9629869 12
4.4380317 50.2775 6.4062629 11
4.7885165 -37.524391 7.3223085 13
4.7829156 -37.517712 8.7007256 14
4.8592906 -16.573425 -0.9104315 6
5.1845341 49.915947 -0.66167819 7
4.9943619 -2.7146633 -0.27660012 6
5.19066 3.759264 -0.28511494 6
4.9689732 4.1668715 -0.28860745 6
4.8151026 -37.552132 0.62964004 8
5.1883025 50.095798 1.09311 8
4.8095846 -37.54459 1.9527382 9
5.1924057 50.280098 2.8633416 9
4.8047538 -37.542564 3.2805171 10
5.1976395 50.477074 4.6546144 10
5.5624342 -14.927617 -0.83531106 6
5.3055182 -2.1855774 -0.27590224 6
5.5274844 -1.6125529 -0.27325863 6
5.5713453 2.9340639 -0.28073841 6
5.3906574 3.3480339 -0.28247431 6
5.3703074 -37.617321 0.63356811 8
5.3650575 -37.612988 1.9616927 9
5.3602767 -37.612072 3.2945595 10
5.3539658 -37.600594 4.6341052 11
5.3470054 -37.584785 5.9835634 12
5.2018738 50.666336 6.4701796 11
5.3440638 -37.597649 7.3523874 13
5.3364072 -37.577736 8.7330914 14
5.9404054 -27.411615 -0.50517607 7
5.683383 -1.2267278 -0.27372372 6
5.7857223 -0.82312143 -0.27297866 6
5.8666549 -0.41183388 -0.27266049 6
5.9577985 0.34634939 -0.2732676 6
5.9686384 0.77565503 -0.27390265 6
5.9489346 1.2082072 -0.27471203 6
5.9041395 1.6434788 -0.27599216 6
5.8112803 2.0726199 -0.2766884 6
5.7071857 2.5054464 -0.2785846 6
5.9303722 -37.687157 0.63776207 8
5.9116149 -37.658134 4.6527905 11
5.9060478 -37.653217 6.0089431 12
5.9019127 -37.657795 7.3815646 13
5.8958802 -37.650646 8.7704096 14
6.1522126 -13.479366 -0.77247888 6
6.6550608 -12.191616 -0.7196793 6
6.4931488 -37.746471 0.64196944 8
6.4900594 -37.756435 1.9813966 9
6.4822512 -37.738991 3.323905 10
6.4749708 -37.724766 4.6736755 11
6.4693999 -37.720753 6.0355625 12
6.4650731 -37.724319 7.4136715 13
6.8983269 -23.557425 -0.4358618 7
7.0976644 -11.045183 -0.67580873 6
7.0550871 -37.803543 1.9906949 9
7.0498395 -37.801678 3.3396962 10
7.0446877 -37.800476 4.6967869 11
7.037271 -37.787327 6.0634346 12
7.032783 -37.790211 7.4473715 13
7.02526 -37.777122 8.8465538 14
7.4756289 -9.985302 -0.63762683 6
7.4080529 31.543535 5.2989826 12
7.398068 31.539654 6.4651084 13
7.3919153 31.552702 7.6512861 14
7.5954227 -37.832195 8.8857756 14
7.6451077 -20.539433 -0.38307399 7
7.6352458 -37.879467 0.65121526 8
7.6298819 -37.877514 2.0019085 9
7.8877349 31.484888 3.0092809 10
7.6227555 -37.86689 3.3565183 10
7.8774624 31.479103 4.1540475 11
7.8712425 31.489859 5.3113194 12
7.6118579 -37.862793 6.0941663 12
7.8667216 31.507866 6.4840145 13
7.6042018 -37.850128 7.4816298 13
8.1160574 25.906313 -1.2680188 6
8.2474966 -18.088436 -0.34154743 7
8.215538 -37.953232 0.65626508 8
8.3699236 31.431416 0.74150175 8
8.3600788 31.426991 1.8773568 9
8.2088995 -37.945934 2.0133448 9
8.3506718 31.424334 3.0174932 10
8.2008152 -37.932014 3.3741589 10
8.1970816 -37.938389 4.7447205 11
8.1925116 -37.94109 6.1268172 12
8.1828165 -37.920269 7.5196838 13
8.1778765 -37.921841 8.9352217 14
8.6728172 22.03977 -1.0964874 6
8.7392321 -16.025053 -0.30778646 7
8.7952576 -38.022114 2.0257196 9
8.7872057 -38.009636 3.3937554 10
8.7813072 -38.006626 4.7703323 11
8.7700205 -38.003433 7.5621419 13
8.7578907 -37.974106 8.9780111 14
9.0859842 18.994961 -0.96709287 6
9.1464853 -14.246671 -0.27978197 7
8.843298 31.371149 -0.39090249 7
8.8009968 -38.024635 0.66148335 8
8.8348351 31.37162 0.74583536 8
9.3882036 16.495659 -0.86569947 6
9.4960852 -12.695611 -0.25641716 7
9.3880634 -38.078506 0.66660833 8
9.3827572 -38.078274 2.0375628 9
9.3752928 -38.069328 3.4126127 10
9.3700848 -38.069702 4.7964816 11
9.364234 -38.067642 6.1917634 12
9.3478222 -38.045067 9.0273962 14
9.8120699 -11.331143 -0.2369391 7
9.9850111 -38.14843 0.67222935 8
9.9823351 -38.158653 2.0512497 9
9.9754162 -38.152714 3.4344742 10
9.968195 -38.145714 4.8254743 11
9.9582863 -38.128613 6.2261558 12
9.9525919 -38.127865 7.6443138 13
10.077297 -10.082563 -0.21995643 7
10.312831 -8.9398508 -0.20531769 7
10.527363 -7.883358 -0.19268566 7
10.726746 -6.8956618 -0.18177497 7
10.587426 -38.21471 0.6780085 8
10.581445 -38.212772 2.0640843 9
10.576216 -38.213634 3.4552147 10
10.570375 -38.212391 4.854528 11
10.564089 -38.209709 6.2654209 12
10.555713 -38.199684 7.6901894 13
10.548723 -38.194939 9.1348133 14
10.898542 -5.9526711 -0.17209041 7
11.072599 -5.0582271 -0.16389656 7
11.199747 -38.292027 0.68421179 8
11.194419 -38.292786 2.0788896 9
11.182182 -38.269955 3.4764519 10
11.18379 -38.294659 4.8868356 11
11.172437 -38.275108 6.3037386 12
11.161254 -38.25634 7.734983 13
11.154461 -38.252892 9.1879396 14
11.218824 -4.1860828 -0.15656257 7
11.381292 -3.3439546 -0.15059039 7
11.513966 -2.507432 -0.14525078 7
11.646892 -1.6781597 -0.14088537 7
11.764423 -0.84609938 -0.13725646 7
11.995378 0.67846942 -0.13321857 7
11.803012 -38.352905 3.5010481 10
11.797529 -38.353653 4.9174728 11
11.786764 -38.337349 6.3431816 12
11.777808 -38.327133 7.7846398 13
11.772819 -38.330097 9.2480717 14
12.082189 1.5520363 -0.13178542 7
12.189305 2.4581418 -0.1315396 7
12.304521 3.4082716 -0.13240594 7
12.39549 -38.396904 9.3081493 14
12.422872 4.4144459 -0.13443059 7
12.527184 5.484035 -0.13756448 7
12.640658 6.6426592 -0.14224923 7
12.762186 7.9132957 -0.1487329 7
12.438673 -38.43951 2.1095634 9
12.418104 -38.42997 6.3893657 12
12.410303 -38.424187 7.8417292 13
12.893264 9.3265944 -0.1573884 7
13.019475 10.909421 -0.16851126 7
13.155142 12.721995 -0.18293568 7
13.072715 -38.513535 2.1258597 9
13.064698 -38.507301 3.5521386 10
13.05698 -38.502048 4.9866734 11
13.051296 -38.502937 6.4340472 12
13.039579 -38.486206 7.8938146 13
13.031507 -38.480476 9.374815 14
13.303424 14.838418 -0.20164965 7
13.452527 17.345415 -0.22582531 7
13.667014 20.482775 -0.25867906 7
13.886342 24.415806 -0.30252331 7
13.731635 -8.8367596 0.33686858 8
13.744902 -8.5701427 0.33542946 8
13.789994 -8.1937952 0.33406928 8
13.824582 -7.8180809 0.3326309 8
13.847057 -7.5718474 0.33177382 8
13.904584 -6.9708505 0.33002692 8
13.951921 -6.6242003 0.32949972 8
13.975485 -6.3924637 0.32905927 8
13.719538 -38.600197 2.1434948 9
13.710519 -38.591759 3.5798798 10
13.6969 -38.570442 5.0226116 11
13.672871 -38.554924 9.4418583 14
14.185143 29.682053 -0.36461252 7
14.018353 -6.1716084 0.32914519 8
14.045957 -5.828217 0.32855394 8
14.098387 -5.3834019 0.32836008 8
14.156178 -4.9471841 0.32855752 8
14.210001 -4.5150676 0.32892066 8
14.25353 -4.1950459 0.3294225 8
14.297787 -3.8776321 0.33009484 8
14.359505 -3.4575276 0.3312563 8
14.370679 -38.674038 2.161077 9
14.356851 -38.653328 3.6065469 10
14.347846 -38.645706 5.060885 11
14.348234 -38.663551 6.5313201 12
14.330492 -38.632671 8.0091848 13
14.310375 -38.613083 11.03422 15
14.569946 37.07077 -0.45580488 7
14.422709 -3.0401056 0.33268872 8
14.487684 -2.6244383 0.33439738 8
14.545414 -2.2082996 0.33617446 8
14.623994 -1.6893034 0.33886167 8
14.682539 -1.3784162 0.3409242 8
14.747898 -0.96116567 0.34357798 8
14.792249 -0.64666194 0.34560612 8
15.134434 48.38903 -0.60080189 7
14.816615 -0.43611735 0.34691569 8
14.862448 -0.22541566 0.34878668 8
15.030755 -38.747566 2.1793144 9
15.018293 -38.731579 3.635843 10
15.012931 -38.734005 5.1023622 11
15.003569 -38.726231 6.5797997 12
14.994848 -38.720303 8.0733023 13
14.982284 -38.704655 9.584197 14
14.973174 -38.698185 11.120932 15
15.703426 -38.82888 2.1986856 9
15.691857 -38.816082 3.6668444 10
15.682077 -38.807781 5.1434679 11
15.672856 -38.801006 6.6322756 12
15.665887 -38.799984 8.1381674 13
15.655272 -38.790142 9.6621904 14
15.64265 -38.775581 11.208701 15
16.39077 -38.920956 2.2193899 9
16.374271 -38.897263 3.6986861 10
16.363779 -38.887928 5.1869955 11
16.352533 -38.876926 6.6869564 12
16.339687 -38.86227 8.2018185 13
16.333113 -38.862762 9.7398911 14
16.322115 -38.852982 11.299829 15
17.072845 -38.97596 2.2387164 9
17.0658 -38.975094 3.7313929 10
17.055099 -38.965965 5.2318735 11
17.050541 -38.970993 6.7468538 12
17.041121 -38.965092 8.2765722 13
17.023932 -38.941601 9.8221331 14
17.011982 -38.93034 11.394401 15
17.778538 -39.06057 2.2604978 9
17.768093 -39.052578 3.7652872 10
17.766672 -39.064518 5.2812037 11
17.746462 -39.03524 6.8037353 12
17.986452 -19.680464 7.1949139 15
17.910269 -20.168148 7.2768402 15
17.740868 -39.038288 8.3476753 13
17.72666 -39.022572 9.9080057 14
17.716276 -39.015518 11.494846 15
18.374651 -20.086164 4.3612838 12
18.31797 -20.607674 4.4151807 12
18.173208 -20.451183 5.3665309 13
18.244072 -19.949631 5.3048124 13
18.300421 -19.446083 5.2419243 13
18.367552 -17.919325 5.9803548 14
18.028715 -20.294981 6.3161063 14
18.11606 -19.815918 6.2489619 14
18.175304 -19.319233 6.1756167 14
18.302135 -18.372995 6.041872 14
18.039278 -19.180773 7.1077714 15
18.106392 -18.709326 7.0302353 15
18.178146 -18.254364 6.9581661 15
18.302414 -17.358046 6.8170776 15
18.721834 -21.042673 1.523998 9
18.785828 -20.516848 1.5072603 9
18.499645 -39.153149 2.2835369 9
18.585238 -20.895493 2.4944828 10
18.65449 -20.379593 2.4665067 10
18.716242 -19.869631 2.4389334 10
18.769138 -19.364014 2.4115598 10
18.462427 -20.76379 3.4595449 11
18.510912 -20.228897 3.4161794 11
18.57719 -19.728006 3.3780913 11
18.706423 -18.7614 3.3067575 11
18.765894 -18.290941 3.2727411 11
18.494698 -39.157402 3.8030937 10
18.509174 -19.107479 4.265903 12
18.576183 -18.636488 4.2215643 12
18.637348 -18.171219 4.1780386 12
18.694113 -17.712831 4.1355977 12
18.741379 -17.256325 4.0930629 12
18.433804 -18.499367 5.1306214 13
18.504679 -18.047451 5.0800686 13
18.550228 -17.581928 5.0250893 13
18.626446 -17.155834 4.9808073 13
18.471149 -39.122322 5.3267627 11
18.427841 -17.47142 5.9201059 14
18.519882 -17.063076 5.8727512 14
18.496569 -17.047178 6.8000183 15
18.47031 -39.135494 6.8691182 12
18.453144 -39.114216 8.4220524 13
18.445549 -39.113441 9.9996071 14
18.434393 -39.105331 11.600377 15
18.970047 -9.6915741 1.1953566 9
18.959999 -9.3474369 1.1878308 9
18.972 -9.0189123 1.1820189 9
18.980654 -8.6929474 1.1763152 9
18.989231 -8.0491018 1.1652944 9
18.996361 -7.7340446 1.1604046 9
19.016062 -7.4273591 1.1565657 9
19.039015 -6.970511 1.1509538 9
19.058962 -6.5181627 1.1456987 9
19.118013 -5.7853317 1.1398512 9
19.158281 -5.3523192 1.1373198 9
19.176937 -5.0635691 1.1354657 9
18.860672 -20.016918 1.4922235 9
18.907681 -19.501059 1.4757887 9
18.975187 -19.019442 1.4617269 9
19.028597 -18.535772 1.4473075 9
19.082584 -18.064436 1.4336394 9
19.144354 -17.611317 1.4212195 9
19.189299 -17.153156 1.4081936 9
18.975172 -10.038455 1.2029215 9
18.892662 -18.408903 2.3628666 10
18.950064 -17.944393 2.3397353 10
19.016161 -17.498676 2.3187704 10
19.175316 -17.145988 2.3100498 10
18.820753 -17.827358 3.2395453 11
18.889269 -17.387197 3.2102273 11
19.169033 -17.145748 3.217808 11
19.160612 -17.143635 4.1327338 12
19.146294 -17.136295 5.0558968 13
19.145468 -17.141117 5.9949727 14
19.189495 -39.200302 6.9305725 12
19.130215 -17.133101 6.9444346 15
19.179972 -39.195717 8.5004101 13
19.174286 -39.199173 10.093225 14
19.163244 -39.191944 11.708803 15
19.228186 -4.6393323 1.134532 9
19.27449 -4.2157993 1.1337616 9
19.332674 -3.7968953 1.134254 9
19.442307 -2.9605491 1.1362833 9
19.507055 -2.5444794 1.1385888 9
19.542297 -2.2659736 1.1399534 9
19.597744 -1.9894627 1.142713 9
19.230295 -39.239799 2.3070531 9
19.221975 -39.237328 3.8398035 10
19.583431 -10.732867 3.6175759 12
19.460917 -10.669356 4.3949566 13
19.525398 -10.167294 4.3620563 13
19.593508 -9.6745348 4.3323827 13
19.342409 -10.608055 5.1745334 14
19.394047 -10.278798 5.1502786 14
19.456476 -9.7842569 5.1127596 14
19.516527 -9.2955904 5.0774045 14
19.558441 -8.9750938 5.0561242 14
19.598896 -8.6569357 5.0357757 14
19.20764 -39.222645 5.3798995 11
19.233912 -10.552277 5.9607005 15
19.278669 -10.221292 5.9304585 15
19.317284 -9.8908567 5.8999996 15
19.38726 -9.4083939 5.8612185 15
19.438877 -8.9235735 5.8200135 15
19.520548 -8.2943754 5.7744818 15
19.567949 -7.9864855 5.7558227 15
19.715391 -1.4345129 1.1492778 9
19.782415 -1.0142184 1.153563 9
19.879087 -0.59321183 1.1600158 9
19.933844 -0.3103134 1.1640478 9
19.97143 -39.321938 2.331152 9
19.829752 -17.228651 2.3610327 10
19.82745 -10.859305 2.0582778 10
19.875252 -10.519366 2.0491834 10
19.900589 -10.171674 2.0383449 10
19.944347 -9.8374109 2.0299513 10
19.98584 -9.5055132 2.0218616 10
19.827831 -9.7833414 2.7990711 11
19.86307 -9.4504461 2.7864075 11
19.929121 -8.963933 2.7707126 11
19.978941 -8.4762487 2.7541685 11
19.714231 -10.800919 2.8405521 11
19.749338 -10.456256 2.8255422 11
19.79244 -10.119872 2.8124688 11
19.817616 -17.223511 3.2871015 11
19.647472 -10.227319 3.5908165 12
19.705652 -9.7264557 3.5649848 12
19.75186 -9.400876 3.5503864 12
19.796412 -9.0776291 3.536413 12
19.846889 -8.591465 3.5143504 12
19.8937 -8.1099348 3.493428 12
19.950665 -7.8028097 3.4851396 12
19.981966 -7.4878397 3.4731915 12
19.964111 -39.321838 3.8783152 10
19.802494 -17.215809 4.2197876 12
19.628181 -9.3453627 4.3117862 13
19.671211 -9.0234985 4.2941685 13
19.72319 -8.7085733 4.2795992 13
19.770151 -8.2281752 4.2531672 13
19.836966 -7.7613797 4.2331109 13
19.871284 -7.4493432 4.2189164 13
19.802288 -17.221161 5.165751 13
19.654829 -8.1832571 5.0065722 14
19.720224 -7.7187619 4.9822593 14
19.763315 -7.4118743 4.9675121 14
19.942276 -39.293194 5.4308233 11
19.610806 -7.6790366 5.7372174 15
19.645365 -7.3706689 5.717566 15
19.776403 -17.20421 6.1171079 14
19.936459 -39.296253 6.9999051 12
19.778103 -17.211382 7.0918465 15
19.928635 -39.295513 8.5856571 13
19.919592 -39.292568 10.192257 14
19.907816 -39.284466 11.822982 15
20.18784 -7.8894954 1.9884528 10
20.239134 -7.4142704 1.9799101 10
20.05419 -9.0169859 2.0113788 10
20.112207 -8.5296555 2.0008593 10
20.024546 -8.1601954 2.7457604 11
20.071924 -7.8472056 2.73825 11
20.10232 -7.5299711 2.7290726 11
20.04591 -7.1963878 5.805325 15
20.731504 -39.415039 2.3567796 9
20.497416 -17.302011 2.4129348 10
20.489927 -17.301136 3.3593841 11
20.720959 -39.409107 3.9185033 10
20.480505 -17.29867 4.3133039 12
20.701883 -39.38702 5.4868875 11
20.466784 -17.292633 5.2762837 13
20.452463 -17.286148 6.251411 14
20.69673 -39.39156 7.0716124 12
20.443727 -17.284483 7.243495 15
20.688269 -39.389954 8.6727743 13
20.680033 -39.388962 10.295656 14
20.661524 -39.368629 11.938762 15
21.190887 -17.38147 3.4354067 11
21.190269 -17.386507 4.4122143 12
21.172384 -17.37742 5.3958602 13
21.166647 -17.378395 6.3954349 14
21.157318 -17.376501 7.4099336 15
21.507832 -39.511959 2.3835542 9
21.58424 -7.3877563 2.0980515 10
21.209808 -17.391508 2.4694331 10
21.556429 -7.3813629 2.9001453 11
21.500872 -39.513145 3.9618256 10
21.538013 -7.3782158 3.7090282 12
21.525808 -7.3772354 4.5271807 13
21.477055 -39.483391 5.5453262 11
21.489017 -7.3678427 5.3498292 14
21.599279 8.7222252 5.5508356 14
21.476458 -7.3668289 6.1904469 15
21.539665 8.6983042 6.399157 15
21.49193 9.0381985 6.4232869 15
21.527784 9.4173422 6.4741411 15
21.565434 9.8031044 6.5274744 15
21.473783 -39.491562 7.1467509 12
21.455658 -39.472542 8.7604065 13
21.449406 -39.475567 10.400194 14
21.437733 -39.468845 12.063686 15
21.943071 -17.475483 2.5276742 10
21.951351 -17.487637 3.520051 11
21.887642 8.8382559 3.9108391 12
21.923908 9.2189398 3.9410465 12
21.965858 9.6077461 3.9734228 12
21.922073 -17.469873 4.5144114 12
21.783953 9.1603889 4.76788 13
21.825945 9.5469484 4.8070016 13
21.867603 9.9394236 4.8474936 13
21.896915 10.332406 4.8867197 13
21.947849 10.742128 4.9323072 13
21.992258 11.155783 4.9780345 13
21.91102 -17.466707 5.5222321 13
21.647278 9.1032133 5.5966325 14
21.719971 9.8728313 5.687181 14
21.761808 10.269263 5.7364783 14
21.80551 10.673189 5.7880864 14
21.835752 11.077246 5.8379712 14
21.868361 11.489313 5.8903818 14
21.938099 11.928718 5.9548416 14
21.902536 -17.465672 6.5440521 14
21.607306 10.196985 6.5840993 15
21.688301 11.003297 6.702826 15
21.733183 11.419263 6.7668533 15
21.76079 11.833427 6.8277783 15
21.882196 -17.455248 7.5780702 15
22.312353 9.009141 1.4351895 9
22.347626 9.3962116 1.446558 9
22.390965 9.7924852 1.4588501 9
22.211256 8.6020727 2.2556403 10
22.206448 9.3371487 2.2825632 10
22.250341 9.7313786 2.3017023 10
22.294703 10.132031 2.3215666 10
22.340038 10.539646 2.3422325 10
22.38818 10.955453 2.3639219 10
22.297838 -39.60664 2.4111469 9
22.020199 8.8915834 3.0882058 11
22.069183 9.2797251 3.1139493 11
22.109768 9.67029 3.1394157 11
22.134401 10.05969 3.1635308 11
22.198996 10.473707 3.1943247 11
22.233585 10.880524 3.2218094 11
22.277323 11.298698 3.2516375 11
22.377663 12.164425 3.3164294 11
22.285364 -39.598297 4.0047784 10
22.000769 9.9994535 4.0057039 12
22.048603 10.403363 4.0415616 12
22.089062 10.810519 4.0773416 12
22.138844 11.229297 4.1161561 12
22.225536 12.082814 4.1955228 12
22.244532 8.6150045 4.8116398 13
22.067682 11.998087 5.0714211 13
22.266251 -39.578209 5.6056457 11
22.236551 8.6119404 5.6818457 14
22.235134 8.6114149 6.5680013 15
22.25699 -39.575768 7.2216964 12
22.244181 -39.567154 8.853941 13
22.233236 -39.562054 10.508521 14
22.226458 -39.564598 12.191715 15
22.798033 8.4570503 1.4489386 9
22.451862 10.202946 1.4727116 9
22.501371 10.615141 1.486268 9
22.549454 11.03364 1.5001842 9
22.593878 11.457555 1.5143179 9
22.693918 12.334151 1.5447956 9
22.446917 11.383862 2.3874874 10
22.520876 12.241196 2.4323323 10
22.96632 8.5193052 2.3190386 10
22.966721 8.5193796 3.184202 11
23.189526 -7.5773125 3.9763076 12
23.08482 -39.683132 4.0492616 10
22.965708 8.5189314 4.0570378 12
23.16213 -7.5717182 4.8500466 13
22.964912 8.5185642 4.9400053 13
23.081514 -39.691223 5.6707349 11
23.13682 -7.5668483 5.7345843 14
22.978832 8.5236435 5.8391852 14
23.103413 -7.55937 6.6296759 15
22.97567 8.5223961 6.7494845 15
23.067402 -39.680824 7.3032188 12
23.053936 -39.6717 8.9530916 13
23.033398 -39.650558 10.621336 14
23.022556 -39.646355 12.320014 15
23.245575 -7.5889969 2.2506087 10
23.203547 -7.5785565 3.1087368 11
23.751165 8.4264946 2.3851483 10
23.751329 8.4263849 3.2752423 11
23.912739 -39.789021 4.0975304 10
23.755606 8.4277277 4.1741862 12
23.772617 8.4335785 5.0866346 13
23.896151 -39.775055 5.7339206 11
23.746443 8.4241323 6.0023746 14
23.759119 8.428443 6.9428892 15
23.890278 -39.779037 7.3863792 12
23.870024 -39.759209 9.0519085 13
23.860846 -39.758018 10.743384 14
23.842976 -39.742569 12.457556 15
24.576757 8.3260965 2.4550593 10
24.587706 8.3295279 3.3730438 11
24.747013 -39.877174 4.1456819 10
24.581499 8.3271551 4.2972054 12
24.602797 8.3340807 5.2375131 13
24.731262 -39.865303 5.8003578 11
24.590767 8.3297319 6.1843519 14
24.591692 8.3297577 7.1499524 15
24.727062 -39.872185 7.4715958 12
24.709042 -39.856911 9.1566782 13
24.696077 -39.849983 10.865576 14
24.683655 -39.844143 12.601784 15
25.460253 8.2218637 2.530457 10
25.473383 8.2257185 3.4772263 11
25.465685 8.2228556 4.4299636 12
25.475334 8.2255793 5.396883 13
25.599426 -39.979828 5.8727803 11
25.47525 8.2251606 6.3757892 14
25.57682 -39.958054 7.5585361 12
25.569761 -39.960724 9.2666655 13
25.551991 -39.946827 10.993569 14
25.539425 -39.941288 12.749804 15
25.856445 60.702286 1.5552536 8
25.96579 60.996574 3.8796978 9
25.61418 -39.989445 4.1981196 10
26.082985 61.309826 6.2375302 10
26.19619 61.614342 8.6330061 11
26.312357 61.926521 11.074277 12
26.490471 -40.086411 4.250814 10
26.481472 -40.086136 5.9465752 11
26.463367 -40.072174 7.6540728 12
26.442352 -40.053947 9.3781519 13
26.433807 -40.05479 11.129314 14
26.409054 -40.031284 12.900915 15
27.186447 61.381351 1.5870833 8
27.30674 61.68932 3.9528532 9
27.398317 -40.20113 4.3073311 10
27.377542 -40.183895 6.0217633 11
27.435303 62.016499 6.3533978 10
27.366684 -40.181335 7.7520895 12
27.554173 62.322376 8.7912941 11
27.350216 -40.170689 9.4992867 13
27.333677 -40.160091 11.269229 14
27.324614 -40.160709 13.070427 15
27.684908 62.655807 11.279202 12
28.570143 62.097958 1.6206 8
28.692989 62.400211 4.0288992 9
