# .PCD v0.7 - Point Cloud Data file format
VERSION 0.7
FIELDS x y z intensity
SIZE 4 4 4 4
TYPE F F F F
COUNT 1 1 1 1
WIDTH 1334
HEIGHT 1
VIEWPOINT 0 0 0 1 0 0 0
POINTS 1334
DATA ascii
0.75933224 -2.8403225 -0.31058398 0
0.85091329 -2.8532434 -0.31167042 0
0.94545132 -2.8674781 -0.31187126 0
1.0500991 -2.839231 -0.31318328 0
1.1372046 -2.8236256 -0.31443346 0
1.2516432 -2.8680623 -0.31375337 0
1.3378023 -2.8407898 -0.31547433 0
1.4431436 -2.8498592 -0.31624973 0
1.5487705 -2.8529792 -0.31644386 0
1.6391853 -2.8393614 -0.31713012 0
1.7239459 -2.8739748 -0.31804186 0
1.8490682 -2.8465667 -0.31753933 0
2.1042707 -2.8659735 -0.31955811 0
-1.1351159 -2.7061272 -0.30005342 0
-0.93851596 -2.7797625 -0.30020106 0
-0.87167859 -2.7091279 -0.30069482 0
-0.75519484 -2.746232 -0.30099878 0
-0.65682888 -2.7731333 -0.30119193 0
-0.54627109 -2.7379818 -0.30261326 0
-0.44446209 -2.7366049 -0.30384493 0
-0.34616759 -2.7496812 -0.30396733 0
-0.24837881 -2.7698128 -0.30502868 0
-0.13846929 -2.7593277 -0.30588862 0
-0.049774714 -2.7814541 -0.30588603 0
0.048735857 -2.7389536 -0.30803695 0
0.14967379 -2.7856417 -0.30686295 0
0.2382843 -2.7652783 -0.30785221 0
0.35055745 -2.7846115 -0.30900568 0
0.45090866 -2.7757971 -0.30956897 0
0.55134326 -2.7653892 -0.31070933 0
0.65229964 -2.7539587 -0.31168255 0
0.75120604 -2.7313266 -0.31200886 0
0.84280372 -2.7530236 -0.31219611 0
0.95818466 -2.7723835 -0.31317148 0
1.0613376 -2.7481484 -0.31440842 0
1.1591415 -2.7447491 -0.31474456 0
1.2571661 -2.7718406 -0.31535357 0
1.3401129 -2.7432065 -0.31632501 0
1.4462277 -2.7411137 -0.31753758 0
1.5429401 -2.7475777 -0.31716311 0
1.6535047 -2.7414198 -0.31907597 0
1.7748352 -2.7322879 -0.31832027 0
1.996667 -2.7194197 -0.32063508 0
2.0504689 -2.7926965 -0.32009661 0
-1.1182016 -2.6132569 -0.30077142 0
-1.0445278 -2.6481175 -0.30054915 0
-0.94786447 -2.6802642 -0.30092564 0
-0.84268612 -2.6188574 -0.30159748 0
-0.74998188 -2.6527088 -0.30191028 0
-0.65551418 -2.6817894 -0.30246353 0
-0.56411242 -2.6324229 -0.30343562 0
-0.44850659 -2.6420877 -0.30470416 0
-0.35402155 -2.658443 -0.30506992 0
-0.25916213 -2.6750963 -0.30575833 0
-0.14314488 -2.6584148 -0.30676922 0
-0.053841565 -2.6617625 -0.30702427 0
0.037675299 -2.6373429 -0.30875733 0
0.15325645 -2.6427701 -0.30837411 0
0.25675955 -2.6495008 -0.30895859 0
0.34627694 -2.6572869 -0.31008187 0
0.444998 -2.6586266 -0.31100845 0
0.55345178 -2.6757157 -0.31171468 0
0.65072477 -2.6623292 -0.31269598 0
0.74697024 -2.641793 -0.31320557 0
0.85388196 -2.6536264 -0.31300533 0
0.932612 -2.6569169 -0.31429747 0
1.0492754 -2.6599691 -0.3155897 0
1.1618639 -2.6447537 -0.31555238 0
1.2604831 -2.6765985 -0.31655097 0
1.3406347 -2.6474226 -0.31761324 0
1.4408536 -2.6535168 -0.31800085 0
1.5406344 -2.6537292 -0.31849954 0
1.6049666 -2.6327875 -0.32011375 0
1.7253466 -2.6561022 -0.31884092 0
1.9428653 -2.6461427 -0.32117355 0
-1.3581576 -2.5017812 -0.30036679 0
-1.2881362 -2.5438519 -0.30087304 0
-1.1390001 -2.5431163 -0.30130133 0
-1.0481071 -2.549736 -0.30192113 0
-0.95512009 -2.5825298 -0.30182812 0
-0.85218596 -2.5241272 -0.30297968 0
-0.74257714 -2.5567739 -0.30265364 0
-0.63898081 -2.5604312 -0.30382609 0
-0.54101163 -2.5246499 -0.30493239 0
-0.45134389 -2.547987 -0.30555987 0
-0.3606905 -2.5678349 -0.30625975 0
-0.23309937 -2.5552869 -0.30779415 0
-0.14616038 -2.5476379 -0.30730882 0
-0.058057208 -2.5272362 -0.30872703 0
0.045318875 -2.5250642 -0.31068686 0
0.15339154 -2.5175912 -0.30971527 0
0.26210317 -2.5163963 -0.31066683 0
0.35870928 -2.5268059 -0.31100786 0
0.45295975 -2.5297432 -0.31260261 0
0.55377322 -2.5838618 -0.31256908 0
0.64654195 -2.5656779 -0.31302613 0
0.75938302 -2.5467012 -0.31440428 0
0.85212117 -2.5237422 -0.31524631 0
0.95578384 -2.5842068 -0.31490812 0
1.0529091 -2.5614128 -0.31639883 0
1.1447365 -2.5239539 -0.31695017 0
1.231341 -2.5668993 -0.31743234 0
1.357234 -2.5433645 -0.31880656 0
1.4455338 -2.5600951 -0.31834984 0
1.5370241 -2.5623524 -0.32015541 0
1.6511135 -2.5418234 -0.31962186 0
1.8890634 -2.5728657 -0.32171205 0
-1.3519276 -2.4343421 -0.30110103 0
-1.2427047 -2.454133 -0.30118662 0
-1.1364878 -2.4432781 -0.30224454 0
-1.0475092 -2.4480491 -0.30282947 0
-0.95236027 -2.4659834 -0.30326891 0
-0.85797381 -2.4260788 -0.30394363 0
-0.75344706 -2.4621007 -0.30401817 0
-0.6459493 -2.4511242 -0.30516255 0
-0.55553532 -2.4224842 -0.30568436 0
-0.4521338 -2.4501841 -0.30682558 0
-0.34737983 -2.4731019 -0.30745089 0
-0.25089517 -2.4828682 -0.30769092 0
-0.15446143 -2.4751954 -0.30803958 0
-0.061328933 -2.4487267 -0.30964494 0
0.04373733 -2.4447961 -0.31122902 0
0.14913511 -2.4481149 -0.31042385 0
0.25487772 -2.4471357 -0.31141219 0
0.3507036 -2.4550071 -0.31179982 0
0.43506923 -2.4561918 -0.31329387 0
0.55068743 -2.4824791 -0.3140552 0
0.64505976 -2.4534607 -0.31374583 0
0.73516655 -2.4496231 -0.31517079 0
0.83984965 -2.4300067 -0.31570587 0
0.94764721 -2.4369953 -0.31716207 0
1.054111 -2.4635103 -0.31724259 0
1.1623079 -2.422965 -0.31830797 0
1.2515295 -2.4572239 -0.31910503 0
1.3494068 -2.4438694 -0.31938705 0
1.4524416 -2.434778 -0.32086506 0
1.5436349 -2.4525938 -0.32079983 0
1.7814598 -2.426312 -0.32278901 0
1.8352616 -2.4995887 -0.32225052 0
-1.5615243 -2.3421223 -0.30081943 0
-1.4437008 -2.3305907 -0.30029455 0
-1.3409449 -2.347821 -0.30166221 0
-1.2378068 -2.3600807 -0.30276588 0
-1.1529951 -2.3321197 -0.30316386 0
-1.063399 -2.3446381 -0.30391705 0
-0.95507097 -2.3468287 -0.30501235 0
-0.86007905 -2.3254695 -0.30507764 0
-0.75884813 -2.3583121 -0.30477479 0
-0.65931416 -2.3801086 -0.30584812 0
-0.5473454 -2.3475866 -0.30649588 0
-0.43450749 -2.3547144 -0.30794364 0
-0.3340795 -2.37848 -0.30866686 0
-0.25346124 -2.3375487 -0.30924061 0
-0.1667414 -2.3480124 -0.31007141 0
-0.058166388 -2.3226373 -0.31103295 0
0.041635126 -2.3276222 -0.31233278 0
0.1414575 -2.322073 -0.31171268 0
0.24179739 -2.3215384 -0.31276479 0
0.34683046 -2.3467748 -0.31336743 0
0.45273539 -2.3568566 -0.31426597 0
0.56063074 -2.366827 -0.31517693 0
0.64571458 -2.3477435 -0.31550342 0
0.74654788 -2.348377 -0.31596351 0
0.8435564 -2.3527081 -0.316753 0
0.94750124 -2.3527062 -0.31846136 0
1.0467114 -2.3523474 -0.31783545 0
1.1513302 -2.3262429 -0.31961182 0
1.2470673 -2.3368635 -0.32127702 0
1.3396453 -2.3459489 -0.32008401 0
1.4158121 -2.3224983 -0.32227984 0
1.5273919 -2.3513589 -0.32092348 0
1.727658 -2.353035 -0.32332748 0
-1.7294641 -2.2524991 -0.30009601 0
-1.6260719 -2.2147057 -0.30082375 0
-1.560161 -2.2576268 -0.30081847 0
-1.4500186 -2.2321336 -0.30238938 0
-1.364316 -2.2745495 -0.30146536 0
-1.259243 -2.2425621 -0.3036193 0
-1.141322 -2.2335947 -0.30535907 0
-1.0556108 -2.2417412 -0.30500248 0
-0.96782798 -2.2810237 -0.30507845 0
-0.8601622 -2.2272961 -0.30655664 0
-0.76242805 -2.258235 -0.30623242 0
-0.64925814 -2.2588537 -0.3066389 0
-0.54709691 -2.2379975 -0.30801269 0
-0.45210388 -2.2671962 -0.30849406 0
-0.34867716 -2.2483211 -0.31018046 0
-0.24731065 -2.2202294 -0.3107498 0
-0.1519382 -2.2320998 -0.31145251 0
-0.056058031 -2.2385778 -0.31195828 0
0.040121682 -2.2433071 -0.31307805 0
0.1363391 -2.238045 -0.31257188 0
0.24900466 -2.2355103 -0.31368673 0
0.36295071 -2.2341774 -0.31545734 0
0.45691633 -2.2418351 -0.31491405 0
0.53622198 -2.2637866 -0.31602407 0
0.64099395 -2.2668238 -0.31670126 0
0.73850554 -2.2399244 -0.31702143 0
0.84321886 -2.2307458 -0.31810123 0
0.93276477 -2.2690361 -0.31867436 0
1.0506244 -2.2311604 -0.31974959 0
1.1485298 -2.2681804 -0.3199932 0
1.2583514 -2.2567675 -0.32034782 0
1.3597417 -2.2449024 -0.32227743 0
1.4779032 -2.2751729 -0.32144409 0
1.6469553 -2.2431195 -0.32413518 0
-2.0530286 -2.1202388 -0.3001444 0
-1.8444434 -2.1681943 -0.3004182 0
-1.736509 -2.1322875 -0.3009015 0
-1.6474904 -2.1457345 -0.30179155 0
-1.5570132 -2.152745 -0.30191958 0
-1.452517 -2.1562567 -0.30312711 0
-1.3491898 -2.1780233 -0.30248645 0
-1.2421271 -2.1397364 -0.30432194 0
-1.1563674 -2.1719897 -0.30488729 0
-1.0480592 -2.1452119 -0.30629453 0
-0.94729793 -2.1707456 -0.30671799 0
-0.86090833 -2.1378598 -0.30768764 0
-0.7431078 -2.1598728 -0.30751571 0
-0.65485507 -2.1399319 -0.30783972 0
-0.55747265 -2.1471205 -0.30854443 0
-0.44547924 -2.1538393 -0.31002203 0
-0.35896656 -2.1148236 -0.31120104 0
-0.25323606 -2.1345954 -0.31178555 0
-0.146231 -2.1483161 -0.3124572 0
-0.053949665 -2.1545184 -0.31288365 0
0.038608234 -2.1589921 -0.31382325 0
0.14674872 -2.1543822 -0.3136481 0
0.25513008 -2.1505854 -0.31463623 0
0.34946445 -2.1511431 -0.31648764 0
0.43975922 -2.1257849 -0.31589457 0
0.55340338 -2.1434791 -0.31693107 0
0.6450122 -2.16295 -0.31843165 0
0.74406713 -2.1527433 -0.31833231 0
0.85210598 -2.1372013 -0.31941873 0
0.94789106 -2.1464019 -0.3202025 0
1.0579008 -2.1269348 -0.32071611 0
1.1594262 -2.1724904 -0.32107651 0
1.2641634 -2.1421707 -0.32197481 0
1.3410945 -2.153579 -0.32298055 0
1.4366002 -2.1662714 -0.32320982 0
1.552573 -2.1400533 -0.32466665 0
-2.0101335 -2.0173469 -0.30080289 0
-1.9907848 -2.0559573 -0.30160439 0
-1.8274868 -2.0572233 -0.30132577 0
-1.7283161 -2.0316834 -0.30296525 0
-1.6590452 -2.0673852 -0.30122316 0
-1.549037 -2.0477102 -0.30312169 0
-1.4402882 -2.0320115 -0.30397007 0
-1.3471683 -2.0738888 -0.30419144 0
-1.2548676 -2.0256617 -0.3049325 0
-1.1583411 -2.0627754 -0.30645114 0
-1.0537246 -2.0446007 -0.30716345 0
-0.94679576 -2.0484791 -0.30778906 0
-0.84495616 -2.0555403 -0.30880216 0
-0.74709457 -2.0426798 -0.30880094 0
-0.65367055 -2.031462 -0.30928981 0
-0.551368 -2.0627077 -0.30969453 0
-0.43766844 -2.0406907 -0.31151125 0
-0.34491572 -2.0320656 -0.31218886 0
-0.2582036 -2.0512264 -0.31306159 0
-0.15509705 -2.0612919 -0.31315833 0
-0.0518413 -2.0704587 -0.31380898 0
0.051883847 -2.0729251 -0.3143369 0
0.15595612 -2.0713103 -0.31480917 0
0.245205 -2.066931 -0.3154901 0
0.34981024 -2.0607326 -0.31689331 0
0.45298836 -2.0422628 -0.31733099 0
0.54600859 -2.0424037 -0.3173129 0
0.64312214 -2.0480533 -0.31872046 0
0.74635702 -2.0634115 -0.31935677 0
0.83602363 -2.03369 -0.32031783 0
0.94713062 -2.0484903 -0.32185388 0
1.0488452 -2.0349705 -0.32135105 0
1.1424288 -2.0552266 -0.32203203 0
1.2422204 -2.0374997 -0.3229526 0
1.3494072 -2.0555675 -0.3238667 0
1.4550071 -2.0422654 -0.32455739 0
1.5595866 -2.0614972 -0.32550818 0
1.650333 -2.0564351 -0.32587785 0
1.7454 -2.0222211 -0.32800126 0
-2.0652049 -1.9571191 -0.30077597 0
-1.9469465 -1.954115 -0.30207956 0
-1.8537064 -1.9513683 -0.3020854 0
-1.7510118 -1.9519367 -0.30171305 0
-1.6518296 -1.9700183 -0.30348954 0
-1.5444241 -1.9321876 -0.30416644 0
-1.4583181 -1.9685185 -0.30451107 0
-1.353606 -1.9587005 -0.30573636 0
-1.2395531 -1.9385138 -0.30673945 0
-1.1477123 -1.955202 -0.30653256 0
-1.0444221 -1.9571596 -0.30847079 0
-0.94658881 -1.9375401 -0.30917081 0
-0.85441178 -1.9579076 -0.30967617 0
-0.74715388 -1.955006 -0.31011754 0
-0.65511847 -1.9403924 -0.31013346 0
-0.55797279 -1.973809 -0.3105939 0
-0.4581508 -1.9344339 -0.31206176 0
-0.34679344 -1.936201 -0.31314114 0
-0.25123262 -1.9509611 -0.31430456 0
-0.14799057 -1.9668909 -0.3142902 0
-0.049441751 -1.9741302 -0.31487229 0
0.049477402 -1.9761572 -0.31525049 0
0.14859769 -1.9735116 -0.31579673 0
0.24812804 -1.9703484 -0.31685925 0
0.35239059 -1.9574394 -0.31784615 0
0.45009673 -1.9454919 -0.31826115 0
0.54900146 -1.9414139 -0.31956914 0
0.65232688 -1.9318907 -0.32017165 0
0.74622607 -1.9741508 -0.32021773 0
0.84907508 -1.9453112 -0.32206482 0
0.95329839 -1.963003 -0.32224208 0
1.0391641 -1.947117 -0.32199827 0
1.1535488 -1.9539661 -0.32281139 0
1.2621261 -1.9429809 -0.3248674 0
1.3518951 -1.9562758 -0.32491925 0
1.4568428 -1.9256746 -0.3265121 0
1.5528919 -1.9636323 -0.32652962 0
1.6505598 -1.9593382 -0.32736552 0
1.7505283 -1.9422848 -0.32782349 0
1.8432184 -1.9308654 -0.32778302 0
-2.3273573 -1.800228 -0.30032012 0
-2.2252235 -1.8526201 -0.30037248 0
-2.1502512 -1.86927 -0.30108371 0
-2.0424669 -1.8541086 -0.30217794 0
-1.9349176 -1.8336388 -0.30303341 0
-1.8359305 -1.8600473 -0.30453864 0
-1.7436171 -1.8798525 -0.30272967 0
-1.643363 -1.849902 -0.30440867 0
-1.5430641 -1.8404319 -0.30579048 0
-1.4429349 -1.8607699 -0.30603108 0
-1.34553 -1.8604647 -0.30644625 0
-1.255855 -1.8453634 -0.30724189 0
-1.1563544 -1.8666458 -0.30785185 0
-1.0569321 -1.8511105 -0.30899701 0
-0.9541266 -1.8403473 -0.30939186 0
-0.86031342 -1.8615059 -0.31048128 0
-0.74842852 -1.832901 -0.31198803 0
-0.64201593 -1.8461677 -0.31119898 0
-0.55013406 -1.8741131 -0.31131598 0
-0.44082728 -1.8610773 -0.31288835 0
-0.35122281 -1.8297815 -0.3144587 0
-0.24620619 -1.8480926 -0.31511158 0
-0.14058831 -1.8684921 -0.31574219 0
-0.046918247 -1.8719815 -0.31604612 0
0.046949521 -1.8734692 -0.3163991 0
0.15390426 -1.8658367 -0.31666881 0
0.24886025 -1.8684763 -0.31834328 0
0.34213343 -1.8544681 -0.31883895 0
0.44827569 -1.8340346 -0.3191016 0
0.55175751 -1.8508656 -0.32043403 0
0.65358245 -1.8564268 -0.32129046 0
0.74595505 -1.8654581 -0.32100618 0
0.8400805 -1.8560061 -0.32371315 0
0.94049156 -1.842935 -0.32182407 0
1.055059 -1.8478132 -0.32311365 0
1.1467401 -1.8514718 -0.32423654 0
1.2544986 -1.8434336 -0.32540691 0
1.3473953 -1.8537751 -0.32597601 0
1.4341563 -1.8403934 -0.32751432 0
1.5411134 -1.8650541 -0.32762289 0
1.6446441 -1.8600335 -0.32876047 0
1.7461125 -1.8466644 -0.32772717 0
1.8509922 -1.8312086 -0.32997504 0
1.9402599 -1.8653224 -0.33075088 0
2.001996 -1.8173573 -0.33207625 0
-2.3674481 -1.7513258 -0.30076337 0
-2.2536952 -1.7431493 -0.30128863 0
-2.1315641 -1.7486349 -0.30199003 0
-2.0298147 -1.7392713 -0.30371857 0
-1.9347888 -1.7478138 -0.30396837 0
-1.8299005 -1.7468848 -0.3045944 0
-1.7516859 -1.7581172 -0.30574852 0
-1.6590544 -1.7631633 -0.30511391 0
-1.5367117 -1.7463093 -0.30606067 0
-1.4473056 -1.7771982 -0.30615366 0
-1.3582771 -1.7430696 -0.30715173 0
-1.2578839 -1.7565479 -0.30863538 0
-1.1500573 -1.7537762 -0.30930799 0
-1.0413584 -1.7646551 -0.31012851 0
-0.94246548 -1.7358732 -0.31083593 0
-0.85404509 -1.7589264 -0.3116073 0
-0.76152641 -1.7618775 -0.31250221 0
-0.65726244 -1.7384647 -0.31292278 0
-0.55506915 -1.7597977 -0.3133831 0
-0.4668335 -1.7465363 -0.31386775 0
-0.36136997 -1.7475228 -0.31487715 0
-0.26144022 -1.769526 -0.31592727 0
-0.15177867 -1.7525874 -0.31678993 0
-0.056626886 -1.756381 -0.31761503 0
0.0440371 -1.7569906 -0.31771138 0
0.14428182 -1.7492024 -0.31756288 0
0.24639559 -1.7536099 -0.32010931 0
0.34300178 -1.7583345 -0.31983247 0
0.4550558 -1.7525234 -0.3202506 0
0.55775213 -1.7330322 -0.32213259 0
0.66349262 -1.7429906 -0.32258871 0
0.7615512 -1.7452142 -0.32326013 0
0.85022545 -1.759787 -0.32362926 0
0.96120685 -1.7704459 -0.32340503 0
1.0467831 -1.7449942 -0.32394969 0
1.1476827 -1.7338574 -0.32655764 0
1.2451009 -1.7476012 -0.32606462 0
1.3429297 -1.748981 -0.32819137 0
1.4459558 -1.7498981 -0.32822511 0
1.5536442 -1.7487777 -0.32892847 0
1.6495386 -1.7783395 -0.32837647 0
1.7465895 -1.7528462 -0.33047286 0
1.8451385 -1.7236986 -0.33114251 0
1.9326748 -1.754464 -0.33215019 0
2.0444913 -1.7620602 -0.33203262 0
2.1097441 -1.7055206 -0.3331016 0
-2.5663972 -1.6282221 -0.30057755 0
-2.444243 -1.6505417 -0.30115458 0
-2.3306367 -1.6478386 -0.30181503 0
-2.2230937 -1.6445402 -0.30304521 0
-2.1467116 -1.6443542 -0.30359039 0
-2.0508592 -1.6500683 -0.30301699 0
-1.9461086 -1.6435747 -0.30543858 0
-1.8492745 -1.6547754 -0.30583075 0
-1.7419841 -1.6509012 -0.30615303 0
-1.6374038 -1.6433139 -0.30732632 0
-1.553908 -1.6674362 -0.30719948 0
-1.4584324 -1.6655035 -0.30782562 0
-1.3439175 -1.6503494 -0.30862719 0
-1.2339506 -1.6556103 -0.30926946 0
-1.1461465 -1.646116 -0.31052113 0
-1.0531008 -1.6512476 -0.31109318 0
-0.95744669 -1.6726071 -0.31154841 0
-0.85010958 -1.6494455 -0.31263146 0
-0.74740922 -1.6602749 -0.31299841 0
-0.65516865 -1.6605753 -0.31456846 0
-0.55350339 -1.6527222 -0.31465653 0
-0.45186487 -1.6434886 -0.31527764 0
-0.33679673 -1.6478342 -0.31627882 0
-0.25027889 -1.6367753 -0.31737021 0
-0.15049364 -1.6344606 -0.31740487 0
-0.04945353 -1.6313132 -0.31904703 0
0.050856549 -1.6302128 -0.31898302 0
0.15672968 -1.6301537 -0.31909162 0
0.25379276 -1.6363475 -0.3219173 0
0.34717634 -1.6356896 -0.32072261 0
0.44743434 -1.6738307 -0.32107523 0
0.55930132 -1.6561728 -0.32371709 0
0.64685732 -1.6397202 -0.32296148 0
0.74576008 -1.650183 -0.32419932 0
0.86114645 -1.6417375 -0.32358584 0
0.95994198 -1.6535609 -0.32434714 0
1.0590144 -1.6561667 -0.32709211 0
1.1648092 -1.6599282 -0.32616556 0
1.2513548 -1.6540295 -0.32851991 0
1.3303372 -1.6336478 -0.32903665 0
1.4422522 -1.6470463 -0.32949206 0
1.5461611 -1.6431122 -0.32957751 0
1.6554229 -1.6612939 -0.33009237 0
1.7518369 -1.6525046 -0.33103848 0
1.8410463 -1.6393603 -0.33232734 0
1.9486303 -1.6537942 -0.33152208 0
2.0499203 -1.6571624 -0.33294034 0
2.161082 -1.646945 -0.33444294 0
-2.8628881 -1.5146492 -0.30026585 0
-2.7287631 -1.5452678 -0.30031717 0
-2.6428456 -1.5216479 -0.30123588 0
-2.5151923 -1.5209669 -0.30048433 0
-2.4422061 -1.5411006 -0.30221665 0
-2.3433788 -1.5423349 -0.30359617 0
-2.249316 -1.5585322 -0.30348852 0
-2.1710644 -1.5584829 -0.3038795 0
-2.0669677 -1.5520376 -0.30522093 0
-1.9424452 -1.5474101 -0.3054412 0
-1.8469931 -1.5449047 -0.30684739 0
-1.7532752 -1.5464324 -0.30682358 0
-1.6529274 -1.5514144 -0.30764052 0
-1.5484442 -1.5540317 -0.30858985 0
-1.4439852 -1.5524052 -0.30980566 0
-1.3480109 -1.5393924 -0.30984086 0
-1.2356137 -1.5377221 -0.31027639 0
-1.15575 -1.5613103 -0.31055939 0
-1.050527 -1.5505621 -0.31181175 0
-0.94397235 -1.5488089 -0.31283548 0
-0.84784889 -1.5619891 -0.31358758 0
-0.75167018 -1.546792 -0.31390828 0
-0.63711071 -1.550015 -0.31767073 0
-0.54288429 -1.5349387 -0.31583595 0
-0.44329822 -1.5519513 -0.31615639 0
-0.35732561 -1.5785143 -0.31704423 0
-0.25092936 -1.5451062 -0.31839728 0
-0.15028372 -1.5503399 -0.3177796 0
-0.056688972 -1.5471959 -0.31999534 0
0.053554256 -1.5455812 -0.3199406 0
0.15274048 -1.5587858 -0.31969994 0
0.24711749 -1.552336 -0.32185644 0
0.34313306 -1.5641485 -0.32115075 0
0.45074245 -1.5819905 -0.32161331 0
0.55626589 -1.5595987 -0.32493603 0
0.65418386 -1.5337242 -0.32383993 0
0.75267482 -1.5498415 -0.32454088 0
0.85866278 -1.5291588 -0.32517874 0
0.93922406 -1.5607522 -0.32564992 0
1.0447524 -1.5493301 -0.32628697 0
1.152808 -1.5465848 -0.32824945 0
1.239888 -1.563394 -0.3291533 0
1.358303 -1.5560362 -0.32970178 0
1.4502286 -1.5412627 -0.33051142 0
1.546648 -1.5301081 -0.33086753 0
1.6446934 -1.5585914 -0.33150759 0
1.764185 -1.5560616 -0.33193162 0
1.8613784 -1.5493152 -0.33221298 0
1.9600226 -1.5539293 -0.3334634 0
2.0481327 -1.545626 -0.33414364 0
2.1301713 -1.5523479 -0.33501476 0
2.2419174 -1.5474679 -0.3349281 0
-2.7437344 -1.4516094 -0.30197993 0
-2.6699374 -1.4618523 -0.30127779 0
-2.5737057 -1.4574503 -0.30238023 0
-2.4709051 -1.4461805 -0.3029047 0
-2.3682511 -1.4320278 -0.30355462 0
-2.2541561 -1.4528786 -0.3049635 0
-2.1467531 -1.4496406 -0.30589247 0
-2.0342586 -1.4382915 -0.30645347 0
-1.9625992 -1.4650947 -0.30704623 0
-1.8486005 -1.4511589 -0.30726472 0
-1.7520748 -1.4513594 -0.30825564 0
-1.6572756 -1.4618142 -0.30808666 0
-1.5552051 -1.4528748 -0.30881673 0
-1.4537296 -1.4382781 -0.3098236 0
-1.3326117 -1.4366791 -0.31181201 0
-1.2605454 -1.4604355 -0.31124267 0
-1.1478121 -1.4514459 -0.31164268 0
-1.0527742 -1.433975 -0.31362078 0
-0.95317078 -1.4442623 -0.31275895 0
-0.85162389 -1.46697 -0.31393251 0
-0.75023508 -1.4344621 -0.31594732 0
-0.66265303 -1.4611917 -0.31493238 0
-0.55444539 -1.4494456 -0.31691307 0
-0.43988061 -1.4494265 -0.31803855 0
-0.34918934 -1.4490954 -0.31888819 0
-0.25321525 -1.4480553 -0.31934837 0
-0.15036637 -1.443615 -0.31819093 0
-0.05095458 -1.4423569 -0.32113579 0
0.035057105 -1.4458641 -0.32165265 0
0.15136674 -1.4543216 -0.32060188 0
0.25693387 -1.4502162 -0.32288775 0
0.35725015 -1.4613554 -0.32206592 0
0.44574782 -1.4563286 -0.32516164 0
0.54298031 -1.4465736 -0.32557404 0
0.65293533 -1.4517013 -0.32473308 0
0.75747204 -1.4695796 -0.32499731 0
0.83945388 -1.4396222 -0.32599762 0
0.94036233 -1.4473156 -0.32775956 0
1.0662013 -1.4451522 -0.32830369 0
1.1494632 -1.4534957 -0.32929197 0
1.2505207 -1.452934 -0.3294366 0
1.3584517 -1.45635 -0.3307249 0
1.4601648 -1.456599 -0.33102542 0
1.5409719 -1.439559 -0.33206555 0
1.65711 -1.444865 -0.33203152 0
1.7556753 -1.4401561 -0.33249068 0
1.8534254 -1.454909 -0.33290651 0
1.9601344 -1.4499197 -0.33491644 0
2.0732374 -1.4659351 -0.33416122 0
2.1496952 -1.4519792 -0.33555907 0
2.2420297 -1.4527594 -0.33648714 0
2.329756 -1.4407794 -0.33684334 0
-3.0459313 -1.3422382 -0.30038345 0
-2.9497733 -1.3251163 -0.30100799 0
-2.8344879 -1.3472199 -0.30088568 0
-2.7352822 -1.3484184 -0.30137712 0
-2.6391141 -1.348327 -0.30287996 0
-2.5386493 -1.3430573 -0.30389988 0
-2.4397738 -1.3357884 -0.30502883 0
-2.3315666 -1.3424222 -0.30594307 0
-2.2451754 -1.3431925 -0.30511692 0
-2.1273227 -1.3452752 -0.3066439 0
-2.0770171 -1.3529068 -0.30785191 0
-1.9621037 -1.3456116 -0.30848184 0
-1.8516506 -1.3492774 -0.30896384 0
-1.7574106 -1.3594145 -0.3090086 0
-1.6492932 -1.3527136 -0.30950367 0
-1.5432376 -1.3415704 -0.30985346 0
-1.4288658 -1.3348539 -0.31055608 0
-1.3621508 -1.3670717 -0.31132701 0
-1.2633163 -1.3620343 -0.31300005 0
-1.1618795 -1.3461987 -0.31350175 0
-1.0449207 -1.3541161 -0.31372872 0
-0.94713199 -1.3377196 -0.31544322 0
-0.85376441 -1.3637789 -0.31454435 0
-0.75716251 -1.3483381 -0.31579369 0
-0.6356898 -1.3570427 -0.3164525 0
-0.5418793 -1.3454515 -0.31788796 0
-0.43525633 -1.3393314 -0.31836024 0
-0.34610227 -1.3398095 -0.32079199 0
-0.24511275 -1.3523198 -0.32044154 0
-0.15116066 -1.3567289 -0.31939656 0
-0.055078715 -1.365831 -0.32048225 0
0.047042545 -1.3721018 -0.32180357 0
0.14536965 -1.3639076 -0.32141694 0
0.24827281 -1.3597809 -0.32373953 0
0.34203261 -1.3443934 -0.32348374 0
0.44485703 -1.3492708 -0.32675055 0
0.53442532 -1.3394004 -0.32671663 0
0.65198499 -1.3507863 -0.32621086 0
0.7448737 -1.3551719 -0.32714772 0
0.85946316 -1.3440691 -0.32854408 0
0.95451927 -1.3623023 -0.32683668 0
1.0397837 -1.334352 -0.32968357 0
1.1488919 -1.3505186 -0.32931265 0
1.2469945 -1.3599045 -0.33076057 0
1.3485358 -1.3533577 -0.33185458 0
1.4414275 -1.3465395 -0.33247185 0
1.5572107 -1.3537583 -0.33185688 0
1.6375176 -1.3392832 -0.33238178 0
1.7453831 -1.3300819 -0.33402848 0
1.8372132 -1.3589598 -0.33466995 0
1.9600093 -1.3440179 -0.33544129 0
2.0517383 -1.364158 -0.33556169 0
2.1807072 -1.3400644 -0.33705071 0
2.2771246 -1.3548566 -0.33813778 0
2.3767872 -1.3684089 -0.33839837 0
2.417763 -1.3237668 -0.33845589 0
-3.1586759 -1.2500108 -0.30025104 0
-3.0566044 -1.2180514 -0.301355 0
-2.9788408 -1.2620757 -0.30076823 0
-2.8885701 -1.2482991 -0.30206019 0
-2.785506 -1.2513208 -0.30291003 0
-2.6808779 -1.2507656 -0.30303046 0
-2.581933 -1.2499164 -0.30376887 0
-2.4858944 -1.2476612 -0.30486459 0
-2.3616123 -1.249404 -0.30673462 0
-2.2698541 -1.2640252 -0.30683926 0
-2.1620395 -1.2503558 -0.30750805 0
-2.050699 -1.2400045 -0.30796549 0
-1.9460549 -1.2543063 -0.30949882 0
-1.8523912 -1.2509195 -0.31075853 0
-1.7421806 -1.2504849 -0.31097263 0
-1.6353209 -1.2463133 -0.31136286 0
-1.5342603 -1.2267019 -0.31280142 0
-1.4727631 -1.2698263 -0.3096799 0
-1.3575133 -1.2501305 -0.31246477 0
-1.2548555 -1.2593139 -0.31355202 0
-1.1563286 -1.2466772 -0.31462345 0
-1.0486578 -1.2386647 -0.31571335 0
-0.95954955 -1.2631091 -0.31496421 0
-0.84077179 -1.2574738 -0.31698138 0
-0.74644816 -1.2443634 -0.31772166 0
-0.64871109 -1.2456689 -0.31750035 0
-0.55407017 -1.2502333 -0.31841427 0
-0.46084452 -1.2669164 -0.31879419 0
-0.3520821 -1.245252 -0.3213833 0
-0.25828078 -1.2595263 -0.32034382 0
-0.14433709 -1.2490402 -0.3213748 0
-0.052664053 -1.240254 -0.32268736 0
0.053083315 -1.2459692 -0.32424614 0
0.15154625 -1.2523115 -0.32304066 0
0.24409519 -1.2433071 -0.32419446 0
0.35140947 -1.2527993 -0.32566813 0
0.44391245 -1.2495768 -0.32699284 0
0.56067485 -1.2688937 -0.32682565 0
0.65027821 -1.2520319 -0.32807127 0
0.74150676 -1.2418169 -0.32908514 0
0.85947633 -1.2435546 -0.32872987 0
0.94640613 -1.2510905 -0.33029667 0
1.0599055 -1.2594228 -0.3298561 0
1.1519488 -1.2446307 -0.33115733 0
1.248109 -1.2467806 -0.33247706 0
1.3507371 -1.2547648 -0.33327031 0
1.4443252 -1.2449682 -0.33269212 0
1.5370119 -1.2425539 -0.33296365 0
1.6451484 -1.2645922 -0.33334145 0
1.7361207 -1.2415251 -0.33466968 0
1.85121 -1.2504898 -0.33570614 0
1.9343414 -1.2466319 -0.33706445 0
2.0341692 -1.2500163 -0.33715487 0
2.1395831 -1.2523292 -0.33820173 0
2.2414725 -1.2481979 -0.33845544 0
2.3383458 -1.2585962 -0.3391073 0
2.4542706 -1.2537447 -0.3403568 0
2.5033112 -1.2118416 -0.34148911 0
-3.2412305 -1.1332235 -0.30109897 0
-3.1345003 -1.1465178 -0.30111611 0
-3.0269041 -1.1564937 -0.30177453 0
-2.9397762 -1.1474825 -0.30277899 0
-2.8359778 -1.153967 -0.30348995 0
-2.7380145 -1.1599425 -0.30449986 0
-2.6299589 -1.1589004 -0.30480823 0
-2.5290706 -1.1579243 -0.30543426 0
-2.4283087 -1.1541692 -0.30600777 0
-2.3324726 -1.1498543 -0.30714071 0
-2.2360101 -1.1423818 -0.30880362 0
-2.152477 -1.1585946 -0.30912918 0
-2.0303683 -1.1497391 -0.30974567 0
-1.9400095 -1.1606919 -0.30984125 0
-1.8370981 -1.1471822 -0.31079677 0
-1.7381835 -1.1557575 -0.31273633 0
-1.6396515 -1.145431 -0.3138631 0
-1.5726116 -1.1633104 -0.31275609 0
-1.4545404 -1.1586292 -0.31311855 0
-1.3598797 -1.1485568 -0.31374535 0
-1.2537401 -1.1545532 -0.31501713 0
-1.14917 -1.1400546 -0.31587988 0
-1.0624423 -1.1548141 -0.31632066 0
-0.9541986 -1.1548198 -0.31688157 0
-0.84152859 -1.1460754 -0.3179675 0
-0.74835664 -1.1510053 -0.31905082 0
-0.65793556 -1.1583039 -0.31894931 0
-0.55724412 -1.1543275 -0.31891599 0
-0.44593295 -1.1548899 -0.32232794 0
-0.34463874 -1.1550684 -0.3230786 0
-0.24287148 -1.174485 -0.32145646 0
-0.15801305 -1.1870815 -0.3209236 0
-0.055437062 -1.1916909 -0.31973112 0
0.0042740065 -1.1940358 -0.31994247 0
0.14856611 -1.1933062 -0.32232708 0
0.26191646 -1.1804146 -0.32404923 0
0.35641071 -1.1645634 -0.32642713 0
0.46016377 -1.1486862 -0.32719108 0
0.5421744 -1.1514357 -0.32764688 0
0.64857656 -1.1487327 -0.32815817 0
0.76491356 -1.1593777 -0.32950395 0
0.85397506 -1.1466918 -0.33141574 0
0.9493556 -1.1489131 -0.33176619 0
1.0547365 -1.1535361 -0.3320823 0
1.1562668 -1.1604024 -0.33287036 0
1.2609038 -1.1472522 -0.33340445 0
1.3574767 -1.1410482 -0.33419049 0
1.4607213 -1.1466551 -0.33345842 0
1.5582612 -1.1459591 -0.33546042 0
1.6509882 -1.1500063 -0.33519983 0
1.7622647 -1.1581252 -0.3369554 0
1.8437979 -1.1404802 -0.33811283 0
1.9502743 -1.1415272 -0.33760133 0
2.0632656 -1.1620078 -0.33866343 0
2.1386154 -1.1380976 -0.33866665 0
2.2409861 -1.1517601 -0.34031451 0
2.3376119 -1.1594297 -0.34069169 0
2.4370794 -1.1510686 -0.34203911 0
2.5344357 -1.1385887 -0.3414405 0
-3.2846348 -1.0438977 -0.30244124 0
-3.1659603 -1.056294 -0.30301338 0
-3.0730135 -1.0497918 -0.30341169 0
-2.9792309 -1.0416453 -0.30382967 0
-2.8552227 -1.0368036 -0.30463573 0
-2.7511959 -1.0437912 -0.30508903 0
-2.6538117 -1.0650371 -0.30658898 0
-2.5581915 -1.0409389 -0.30699706 0
-2.4754548 -1.069772 -0.30703121 0
-2.3514829 -1.036198 -0.30831352 0
-2.2643538 -1.0564355 -0.30827796 0
-2.1542878 -1.0391169 -0.30977476 0
-2.0626364 -1.0537932 -0.31052002 0
-1.9648206 -1.0574915 -0.31110281 0
-1.8753133 -1.044269 -0.31176332 0
-1.7495664 -1.0354556 -0.31255198 0
-1.6614103 -1.0540613 -0.31373227 0
-1.545477 -1.0598248 -0.31470406 0
-1.4421123 -1.0509865 -0.31506699 0
-1.3494523 -1.043748 -0.31568569 0
-1.2410361 -1.0481836 -0.31603307 0
-1.147315 -1.0481197 -0.31745157 0
-1.051386 -1.0402468 -0.3181299 0
-0.9484126 -1.0434275 -0.31863374 0
-0.85989857 -1.0560005 -0.31875756 0
-0.75090927 -1.0453197 -0.31893265 0
-0.64352918 -1.0462058 -0.31943467 0
-0.54857951 -1.0644032 -0.320952 0
-0.48461258 -1.0891683 -0.31943381 0
0.56745958 -1.0819608 -0.32740575 0
0.65438545 -1.0536469 -0.32987076 0
0.73929894 -1.0558228 -0.330259 0
0.84403986 -1.0517285 -0.33223453 0
0.95448679 -1.0610745 -0.33279899 0
1.0449407 -1.0417539 -0.33338353 0
1.1515561 -1.0506455 -0.33263335 0
1.2466455 -1.0531561 -0.3341544 0
1.3497561 -1.0480846 -0.33457929 0
1.4426466 -1.0461165 -0.33587709 0
1.5626659 -1.0422305 -0.3368251 0
1.6655893 -1.0567158 -0.33716068 0
1.7559394 -1.0447024 -0.33773398 0
1.8570971 -1.0496398 -0.33799055 0
1.9685475 -1.0414032 -0.33917472 0
2.062439 -1.05352 -0.33973828 0
2.1668699 -1.048982 -0.34080461 0
2.264122 -1.0562675 -0.34134403 0
2.3563492 -1.058557 -0.34140119 0
2.4540656 -1.0605208 -0.34202278 0
2.5566919 -1.0616772 -0.34337619 0
2.6137261 -1.0201157 -0.34451038 0
-3.3202734 -0.94296861 -0.30291322 0
-3.2367079 -0.96935719 -0.30307502 0
-3.1204267 -0.94279832 -0.30425382 0
-3.0178652 -0.9590764 -0.30515629 0
-2.9319069 -0.93175673 -0.30603319 0
-2.8488493 -0.95820373 -0.30572233 0
-2.7239406 -0.95238954 -0.30649295 0
-2.6326628 -0.94167727 -0.30728251 0
-2.5312293 -0.94637507 -0.30779967 0
-2.4368761 -0.95119864 -0.30911443 0
-2.3291309 -0.94771934 -0.30972794 0
-2.2283478 -0.92537069 -0.31132975 0
-2.1436062 -0.94459915 -0.31068578 0
-2.0355539 -0.94971371 -0.31209093 0
-1.9479878 -0.96023512 -0.31200644 0
-1.8316493 -0.95239359 -0.31285876 0
-1.7360916 -0.93438756 -0.31359953 0
-1.648194 -0.94896197 -0.3136428 0
-1.5455967 -0.94990271 -0.31524828 0
-1.4414022 -0.94657689 -0.316185 0
-1.3272811 -0.94638139 -0.31663337 0
-1.2584702 -0.96277428 -0.31702113 0
-1.1499344 -0.9432624 -0.31744519 0
-1.0388869 -0.93923861 -0.31872144 0
-0.96055853 -0.96402699 -0.3202498 0
-0.85634995 -0.95012504 -0.32014143 0
-0.75973231 -0.94669813 -0.32082656 0
-0.67664433 -0.97912842 -0.3189494 0
0.75931013 -0.97417074 -0.33108827 0
0.85311478 -0.9545812 -0.3329106 0
0.94075245 -0.95001799 -0.33301553 0
1.046906 -0.95872146 -0.33217996 0
1.1344868 -0.94159567 -0.33523071 0
1.2478167 -0.95098352 -0.33621681 0
1.3493806 -0.95405984 -0.33678809 0
1.4471897 -0.94751477 -0.33724484 0
1.5470791 -0.95067823 -0.33750126 0
1.6366339 -0.95795596 -0.33780289 0
1.7368379 -0.95084012 -0.33844909 0
1.8406826 -0.94030184 -0.33956492 0
1.9266467 -0.94784534 -0.34019384 0
2.0295992 -0.946845 -0.3411437 0
2.1201489 -0.95244503 -0.34104514 0
2.2341526 -0.96549165 -0.34153342 0
2.355582 -0.95850575 -0.34281361 0
2.454143 -0.95814264 -0.34383965 0
2.5413215 -0.95727587 -0.34475264 0
2.6282415 -0.94005525 -0.34476602 0
-3.3503246 -0.85710084 -0.30399671 0
-3.2393856 -0.85346192 -0.30461642 0
-3.1431265 -0.85224009 -0.30475581 0
-3.0496891 -0.8503828 -0.30542815 0
-2.9555252 -0.84699035 -0.30616844 0
-2.8655357 -0.84348035 -0.30705425 0
-2.7658043 -0.85724419 -0.30777216 0
-2.6496606 -0.83525437 -0.30918053 0
-2.5666475 -0.85633665 -0.3084985 0
-2.475558 -0.84569675 -0.30931115 0
-2.371053 -0.84806466 -0.3102271 0
-2.2637956 -0.84646243 -0.31099153 0
-2.152606 -0.84020257 -0.31235039 0
-2.0618365 -0.873496 -0.31239006 0
-1.9662602 -0.8464554 -0.31348866 0
-1.84078 -0.85186726 -0.31511849 0
-1.760331 -0.85737443 -0.31433272 0
-1.6643562 -0.85019046 -0.31549889 0
-1.5628195 -0.83838004 -0.31595087 0
-1.4457264 -0.83236158 -0.31638947 0
-1.3685044 -0.86299747 -0.31732908 0
-1.2539793 -0.84507692 -0.31765938 0
-1.1448004 -0.83964682 -0.31834322 0
-1.059781 -0.85765928 -0.31884593 0
-0.95165032 -0.85972339 -0.31967938 0
-0.85760564 -0.84987402 -0.32171941 0
-0.79116416 -0.89057094 -0.31919181 0
0.86703283 -0.88275361 -0.33156526 0
0.94984895 -0.85004485 -0.33435422 0
1.0509393 -0.84983188 -0.33551168 0
1.1603183 -0.85846472 -0.33705986 0
1.2444583 -0.8348214 -0.33672816 0
1.3532783 -0.84314519 -0.33703265 0
1.4428949 -0.85835236 -0.33725205 0
1.5335549 -0.85144567 -0.33845189 0
1.6586759 -0.86265999 -0.33992201 0
1.7450367 -0.85111296 -0.34024626 0
1.8483939 -0.84628439 -0.3410753 0
1.9709647 -0.85176349 -0.34146863 0
2.066304 -0.8580386 -0.34102443 0
2.1601148 -0.83957016 -0.34294507 0
2.2696409 -0.84851968 -0.3434881 0
2.3613496 -0.86370438 -0.34426126 0
2.4556234 -0.85855484 -0.34439972 0
2.5495653 -0.85065383 -0.34500638 0
2.6634257 -0.84644645 -0.34535718 0
-3.4014878 -0.74169558 -0.30458367 0
-3.3693173 -0.76846057 -0.30437061 0
-3.2738717 -0.73842788 -0.30532897 0
-3.1737833 -0.76378012 -0.30621651 0
-3.0859246 -0.7426368 -0.30694687 0
-2.9594514 -0.74976724 -0.30773321 0
-2.8463666 -0.74996793 -0.30770648 0
-2.7510257 -0.74625516 -0.30840886 0
-2.6518452 -0.75996435 -0.30899513 0
-2.5194175 -0.74160951 -0.31054261 0
-2.4190106 -0.74438846 -0.31129056 0
-2.3462975 -0.74572015 -0.31197417 0
-2.2357612 -0.76377124 -0.31243297 0
-2.1308479 -0.74497992 -0.31398338 0
-2.0481074 -0.75250757 -0.3141236 0
-1.94169 -0.74185991 -0.31501263 0
-1.8326101 -0.77008212 -0.31488553 0
-1.7308272 -0.77248764 -0.31488398 0
-1.6257322 -0.75849652 -0.31671762 0
-1.5454779 -0.74812537 -0.31781852 0
-1.447181 -0.74294132 -0.31807929 0
-1.3408095 -0.75919461 -0.31821314 0
-1.2433147 -0.75180727 -0.31853825 0
-1.1472492 -0.74876088 -0.31892112 0
-1.0476998 -0.75827724 -0.32024813 0
-0.94988108 -0.75124538 -0.32019755 0
-0.89739507 -0.78015947 -0.31861877 0
0.98549587 -0.77364045 -0.33573201 0
1.0491452 -0.74962085 -0.33934912 0
1.1419061 -0.73957032 -0.33669463 0
1.2491673 -0.75054485 -0.33702633 0
1.3429792 -0.74782956 -0.33813143 0
1.4475006 -0.75650746 -0.33884233 0
1.5564519 -0.7534681 -0.34000322 0
1.6519527 -0.74204916 -0.34097734 0
1.7620919 -0.74663287 -0.34102559 0
1.8455641 -0.75101638 -0.34101853 0
1.9592327 -0.7717436 -0.34127733 0
2.0333269 -0.74371642 -0.34343922 0
2.1291597 -0.7444151 -0.34373748 0
2.2211246 -0.7410751 -0.34397516 0
2.3460696 -0.75314409 -0.34449399 0
2.4634235 -0.75722504 -0.34509853 0
2.5690258 -0.73622143 -0.34653342 0
2.6783915 -0.74685985 -0.34798783 0
2.7377357 -0.74228495 -0.34831139 0
-3.4134312 -0.65946382 -0.30496562 0
-3.3472652 -0.65522796 -0.30556786 0
-3.2408149 -0.64225084 -0.30647522 0
-3.1386929 -0.66886467 -0.30700064 0
-3.0157063 -0.657538 -0.30781886 0
-2.9214005 -0.65892506 -0.3084116 0
-2.8285024 -0.65928429 -0.3092666 0
-2.740509 -0.63877338 -0.31001276 0
-2.6405036 -0.65544575 -0.31034911 0
-2.5483537 -0.6519599 -0.31111711 0
-2.4455245 -0.64432371 -0.31164029 0
-2.3381801 -0.6519829 -0.31255457 0
-2.2445188 -0.66055697 -0.31354043 0
-2.1590471 -0.65224373 -0.31435627 0
-2.0710928 -0.6419487 -0.31501999 0
-1.951835 -0.64184141 -0.31684071 0
-1.8717303 -0.68456912 -0.3156662 0
-1.5673544 -0.69067973 -0.31678683 0
-1.4772214 -0.67617482 -0.31876791 0
-1.340129 -0.66460222 -0.31981847 0
-1.2375177 -0.65468341 -0.3207874 0
-1.1567156 -0.65091807 -0.32033616 0
-1.0489659 -0.65043914 -0.32070938 0
-0.9876523 -0.67735481 -0.32091966 0
1.067508 -0.65588802 -0.33578244 0
1.1481736 -0.64856356 -0.33810502 0
1.2609683 -0.66825873 -0.33819669 0
1.3327129 -0.63683999 -0.3389602 0
1.4437275 -0.64858788 -0.34036049 0
1.5559531 -0.64612299 -0.34093204 0
1.6355388 -0.65189368 -0.34091079 0
1.7399038 -0.64366519 -0.34166062 0
1.8417614 -0.65000737 -0.34284899 0
1.9465704 -0.6434074 -0.34314054 0
2.0654249 -0.65641403 -0.34381786 0
2.1626492 -0.65335697 -0.34439817 0
2.2561872 -0.64658791 -0.34507048 0
2.3487918 -0.63686365 -0.3457948 0
2.4326599 -0.65960342 -0.34633341 0
2.5282192 -0.64677888 -0.34722447 0
2.644727 -0.66332763 -0.34760976 0
2.7416847 -0.63902879 -0.34854206 0
-3.4456928 -0.54696083 -0.3061007 0
-3.3576765 -0.55796778 -0.30637637 0
-3.2492085 -0.54774362 -0.30702928 0
-3.1282134 -0.56579262 -0.30770966 0
-3.0392447 -0.54970443 -0.30841222 0
-2.9466991 -0.55475432 -0.30906034 0
-2.8598983 -0.55953777 -0.31012875 0
-2.7712784 -0.54219794 -0.31096321 0
-2.6765337 -0.54355472 -0.31155834 0
-2.5744207 -0.56131583 -0.31168237 0
-2.4776621 -0.54485184 -0.31246895 0
-2.3652613 -0.5513711 -0.31342909 0
-2.2626677 -0.55322492 -0.31480768 0
-2.1378121 -0.55660975 -0.31557056 0
-2.0179026 -0.5471521 -0.31684506 0
-1.9304203 -0.54318959 -0.31765857 0
-1.8573112 -0.5179069 -0.31951863 0
-1.23448 -0.58674318 -0.31926221 0
-1.1467215 -0.57327765 -0.32188934 0
-1.0676931 -0.55504233 -0.32253176 0
1.145811 -0.56479305 -0.33793208 0
1.2539322 -0.54651099 -0.33931938 0
1.3656665 -0.54288936 -0.34105039 0
1.4493842 -0.55380595 -0.34122595 0
1.5253321 -0.55785978 -0.34113559 0
1.6506273 -0.54619676 -0.34178504 0
1.7611997 -0.54580998 -0.34305325 0
1.8442452 -0.54278898 -0.34306192 0
1.9434017 -0.55104983 -0.343815 0
2.0640407 -0.56772298 -0.34406176 0
2.1325092 -0.53657633 -0.34491891 0
2.2465892 -0.54091078 -0.34600091 0
2.3540862 -0.542916 -0.34698844 0
2.4577668 -0.54526138 -0.3485893 0
2.5691779 -0.54096627 -0.34903172 0
2.6541367 -0.5588553 -0.34941658 0
2.761919 -0.55404919 -0.35000587 0
2.8033652 -0.54857528 -0.35077378 0
-3.448884 -0.44655225 -0.30677423 0
-3.3307381 -0.45569542 -0.30761674 0
-3.2410214 -0.44342047 -0.30818316 0
-3.1500723 -0.45399532 -0.30858696 0
-3.0583425 -0.46313512 -0.3092674 0
-2.9688792 -0.44958895 -0.30991393 0
-2.8708866 -0.45570481 -0.31007549 0
-2.7614553 -0.43834722 -0.31103408 0
-2.6300337 -0.45622692 -0.31206977 0
-2.5319374 -0.43921512 -0.31322426 0
-2.4802213 -0.45208782 -0.31225032 0
-2.3558543 -0.43659681 -0.31417716 0
-2.2495296 -0.45714122 -0.31477073 0
-2.1414316 -0.4542492 -0.3158071 0
-2.0410335 -0.44516918 -0.31672564 0
-1.9447179 -0.44974366 -0.31807071 0
-1.8486295 -0.45442986 -0.31823623 0
-1.7463078 -0.44680649 -0.31935769 0
-1.6655935 -0.43894222 -0.31925747 0
-1.5905793 -0.43133324 -0.32035157 0
1.1737192 -0.46767268 -0.33861214 0
1.2485623 -0.44159326 -0.34149218 0
1.3581634 -0.46146363 -0.34132391 0
1.432451 -0.4418155 -0.34184724 0
1.5573487 -0.44237056 -0.34280542 0
1.6596298 -0.45836151 -0.34252417 0
1.7298888 -0.45433792 -0.34441459 0
1.8507404 -0.44537792 -0.34523362 0
1.9597917 -0.44202051 -0.34528938 0
2.0410633 -0.4450461 -0.34584147 0
2.1381407 -0.45022836 -0.34703901 0
2.2325881 -0.43694481 -0.3470659 0
2.3380837 -0.44866872 -0.34737241 0
2.4502072 -0.45226961 -0.34823462 0
2.5599835 -0.43783402 -0.34962836 0
2.6752083 -0.4442549 -0.35031739 0
2.761061 -0.45851508 -0.35089815 0
2.8303571 -0.44931775 -0.35188442 0
-3.5028987 -0.30156204 -0.30759701 0
-3.4601619 -0.36441317 -0.30704704 0
-3.3550348 -0.36148164 -0.30783728 0
-3.2651219 -0.3517921 -0.3085669 0
-3.1752095 -0.34210259 -0.30929652 0
-3.0603714 -0.34100258 -0.31013513 0
-2.9798975 -0.36431378 -0.30994308 0
-2.8616743 -0.34307981 -0.31085125 0
-2.738776 -0.34161317 -0.31152371 0
-2.6376872 -0.35148662 -0.31214872 0
-2.5232873 -0.34522098 -0.31271443 0
-2.4544301 -0.34668994 -0.31353059 0
-2.3395164 -0.3459326 -0.31474483 0
-2.2327356 -0.35448503 -0.31540516 0
-2.1494915 -0.34127212 -0.31628084 0
-2.0626309 -0.35780168 -0.31740022 0
-1.961109 -0.35462904 -0.31790277 0
-1.8570195 -0.34961239 -0.3191489 0
-1.7523264 -0.34285924 -0.32025737 0
-1.6380473 -0.34513289 -0.32149956 0
-1.5714127 -0.33114359 -0.32183146 0
1.2463057 -0.35720378 -0.34084958 0
1.3469602 -0.34169498 -0.34238154 0
1.4460551 -0.34790561 -0.34424388 0
1.537961 -0.35085616 -0.34415969 0
1.6492926 -0.34727436 -0.34402427 0
1.7350261 -0.35238099 -0.34418407 0
1.8466502 -0.34962067 -0.34411168 0
1.9596531 -0.3543942 -0.34517643 0
2.0507278 -0.33325541 -0.34648392 0
2.1656334 -0.34359908 -0.34795117 0
2.2652543 -0.3429105 -0.34947351 0
2.3511088 -0.35591292 -0.34980819 0
2.4493587 -0.33497787 -0.35088968 0
2.5352509 -0.34673151 -0.35105872 0
2.6211431 -0.3584851 -0.35122776 0
2.7447851 -0.36232147 -0.35153207 0
2.8282766 -0.33763397 -0.35197854 0
-3.5253108 -0.22738077 -0.30907306 0
-3.4669089 -0.27346864 -0.3087337 0
-3.3767023 -0.26635322 -0.30945122 0
-3.2577085 -0.24929507 -0.31061175 0
-3.1348693 -0.25494969 -0.31116071 0
-3.0158753 -0.23789154 -0.31232125 0
-2.9224904 -0.2515671 -0.3127538 0
-2.8323801 -0.24381043 -0.31350648 0
-2.7391448 -0.25556347 -0.3139948 0
-2.6491411 -0.24716601 -0.31479484 0
-2.5511503 -0.25636551 -0.31484053 0
-2.2415977 -0.2903592 -0.31550342 0
-2.1579208 -0.27952036 -0.31630507 0
-2.071238 -0.28337026 -0.31696409 0
-1.9876312 -0.27193141 -0.3177501 0
-1.8640486 -0.29592484 -0.31896484 0
-1.7331276 -0.28348494 -0.32019436 0
-1.6275986 -0.27431831 -0.320842 0
-1.5405055 -0.27474073 -0.32171318 0
-1.4472499 -0.27248892 -0.32301572 0
-1.3588783 -0.25587168 -0.3236644 0
-1.2470818 -0.23933506 -0.32650855 0
-1.1901417 -0.21525064 -0.32407904 0
1.2499943 -0.25389457 -0.34187567 0
1.3522419 -0.24992982 -0.34293011 0
1.4635732 -0.2431474 -0.34315953 0
1.5391423 -0.24435036 -0.34316722 0
1.6444166 -0.25575614 -0.34369823 0
1.7519995 -0.24819371 -0.34546673 0
1.8454682 -0.252435 -0.34706953 0
1.9417471 -0.25438705 -0.34789562 0
2.051945 -0.24353427 -0.34932095 0
2.1692207 -0.24708785 -0.3503662 0
2.2391651 -0.24135895 -0.3509576 0
2.3732386 -0.25578675 -0.35113037 0
2.4576004 -0.24703723 -0.35116935 0
2.5476511 -0.23766284 -0.35187519 0
2.6342371 -0.24574101 -0.3522965 0
2.7208226 -0.2538192 -0.35271779 0
2.8410091 -0.24456123 -0.35366568 0
-3.5333858 -0.12647501 -0.30933663 0
-3.476429 -0.17429134 -0.30945617 0
-3.3860064 -0.16975765 -0.31013364 0
-3.2503724 -0.1629571 -0.3111499 0
-3.1147385 -0.15615655 -0.31216609 0
-3.0243156 -0.15162286 -0.31284359 0
-2.9338932 -0.14708915 -0.31352109 0
-2.8434706 -0.14255546 -0.31419855 0
-2.7515383 -0.15769267 -0.31484666 0
-2.661149 -0.15251186 -0.31551766 0
-2.5707595 -0.14733106 -0.31618866 0
1.2762815 -0.14659753 -0.34432951 0
1.3546499 -0.15263468 -0.34435967 0
1.4685555 -0.14979027 -0.34569785 0
1.5668881 -0.14616291 -0.34664068 0
1.6409019 -0.15306599 -0.3470574 0
1.7622974 -0.15065485 -0.34782007 0
1.8630946 -0.1602934 -0.3481791 0
1.9466572 -0.15349385 -0.34874642 0
2.0419025 -0.15539934 -0.34918624 0
2.1582685 -0.13921611 -0.34942427 0
2.2357683 -0.14969335 -0.35051402 0
2.3584323 -0.14384575 -0.35108411 0
2.4647987 -0.15896037 -0.35148647 0
2.5502107 -0.1460875 -0.35183442 0
2.6372209 -0.1510742 -0.35245061 0
2.7242308 -0.1560609 -0.35306677 0
2.8429382 -0.15068679 -0.35433781 0
2.9007359 -0.10383614 -0.35639316 0
-3.5416453 -0.050702598 -0.30988508 0
-3.4870503 -0.074896194 -0.31011569 0
-3.3512728 -0.071980812 -0.31116247 0
-3.2154951 -0.069065437 -0.31220925 0
-3.1249771 -0.067121848 -0.3129071 0
-3.0344586 -0.06517826 -0.31360495 0
-2.9439402 -0.063234672 -0.31430277 0
-2.8534219 -0.061291084 -0.31500062 0
-2.7629035 -0.059347495 -0.31569847 0
-2.6723852 -0.057403911 -0.3163963 0
-2.5818667 -0.055460323 -0.31709415 0
1.2894104 -0.046189286 -0.3457883 0
1.3567989 -0.04859801 -0.34578326 0
1.4690844 -0.048287027 -0.34549779 0
1.5374181 -0.054799464 -0.34701616 0
1.6436427 -0.046964876 -0.34677893 0
1.7703617 -0.054319438 -0.34827963 0
1.8726581 -0.053623475 -0.34891754 0
1.9534354 -0.055939279 -0.34934187 0
2.0349848 -0.04371665 -0.34975454 0
2.1470859 -0.03982665 -0.34997681 0
2.2302222 -0.047805969 -0.35082418 0
2.3684955 -0.059196871 -0.35234538 0
2.47521 -0.053235244 -0.35293213 0
2.5625393 -0.055108678 -0.35369471 0
2.649869 -0.056982111 -0.35445735 0
2.7371981 -0.058855545 -0.35521993 0
2.8203573 -0.040390104 -0.35597956 0
2.9056752 -0.034662317 -0.35681883 0
-3.5327444 0.033650506 -0.31053057 0
-3.4279912 0.036609378 -0.31164902 0
-3.3163106 0.047512725 -0.31265104 0
-3.2257602 0.046216037 -0.31335714 0
-3.1352098 0.044919346 -0.31406328 0
-3.0446594 0.043622661 -0.31476942 0
-2.9541085 0.042325977 -0.31547552 0
-2.8635581 0.041029293 -0.31618166 0
-2.7730076 0.039732601 -0.3168878 0
-2.6824572 0.038435917 -0.3175939 0
-2.5919068 0.037139229 -0.31830004 0
1.2894036 0.046139345 -0.34578612 0
1.3572079 0.048555624 -0.34607476 0
1.4609311 0.056120396 -0.34618399 0
1.530251 0.043815583 -0.34789315 0
1.654301 0.047363885 -0.34863505 0
1.7608428 0.063281432 -0.34896275 0
1.8397245 0.039763533 -0.35013223 0
1.9591274 0.056069519 -0.35064408 0
2.0399387 0.043752197 -0.3510507 0
2.1393416 0.053760637 -0.35171846 0
2.2192924 0.043736897 -0.3522957 0
2.3444619 0.050387491 -0.35303193 0
2.4654484 0.052967574 -0.35408485 0
2.572612 0.055278342 -0.35467091 0
2.6598012 0.057150412 -0.35525644 0
2.7469904 0.059022486 -0.35584196 0
2.8544083 0.047794625 -0.35580742 0
2.9088295 0.020816641 -0.35716796 0
-3.5690107 0.12782983 -0.31245571 0
-3.4497313 0.14790003 -0.31315231 0
-3.3128371 0.16610846 -0.31395948 0
-3.222208 0.16156511 -0.31448323 0
-3.1315794 0.15702176 -0.31500697 0
-3.0409505 0.1524784 -0.31553075 0
-2.9503217 0.14793505 -0.31605452 0
-2.8596928 0.1433917 -0.31657827 0
-2.7690032 0.1587303 -0.31724676 0
-2.678405 0.15353794 -0.31776622 0
-2.5878074 0.1483456 -0.31828567 0
1.2877094 0.14807358 -0.34741783 0
1.3554616 0.14599124 -0.34756982 0
1.4636725 0.15767936 -0.34793887 0
1.5456642 0.13942397 -0.34917229 0
1.6487927 0.14202787 -0.34906337 0
1.7598219 0.15297163 -0.34976932 0
1.8381647 0.14502351 -0.35192952 0
1.9630022 0.15486342 -0.35237846 0
2.0430667 0.14650829 -0.35262948 0
2.1390738 0.15654564 -0.35340375 0
2.2240219 0.13951904 -0.35384098 0
2.3172104 0.14949442 -0.35466269 0
2.4480269 0.15793179 -0.35572401 0
2.5781131 0.14778444 -0.35644349 0
2.665345 0.15278378 -0.35714024 0
2.7525766 0.15778314 -0.35783699 0
2.8380432 0.14234352 -0.35816488 0
2.9184513 0.14637303 -0.3588151 0
-3.5632701 0.22987491 -0.31240129 0
-3.452625 0.24727297 -0.31360215 0
-3.3213305 0.26208088 -0.31499738 0
-3.230921 0.25494954 -0.31562281 0
-3.1405115 0.2478182 -0.31624818 0
-3.0501022 0.24068686 -0.31687355 0
-2.956773 0.25458613 -0.31762993 0
-2.8663521 0.24680121 -0.31818172 0
-2.7794557 0.25927737 -0.31933218 0
-2.6484947 0.25652835 -0.32088044 0
-2.5891573 0.26027924 -0.31951037 0
-2.2498193 0.29142416 -0.3240526 0
-2.1235859 0.27507287 -0.32504833 0
-2.0385194 0.27890882 -0.32588553 0
-1.8149 0.28812233 -0.32631338 0
-1.7270713 0.28680885 -0.32501042 0
-1.6358536 0.27765933 -0.32426491 0
-1.5383813 0.27823299 -0.32648385 0
-1.4313366 0.27764916 -0.3300378 0
-1.3676521 0.25728756 -0.3286337 0
-1.237811 0.25644124 -0.33060095 0
1.2755699 0.24957547 -0.34833959 0
1.3457327 0.24331383 -0.3486883 0
1.4698229 0.24934089 -0.34914836 0
1.5663197 0.24862438 -0.34955567 0
1.6405672 0.24843323 -0.34997353 0
1.7667586 0.25160283 -0.35108709 0
1.870455 0.24235672 -0.35158527 0
1.9510624 0.25279653 -0.35230657 0
2.0321863 0.24851294 -0.35260534 0
2.1449797 0.25592247 -0.35370511 0
2.2225804 0.23496066 -0.35440025 0
2.3333406 0.26014245 -0.35556906 0
2.4439061 0.24568471 -0.35664174 0
2.5765727 0.24040113 -0.35784057 0
2.6637628 0.24853654 -0.35869896 0
2.750953 0.25667199 -0.35955739 0
2.8393373 0.24442372 -0.36038089 0
2.9292614 0.25923923 -0.36158583 0
-3.5550048 0.32329151 -0.31422082 0
-3.4384491 0.36215487 -0.31588319 0
-3.3205914 0.35790423 -0.31662571 0
-3.2303083 0.34817594 -0.31715876 0
-3.1400251 0.33844763 -0.3176918 0
-3.0484035 0.35065284 -0.31839433 0
-2.9618149 0.36209306 -0.31943798 0
-2.8717132 0.35107657 -0.32002813 0
-2.7816114 0.34006011 -0.32061827 0
-2.69151 0.32904363 -0.32120842 0
-2.574218 0.34842175 -0.32168734 0
-2.4569352 0.35408947 -0.32265577 0
-2.3729403 0.34198475 -0.32332018 0
-2.2508097 0.35084447 -0.32431307 0
-2.1279867 0.35667443 -0.32505912 0
-2.0262725 0.35148564 -0.32574436 0
-1.9628804 0.35503638 -0.32533669 0
-1.8601956 0.3453939 -0.32597014 0
-1.7492961 0.35945478 -0.32650593 0
-1.6326877 0.34840202 -0.327775 0
-1.5369446 0.34664783 -0.32917017 0
-1.4641577 0.34125382 -0.3299275 0
-1.3737592 0.33334363 -0.33034196 0
-1.2624222 0.32296216 -0.33106339 0
-1.1933227 0.31441975 -0.33066213 0
1.2524036 0.34928238 -0.34849015 0
1.3503679 0.35586795 -0.34929699 0
1.4625862 0.35196832 -0.34920508 0
1.5506719 0.34972396 -0.35059533 0
1.6395779 0.36003447 -0.35165155 0
1.7574085 0.34627035 -0.35206553 0
1.8587317 0.34993088 -0.35277295 0
1.9414454 0.35114023 -0.35379323 0
2.0238965 0.35110688 -0.35467711 0
2.15237 0.34832793 -0.35565811 0
2.2301133 0.33300048 -0.35534436 0
2.359889 0.36418799 -0.35740739 0
2.4796939 0.33930817 -0.35755691 0
2.5665379 0.35119 -0.3584826 0
2.6508646 0.34333542 -0.35889393 0
2.7378442 0.35460365 -0.35988981 0
2.8284676 0.34577283 -0.36075237 0
2.9176135 0.34607381 -0.36160251 0
-3.5551434 0.42618772 -0.3154881 0
-3.4510908 0.44702756 -0.31639856 0
-3.3159695 0.42952502 -0.31717679 0
-3.2258887 0.41785663 -0.31769562 0
-3.1306705 0.45118934 -0.31853771 0
-3.0357561 0.48193794 -0.31931826 0
-2.9459786 0.4676854 -0.31977555 0
-2.8562012 0.45343289 -0.32023284 0
-2.7664235 0.43918037 -0.32069013 0
-2.676646 0.42492783 -0.32114741 0
-2.5625923 0.43911237 -0.32253382 0
-2.4348929 0.45832321 -0.32372296 0
