# .PCD v0.7 - Point Cloud Data file format
VERSION 0.7
FIELDS x y z intensity
SIZE 4 4 4 4
TYPE F F F F
COUNT 1 1 1 1
WIDTH 234
HEIGHT 1
VIEWPOINT 0 0 0 1 0 0 0
POINTS 234
DATA ascii
-38.415733 33.578705 2.6490972 9
-37.783749 33.99548 4.4216027 10
-37.777081 33.988865 6.2143312 11
-37.752007 33.965691 8.017868 12
-37.730896 33.946068 9.8400393 13
-26.703331 15.700521 2.6980419 10
-26.648001 13.192345 3.6406996 11
-26.702673 16.220648 3.8236942 11
-26.694389 16.745106 4.9780345 12
-26.601637 12.230731 5.6815276 13
-26.682556 16.737511 6.109508 13
-26.654285 16.190783 7.1872067 14
-26.518593 5.804255 3.3286171 11
-26.589767 9.9820242 3.4794779 11
-26.501986 5.8006268 4.292305 12
-26.571922 9.1133442 4.4420462 12
-26.590223 11.76583 4.5961204 12
-26.486523 5.7972474 5.2657347 13
-26.546402 9.5329056 5.4751577 13
-26.511133 7.4210663 6.3498883 14
-26.549858 9.9669466 6.5392094 14
-26.596451 12.694209 6.7936997 14
-26.500826 7.4181762 7.3677874 15
-26.533125 10.397875 7.627511 15
-26.590624 13.163595 7.9395885 15
-26.002039 -17.917431 1.6646736 9
-25.937279 -20.768553 0.59047997 8
-25.989428 -17.363842 2.7442331 10
-25.994612 -16.832624 3.8120544 11
-25.968523 -16.816139 4.9097629 12
-25.957666 -16.809525 6.0210686 13
-25.966961 -14.771439 6.9062257 14
-25.911417 -17.857281 7.2755351 14
-24.279861 43.646557 0.84385836 8
-24.265541 43.614567 6.1004238 11
-23.643774 43.96777 9.6758156 13
-21.898075 45.308819 2.6095805 9
-21.892256 45.294189 4.3736472 10
-21.275967 45.677273 7.9531832 12
-20.702465 46.179218 0.85558796 8
-20.684191 46.129684 6.1797824 11
-19.256367 -6.2964334 2.491827 11
-19.253534 -6.2956018 3.2126443 12
-19.233198 -6.2890463 3.9376991 13
-19.174318 -8.1574621 5.5889874 15
-13.643697 15.01389 1.7641166 10
-13.636797 15.005932 2.4789293 11
-13.641099 15.010299 3.201761 12
-13.619849 14.986538 3.9256701 13
-13.622755 14.988979 5.416409 15
-12.890193 15.030917 1.0269848 9
-12.530847 -29.058256 0.55745447 8
-12.536747 -29.074348 1.6646031 9
-12.541002 -29.086636 2.7766569 10
-12.535689 -29.076731 3.8934748 11
-12.544088 -29.098671 5.0246334 12
-12.543128 -29.098913 6.1654377 13
-12.546059 -29.108229 7.3241186 14
-11.707479 15.355968 0.3262139 8
-11.694496 15.337988 1.6768377 10
-11.674135 15.310797 2.3535297 11
-11.669078 15.303679 3.0376248 12
-11.664099 15.296664 3.7287147 13
-11.651301 15.279385 4.4256468 14
-11.651051 15.278555 5.137897 15
-9.152689 32.099525 0.5656898 8
-9.1090841 -1.3171462 0.8062008 10
-9.1846981 2.2879162 0.82628787 10
-9.1536617 32.099388 1.7325619 9
-9.1522932 32.091011 2.9029374 10
-9.1518726 32.085945 4.080276 11
-9.1508799 32.078846 5.2670279 12
-8.8282242 -36.922165 0.663028 8
-8.9387531 -0.12838905 0.78220612 10
-8.9422989 0.64318031 0.78385478 10
-8.8293657 -36.949963 6.018261 12
-8.2671156 -36.949993 8.7425508 14
-7.7090425 -36.905647 1.975389 9
-7.7069073 -36.908676 4.6294689 11
-7.7075186 -36.925102 7.3325186 13
-7.1527438 -36.889709 3.2866919 10
-6.3358212 -1.9702926 0.34914997 9
-6.2279792 -1.1760405 0.33304483 9
-6.2405877 2.0395467 0.34241092 9
-4.7815204 -1.872187 0.090970226 8
-4.7057586 2.2445047 0.089109875 8
-3.3563788 -36.778431 0.63924134 8
-3.3552477 -36.781593 1.930474 9
-3.35601 -36.805599 3.2284672 10
-3.3546267 -36.806149 4.5331945 11
-3.3533232 -36.807728 5.8493328 12
-3.3524067 -36.81374 7.1810613 13
-3.3517456 -36.822769 8.5320902 14
2.9884915 -36.618641 0.627738 8
2.9935908 -36.625317 4.4990826 11
2.9986913 -36.649807 7.1351061 13
3.5258553 -36.627438 5.8144703 12
3.5293307 -36.630775 8.4826374 14
5.1122489 -36.553959 1.9179579 9
5.1150718 -36.56303 3.2138066 10
6.1778483 -36.503098 0.6279676 8
6.7279282 -36.52684 4.5418801 11
6.7317214 -36.529869 7.2019114 13
7.1673183 11.812007 2.6709375 13
7.2423711 11.572084 0.22630338 8
7.2339578 11.556034 0.70199597 9
7.2385368 11.560682 1.1802487 10
7.2382832 11.557616 1.6607367 11
7.2388244 11.555792 2.1453691 12
7.2434092 11.557626 3.1332355 14
7.2766609 -36.524876 8.5789328 14
7.467741 11.541098 3.6661651 15
7.7575784 -6.141747 -0.18840994 7
7.7190356 -4.4782572 -0.17151389 7
7.7664437 -6.5207229 0.16164736 8
7.7191429 -4.4781194 0.14033845 8
7.7562246 -5.9604249 0.49757066 9
7.7135911 -4.47469 0.45220116 9
7.719131 -4.4777098 0.76580811 10
7.762754 -5.7893515 0.83237398 10
7.728004 -4.482666 1.082203 11
7.7874236 -6.5372262 1.2337933 11
7.7979012 -6.5456491 1.5980434 12
7.7394719 -4.4891286 1.4024631 12
7.7396517 -4.4890261 1.724653 13
7.7738128 -5.7966633 1.8705624 13
7.7477016 -4.4934964 2.0532928 14
7.7774873 -5.6267796 2.2019069 14
7.7374878 -4.4873438 2.3822587 15
7.7832994 -6.1593428 2.6453593 15
7.8152022 -7.805624 0.17736714 8
7.803194 -7.793119 0.56286597 9
7.8115468 -7.8009677 0.9509998 10
7.831358 -7.8202672 1.3442377 11
7.8459978 -7.8343921 1.7416121 12
7.815114 -6.9527087 2.0189247 13
7.8698101 -8.3234119 2.2121859 13
7.8659902 -8.0826235 2.5895298 14
7.8765273 -8.32936 3.0574508 15
8.0079966 -14.718817 0.27609777 8
8.0175381 -14.734955 0.8630392 9
8.0267878 -14.750548 1.4533473 10
8.0322046 -14.759084 2.0475218 11
8.0501537 -14.790641 2.6515996 12
8.0595589 -14.806474 3.2614417 13
8.0598106 -14.80546 3.8764603 14
8.1716518 -14.508746 4.4463673 15
8.3486843 -36.447243 1.9381776 9
8.3593273 -36.472374 5.9054451 12
8.7413912 11.608775 0.2375365 8
8.7371616 11.593704 2.280967 12
8.9038286 -36.448887 3.2605162 10
9.2883921 11.617492 1.8071544 11
9.2920294 11.612605 3.9630718 15
9.55404 -14.439453 0.28283662 8
9.577857 11.637311 0.77105838 9
9.5554733 -14.440418 0.88839304 9
9.5754776 11.632181 1.2988036 10
9.5670652 -14.455519 2.1097767 11
9.5688381 11.617298 2.9043617 13
9.5743532 11.62165 3.4543593 14
9.5768108 -14.46653 3.9870129 14
9.8596182 -14.443336 1.5105361 10
9.8738365 -14.458086 4.6722312 15
10.164538 -14.437495 2.7768185 12
10.022642 -36.432533 7.3211026 13
10.56643 -36.386833 0.63604951 8
11.118288 11.673496 4.2928438 15
11.142868 -36.393318 4.6475673 11
11.704806 -36.364532 1.975068 9
12.281953 -36.352707 3.3292456 10
12.289452 -36.364719 6.0519381 12
12.298333 -36.380589 8.8382044 14
29.907187 18.388357 0.54574668 8
29.907301 18.982721 1.7891219 9
29.928141 18.993006 3.0332258 10
29.918404 19.591982 4.3225837 11
29.999645 17.845577 5.458765 12
29.98629 19.020924 6.8317471 13
30.115078 12.494114 0.5008204 8
30.143085 12.503795 1.6416419 9
30.030365 15.610812 1.7056541 9
30.097137 14.031245 2.836369 10
30.060165 15.621517 4.0902271 11
30.199759 12.016213 5.0773244 12
30.118572 15.101892 6.4778194 13
30.124296 15.102368 7.7071872 14
30.032919 18.448326 8.0651121 14
30.08346 17.307289 9.2257624 15
30.37635 5.0081463 0.46867725 8
30.216326 9.5817289 0.48472199 8
30.39378 5.0099607 1.5454974 9
30.264315 8.6468544 1.5806789 9
30.308222 8.1889486 2.6774004 10
30.210882 11.030214 2.744559 10
30.378012 6.3603148 3.7410312 11
30.21813 11.031109 3.8800001 11
30.318804 8.658021 4.9233551 12
30.252699 11.040168 6.1882472 13
30.297537 10.07884 7.2988315 14
30.371256 8.6684465 8.3888226 15
30.209206 13.548109 8.7970762 15
30.529242 0.60161656 0.46453339 8
30.505617 1.4782653 1.5319991 9
30.588591 -0.27761728 2.6075776 10
30.43335 4.1212378 2.6177464 10
30.509518 2.3571334 3.6878195 11
30.557814 1.4785917 4.7755761 12
30.411636 5.9115319 4.8363967 12
30.534397 2.799114 5.8891654 13
30.437361 5.9153423 5.9557066 13
30.411629 6.8208828 7.1229205 14
30.580114 2.3592367 8.1450558 15
30.469297 5.9191241 8.2430267 15
30.736029 -6.0986223 0.47931144 8
30.607679 -2.0391436 0.46727604 8
30.790371 -7.5021262 1.5934489 9
30.70879 -4.7280231 1.5605072 9
30.627659 -2.0409036 1.5404671 9
30.736525 -5.1857023 2.6591675 10
30.637949 -1.6006738 3.6981177 11
30.715645 -3.3824968 4.8251452 12
30.764265 -4.2859411 5.9680147 13
30.653364 -1.1611766 5.8923864 13
30.605181 1.0390499 6.9981112 14
30.718462 -2.4928048 7.044229 14
30.737011 -2.4947267 8.1908846 15
30.84766 -8.4622526 2.7310977 10
30.801455 -6.5733166 3.7990584 11
30.864609 -7.991734 4.9813938 12
30.865494 -7.5204444 6.106113 13
30.841244 -6.1201682 7.1888757 14
30.830351 -5.2024651 8.3062191 15
30.928041 -8.4839458 8.5225077 15
