# .PCD v0.7 - Point Cloud Data file format
VERSION 0.7
FIELDS x y z intensity
SIZE 4 4 4 4
TYPE F F F F
COUNT 1 1 1 1
WIDTH 1356
HEIGHT 1
VIEWPOINT 0 0 0 1 0 0 0
POINTS 1356
DATA ascii
-1.0580804 -0.94682497 -0.33118379 0
-0.95250642 -0.95587301 -0.33265674 0
-0.8566125 -0.95628291 -0.33382106 0
-0.77269655 -0.977153 -0.33386505 0
0.87071884 -0.96599615 -0.34853864 0
0.95292312 -0.95064408 -0.35044751 0
1.0540215 -0.9487201 -0.35173294 0
1.1594477 -0.96236336 -0.35324448 0
1.2286195 -0.94289547 -0.35409066 0
1.3490884 -0.9477576 -0.35423419 0
1.4603755 -0.94413769 -0.35378245 0
1.555898 -0.950468 -0.35455251 0
1.6551516 -0.95289075 -0.3561942 0
1.7487631 -0.95751357 -0.35740528 0
1.8384395 -0.9558695 -0.3577157 0
1.9410985 -0.95338708 -0.3584308 0
2.059375 -0.94290388 -0.35989714 0
2.1609507 -0.95221078 -0.36097023 0
2.2651927 -0.94063264 -0.36224249 0
2.3596051 -0.94049519 -0.36292872 0
2.4540515 -0.93768102 -0.36315927 0
2.5414269 -0.95026219 -0.36325723 0
2.6300573 -0.96200699 -0.36406708 0
2.7254989 -0.95291018 -0.36460277 0
2.8223336 -0.95065081 -0.36601049 0
-3.3755991 -0.86372334 -0.30649325 0
-3.2297668 -0.8509931 -0.30861422 0
-3.1153989 -0.84480017 -0.3102411 0
-3.018676 -0.8650372 -0.31190854 0
-2.92187 -0.85991979 -0.31318995 0
-2.8245125 -0.85334015 -0.31410724 0
-2.7379055 -0.84870368 -0.31583163 0
-2.6469908 -0.84134161 -0.31705922 0
-2.5619974 -0.85482383 -0.31961346 0
-2.4523685 -0.84256959 -0.32008493 0
-2.3478737 -0.86531454 -0.32014838 0
-2.2430429 -0.82047451 -0.32125908 0
-2.142339 -0.85388565 -0.32265913 0
-2.0433364 -0.883057 -0.32408923 0
-1.9575391 -0.86261302 -0.3246564 0
-1.850108 -0.85405695 -0.32552513 0
-1.7349088 -0.83987898 -0.32660842 0
-1.6492455 -0.86051005 -0.32697582 0
-1.5484256 -0.84784746 -0.32741898 0
-1.446054 -0.84162712 -0.32844463 0
-1.3359312 -0.86105841 -0.33002722 0
-1.2418368 -0.85164183 -0.33057344 0
-1.1519752 -0.85486859 -0.33247057 0
-1.0528622 -0.84784007 -0.3327632 0
-0.94575733 -0.85177487 -0.33301973 0
-0.86899489 -0.88458663 -0.33230388 0
0.97712231 -0.87421799 -0.35135674 0
1.0509759 -0.84962726 -0.35127634 0
1.1500452 -0.84720773 -0.35237402 0
1.2620292 -0.85230184 -0.3534897 0
1.3406569 -0.83283806 -0.35312667 0
1.4391454 -0.85627729 -0.35356379 0
1.54009 -0.85762817 -0.35520363 0
1.6304163 -0.85252959 -0.35543022 0
1.7466873 -0.85348201 -0.35559669 0
1.8454218 -0.85465175 -0.35677442 0
1.9603163 -0.84710056 -0.35884997 0
2.067384 -0.85851592 -0.36029419 0
2.1272976 -0.8479017 -0.36085439 0
2.2391303 -0.84346771 -0.36135563 0
2.3484871 -0.84000814 -0.36177474 0
2.4579372 -0.83328104 -0.36291257 0
2.5713966 -0.8579576 -0.36367238 0
2.6613524 -0.84589678 -0.36399898 0
2.7479682 -0.8517853 -0.36452144 0
2.8491783 -0.85186309 -0.36586276 0
-3.3664601 -0.75939918 -0.30447426 0
-3.2311463 -0.72884816 -0.30674279 0
-3.1411057 -0.75593024 -0.3096706 0
-3.044673 -0.75575107 -0.31105664 0
-2.9520216 -0.75520205 -0.31258202 0
-2.8622189 -0.754152 -0.31410027 0
-2.7677922 -0.7505486 -0.31522155 0
-2.674237 -0.74572629 -0.31639472 0
-2.5496387 -0.73483753 -0.3185229 0
-2.4586003 -0.75093228 -0.31841087 0
-2.33956 -0.76209259 -0.32022628 0
-2.2587545 -0.73577124 -0.32066783 0
-2.1722648 -0.74214768 -0.32177413 0
-2.0543685 -0.74134177 -0.32327554 0
-1.9236771 -0.71928215 -0.32528201 0
-1.6518173 -0.76598746 -0.32724851 0
-1.5380986 -0.74461591 -0.32901022 0
-1.4683549 -0.75778401 -0.32776406 0
-1.3554856 -0.74568683 -0.32834238 0
-1.2332916 -0.74744791 -0.32967079 0
-1.1596581 -0.76243949 -0.3313635 0
-1.0542238 -0.74534816 -0.33337569 0
-0.97531593 -0.76573199 -0.33229762 0
1.0723799 -0.75808007 -0.35199472 0
1.1549016 -0.74281484 -0.35259929 0
1.2538218 -0.75825375 -0.35227206 0
1.3397406 -0.74447292 -0.35218814 0
1.4570792 -0.74997246 -0.35243177 0
1.5667921 -0.74194849 -0.35350466 0
1.6633205 -0.74705064 -0.35453171 0
1.7587428 -0.74511576 -0.35635841 0
1.8446438 -0.75062877 -0.35729635 0
1.9316883 -0.75398135 -0.35829714 0
2.028986 -0.76209861 -0.35909343 0
2.1344714 -0.74628544 -0.360158 0
2.2389832 -0.74704957 -0.36072412 0
2.3271036 -0.73967153 -0.36066437 0
2.4547582 -0.76090711 -0.36147809 0
2.5529525 -0.75167066 -0.36295161 0
2.6532357 -0.73987401 -0.36450058 0
2.7818639 -0.75436944 -0.36526999 0
2.8758726 -0.75777227 -0.36604339 0
-3.409306 -0.66709965 -0.30393934 0
-3.327703 -0.6510914 -0.30515105 0
-3.2394643 -0.63382596 -0.30646622 0
-3.1443861 -0.66213167 -0.30764797 0
-3.0564609 -0.64361846 -0.30903095 0
-2.9683647 -0.64734364 -0.31092259 0
-2.8807538 -0.6498121 -0.31262299 0
-2.7568855 -0.65083665 -0.31543699 0
-2.6166613 -0.6297217 -0.3180337 0
-2.5309472 -0.65143943 -0.31845534 0
-2.4645483 -0.64932251 -0.31959042 0
-2.3714602 -0.6613695 -0.31973708 0
-2.2576079 -0.6364221 -0.32087833 0
-2.1370285 -0.65131521 -0.32087767 0
-2.0377891 -0.65093911 -0.32215536 0
-1.93338 -0.64517099 -0.32285786 0
-1.4419167 -0.67885298 -0.32966304 0
-1.3434968 -0.66216075 -0.32893595 0
-1.2566319 -0.64517683 -0.32911086 0
-1.1454667 -0.65575743 -0.32956889 0
-1.0521475 -0.64668232 -0.33101454 0
1.1485933 -0.65198022 -0.35149112 0
1.2554253 -0.65256363 -0.35160598 0
1.3670566 -0.64879632 -0.35136449 0
1.4436051 -0.63936776 -0.35440844 0
1.5448034 -0.64679283 -0.35573536 0
1.6534833 -0.65908557 -0.35527632 0
1.7388874 -0.64646137 -0.35512692 0
1.8665283 -0.6347791 -0.35646257 0
1.9604002 -0.65405816 -0.35724935 0
2.0494571 -0.65136987 -0.35783836 0
2.1582074 -0.65203232 -0.35900176 0
2.2632542 -0.64853334 -0.35991398 0
2.3585956 -0.63960344 -0.36100355 0
2.4432492 -0.66255665 -0.36185685 0
2.5343292 -0.64838797 -0.36228493 0
2.6230309 -0.65109497 -0.36280113 0
2.7132556 -0.65291375 -0.3636938 0
2.8569672 -0.6703046 -0.36514729 0
2.9140213 -0.62809831 -0.36602628 0
-3.4250309 -0.57403791 -0.30386838 0
-3.3521554 -0.556759 -0.30472523 0
-3.2635922 -0.54204708 -0.30620354 0
-3.1692536 -0.54969454 -0.3076497 0
-3.0737004 -0.55585277 -0.30942813 0
-2.9570153 -0.52761596 -0.3112725 0
-2.8591766 -0.55248523 -0.31219706 0
-2.7294407 -0.55437702 -0.31414935 0
-2.6168344 -0.55105293 -0.31594568 0
-2.5294063 -0.55163139 -0.31789324 0
-2.4548371 -0.55708039 -0.31924069 0
-2.3399777 -0.5364899 -0.32032463 0
-2.2294476 -0.55330318 -0.32144764 0
-2.1429205 -0.54815471 -0.32220104 0
-2.0543077 -0.54122454 -0.32247832 0
-1.9504379 -0.53541499 -0.32253909 0
-1.8480109 -0.51531351 -0.32470554 0
-1.2665732 -0.59068197 -0.33007938 0
-1.1379465 -0.56428963 -0.33138037 0
-1.0850892 -0.57402486 -0.32895905 0
1.1823161 -0.56193995 -0.35080692 0
1.249707 -0.54552579 -0.35224271 0
1.3436042 -0.54664844 -0.35348091 0
1.4326172 -0.55058932 -0.35427612 0
1.5505184 -0.54939944 -0.35347128 0
1.6546711 -0.536327 -0.35399681 0
1.7323366 -0.56573182 -0.35431641 0
1.8271058 -0.53772688 -0.355261 0
1.9385684 -0.56167746 -0.35635984 0
2.0532262 -0.54098201 -0.35763633 0
2.1783838 -0.56690091 -0.35856801 0
2.2539659 -0.54239535 -0.35936466 0
2.3780794 -0.55430758 -0.36060548 0
2.4557045 -0.54482752 -0.36222687 0
2.5699337 -0.54106742 -0.36332726 0
2.6556461 -0.55911541 -0.36403608 0
2.7502761 -0.55859184 -0.36521143 0
2.8370554 -0.55514705 -0.36576465 0
2.9299045 -0.55154228 -0.36662975 0
-3.423362 -0.46835974 -0.30230269 0
-3.3595095 -0.45969373 -0.30339134 0
-3.2706437 -0.44753641 -0.30492905 0
-3.1817784 -0.43537909 -0.30646676 0
-3.0524898 -0.46223581 -0.30921245 0
-2.9196601 -0.44212219 -0.31177163 0
-2.8247192 -0.44839668 -0.31350958 0
-2.7322121 -0.45377544 -0.31507337 0
-2.6384032 -0.45760378 -0.31633899 0
-2.5430279 -0.4410668 -0.31776339 0
-2.4286628 -0.45718378 -0.31793106 0
-2.3261573 -0.43789101 -0.31869477 0
-2.2364736 -0.45427871 -0.31942344 0
-2.153415 -0.43740973 -0.32001773 0
-2.0740745 -0.45234013 -0.32207966 0
-1.9763924 -0.44986695 -0.32352737 0
-1.8547372 -0.44628057 -0.32372665 0
-1.7730776 -0.45369053 -0.32446951 0
-1.646971 -0.43090293 -0.32501623 0
-1.5779207 -0.41575459 -0.32460922 0
1.2552098 -0.44780028 -0.35121605 0
1.3552996 -0.4483743 -0.35300791 0
1.4591991 -0.44838658 -0.35362855 0
1.5430605 -0.4542149 -0.35428321 0
1.6515663 -0.45497021 -0.3541382 0
1.7617522 -0.45077324 -0.35473835 0
1.8532261 -0.44593179 -0.35544279 0
1.9387997 -0.45181027 -0.35683629 0
2.0241745 -0.45650551 -0.35805511 0
2.1493437 -0.452593 -0.35958776 0
2.229017 -0.45269215 -0.36029425 0
2.3211992 -0.4542211 -0.36147773 0
2.4598994 -0.45202678 -0.36213186 0
2.5805225 -0.44763437 -0.36268646 0
2.6665967 -0.44297603 -0.36295104 0
2.7530973 -0.45734379 -0.36379743 0
2.8398972 -0.45086575 -0.36418301 0
2.9368637 -0.44470456 -0.3653312 0
-3.4169528 -0.36821771 -0.30068266 0
-3.3735716 -0.36349952 -0.30155623 0
-3.2576396 -0.34329414 -0.30398098 0
-3.1512647 -0.33986413 -0.30611467 0
-3.0554667 -0.35165492 -0.30802122 0
-2.9427598 -0.36703804 -0.30995038 0
-2.8260603 -0.34549546 -0.31191528 0
-2.7393551 -0.35488796 -0.31398389 0
-2.6504676 -0.34337386 -0.31557801 0
-2.5440826 -0.34811163 -0.317332 0
-2.4432704 -0.36122918 -0.31857172 0
-2.3404069 -0.3372426 -0.31891397 0
-2.2516088 -0.35747752 -0.31955978 0
-2.1676815 -0.34415555 -0.31994998 0
-2.0537317 -0.34603176 -0.32065839 0
-1.9739835 -0.34966373 -0.32070166 0
-1.8513733 -0.34319502 -0.32347137 0
-1.7451496 -0.36739966 -0.32515004 0
-1.63696 -0.34218508 -0.32683736 0
-1.5476853 -0.35779285 -0.3259449 0
-1.4511528 -0.34918371 -0.32724115 0
-1.3660911 -0.33212504 -0.32819644 0
-1.2395864 -0.32025138 -0.33084989 0
1.2624085 -0.34226292 -0.35054407 0
1.3471712 -0.36029929 -0.35180783 0
1.4588218 -0.35120568 -0.35325643 0
1.5371271 -0.34171897 -0.3542158 0
1.642017 -0.35806268 -0.35443276 0
1.7658229 -0.3526628 -0.35491586 0
1.8534961 -0.33556882 -0.35621715 0
1.9554014 -0.35355982 -0.35643351 0
2.037159 -0.35335067 -0.35703677 0
2.1380084 -0.36318499 -0.35795107 0
2.2278881 -0.33735886 -0.35846609 0
2.3248653 -0.35202527 -0.3593978 0
2.4318128 -0.36822271 -0.36020809 0
2.549614 -0.34908298 -0.36152458 0
2.6582553 -0.33800533 -0.36201426 0
2.7723231 -0.35908705 -0.36293784 0
2.8611374 -0.34980091 -0.36396575 0
2.9476802 -0.33178928 -0.36459947 0
-3.4323561 -0.27079383 -0.30123261 0
-3.3781838 -0.26649505 -0.30223334 0
-3.2593241 -0.24943848 -0.30430746 0
-3.1398618 -0.25537431 -0.30676728 0
-3.0210021 -0.23831776 -0.30884147 0
-2.933429 -0.25259361 -0.31063744 0
-2.8442595 -0.24491791 -0.31237245 0
-2.7557945 -0.25716102 -0.31435716 0
-2.6666923 -0.24884836 -0.31611404 0
-2.5734932 -0.25869843 -0.31759894 0
-2.2656212 -0.29347101 -0.31907815 0
-2.1818786 -0.28262362 -0.3199566 0
-2.0387471 -0.27382198 -0.32106116 0
-1.845785 -0.29302543 -0.32240054 0
-1.7279183 -0.28699797 -0.32433492 0
-1.6382115 -0.27808332 -0.32523206 0
-1.5378771 -0.2781761 -0.32713482 0
-1.4378561 -0.27066845 -0.3277348 0
-1.360703 -0.26056382 -0.32663134 0
-1.2602171 -0.25603372 -0.32697636 0
-1.1935862 -0.2514101 -0.32693505 0
1.2896332 -0.25230995 -0.35217896 0
1.3593572 -0.24594936 -0.35231444 0
1.4671578 -0.25678685 -0.35275015 0
1.5306916 -0.24679089 -0.35387492 0
1.6525234 -0.24630453 -0.35448036 0
1.7590475 -0.2578634 -0.35438681 0
1.8381032 -0.25146723 -0.35514084 0
1.9609467 -0.24559435 -0.35691291 0
2.0589237 -0.25164881 -0.35783744 0
2.1421065 -0.24628097 -0.3585211 0
2.2469893 -0.24214667 -0.35946891 0
2.3438356 -0.25259709 -0.36016765 0
2.4308021 -0.26196575 -0.36078846 0
2.5181584 -0.2531383 -0.3616204 0
2.6417785 -0.25425455 -0.36285523 0
2.7619648 -0.24795082 -0.3641372 0
2.8719633 -0.24722643 -0.36512399 0
2.9647632 -0.25520793 -0.36600056 0
-3.4269423 -0.17182465 -0.30020249 0
-3.3844767 -0.16968951 -0.30105883 0
-3.2505059 -0.16297233 -0.30376065 0
-3.1165354 -0.15625516 -0.30646253 0
-3.0272217 -0.15177704 -0.30826378 0
-2.9379077 -0.14729893 -0.310065 0
-2.8485942 -0.14282081 -0.31186622 0
-2.7574139 -0.15802997 -0.31364766 0
-2.6681039 -0.15291061 -0.31541225 0
-2.5787938 -0.14779122 -0.31717685 0
1.2885926 -0.15756884 -0.34793773 0
1.3514283 -0.14278463 -0.35161152 0
1.4454297 -0.1556942 -0.35175481 0
1.5370252 -0.15613961 -0.35252053 0
1.656471 -0.13567787 -0.35421312 0
1.7451568 -0.15023744 -0.35534567 0
1.8248311 -0.16072458 -0.35660788 0
1.948163 -0.1536984 -0.35700881 0
2.0666945 -0.14825533 -0.3572236 0
2.1474378 -0.13859238 -0.35764536 0
2.2488184 -0.14511345 -0.35846111 0
2.3463304 -0.15139419 -0.35932216 0
2.4337571 -0.15703271 -0.3601011 0
2.5211837 -0.16267121 -0.36088014 0
2.6501555 -0.1519126 -0.3613795 0
2.7812786 -0.15942562 -0.36249417 0
2.8667564 -0.14378323 -0.36317706 0
2.957715 -0.13980111 -0.36420405 0
-3.3716044 -0.072495863 -0.30068368 0
-3.2564385 -0.077643514 -0.30288735 0
-3.1478419 -0.067373231 -0.30480334 0
-3.0389922 -0.057952303 -0.30642042 0
-2.9238894 -0.062887616 -0.30869883 0
-2.8343463 -0.06096597 -0.31030187 0
-2.7448034 -0.059044324 -0.31190491 0
-2.6552603 -0.057122674 -0.31350791 0
-2.5657172 -0.055201024 -0.31511098 0
1.2962582 -0.046340019 -0.34769511 0
1.3512839 -0.048360519 -0.35142997 0
1.4439747 -0.051663585 -0.35225311 0
1.5294963 -0.054705109 -0.35349813 0
1.6491448 -0.045502257 -0.35423809 0
1.7546475 -0.050166931 -0.35436773 0
1.8370705 -0.056277242 -0.35461798 0
1.9611034 -0.046964794 -0.35587096 0
2.0698802 -0.044396136 -0.35643443 0
2.1509659 -0.046138864 -0.35685754 0
2.2479887 -0.048249021 -0.35737002 0
2.3435714 -0.05031332 -0.3582491 0
2.4311855 -0.052193895 -0.35908356 0
2.5390673 -0.063822404 -0.35999632 0
2.6495814 -0.047566045 -0.36130974 0
2.7620134 -0.059297562 -0.36220318 0
2.8724432 -0.041154623 -0.36335561 0
2.9624264 -0.035303708 -0.36457458 0
-3.4329104 0.073722318 -0.30041724 0
-3.3811481 0.048449721 -0.30100432 0
-3.2570794 0.055831779 -0.30352902 0
-3.1335483 0.033456676 -0.30550593 0
-3.0232048 0.043324862 -0.30781093 0
-2.9337194 0.042043641 -0.30951259 0
-2.8442335 0.040762428 -0.31121424 0
-2.7547476 0.039481215 -0.31291586 0
-2.665262 0.038200002 -0.31461751 0
-2.5757763 0.036918785 -0.31631914 0
1.2941711 0.055618398 -0.34710056 0
1.3448775 0.0458171 -0.34986609 0
1.4389815 0.051508762 -0.35137758 0
1.5267034 0.053217016 -0.35302079 0
1.6473305 0.048817601 -0.35370949 0
1.752713 0.050188798 -0.35374585 0
1.8348147 0.057917692 -0.35388711 0
1.9575919 0.046897281 -0.35570362 0
2.0657246 0.044287462 -0.35693207 0
2.1474416 0.046045814 -0.35791326 0
2.2554042 0.048429295 -0.35923564 0
2.3558483 0.050616611 -0.35991105 0
2.4431696 0.052491363 -0.36041585 0
2.5304911 0.054366112 -0.36092067 0
2.637722 0.047006633 -0.36132863 0
2.7480967 0.068707354 -0.36216548 0
2.8551242 0.047599167 -0.36313877 0
2.9597507 0.042401779 -0.36345774 0
-3.4329638 0.17213079 -0.30072999 0
-3.3736491 0.16914034 -0.30175623 0
-3.2841263 0.16465163 -0.3033064 0
-3.1498427 0.15791856 -0.30563164 0
-3.0155587 0.15118551 -0.3079569 0
-2.9260364 0.14669681 -0.30950707 0
-2.8365138 0.14220808 -0.31105724 0
-2.7418048 0.15708275 -0.31225312 0
-2.6522563 0.1519492 -0.3137255 0
-2.5627077 0.14681566 -0.31519794 0
1.2902709 0.15792646 -0.34843084 0
1.3493587 0.14274959 -0.35098973 0
1.4441699 0.14846493 -0.35131514 0
1.5346404 0.15492968 -0.35197085 0
1.6543453 0.14007723 -0.35336637 0
1.7423314 0.1499542 -0.35382387 0
1.8298068 0.15524511 -0.35457978 0
1.9623688 0.15480244 -0.35618255 0
2.0613856 0.14780343 -0.3564108 0
2.1425848 0.15362351 -0.35711628 0
2.2470891 0.14499441 -0.35826075 0
2.344975 0.15130861 -0.3589581 0
2.4322035 0.15693428 -0.35955676 0
2.5194323 0.16255994 -0.36015543 0
2.6484475 0.1518244 -0.3605842 0
2.7793365 0.15932521 -0.36148703 0
2.8700256 0.14387798 -0.36232552 0
2.9514172 0.14795005 -0.36286774 0
-3.427916 0.27037814 -0.30084249 0
-3.3649979 0.26550508 -0.30187169 0
-3.275598 0.25845394 -0.30337068 0
-3.1587207 0.25666884 -0.30539992 0
-3.0348768 0.23203444 -0.30733737 0
-2.9179995 0.23024933 -0.30936664 0
-2.8416591 0.25508669 -0.30991831 0
-2.733845 0.25499475 -0.31209084 0
-2.6445799 0.24666514 -0.31360671 0
-2.5491009 0.25613418 -0.3145873 0
-2.2492168 0.29134613 -0.31687504 0
-2.1654055 0.28048983 -0.31760359 0
-2.0753388 0.28390759 -0.31771606 0
-1.9915576 0.27244467 -0.31837726 0
-1.8407781 0.29223058 -0.32330745 0
-1.7235994 0.28629911 -0.32378215 0
-1.6463476 0.27750647 -0.32453883 0
-1.5541048 0.28101832 -0.32339779 0
-1.4492669 0.27286401 -0.32386097 0
-1.3604437 0.26018637 -0.32380322 0
-1.247581 0.23036253 -0.32621714 0
-1.1918496 0.23322266 -0.32541975 0
1.2754185 0.24951336 -0.34829649 0
1.3485349 0.24379285 -0.34999481 0
1.4534318 0.25182468 -0.35213256 0
1.5301037 0.2508623 -0.35302034 0
1.6564772 0.25081447 -0.35187602 0
1.7680722 0.25474426 -0.35106775 0
1.8776454 0.2431283 -0.35316265 0
1.9586009 0.25361836 -0.35412407 0
2.0413315 0.24946837 -0.35489914 0
2.1386769 0.26935801 -0.3556776 0
2.2341678 0.24077003 -0.35749313 0
2.3316462 0.25129774 -0.35831425 0
2.4186547 0.26067463 -0.35902998 0
2.5475256 0.25607884 -0.35956135 0
2.6660314 0.23927826 -0.36132109 0
2.7716954 0.25852957 -0.3618778 0
2.8633218 0.24644494 -0.36224785 0
2.9435387 0.25332463 -0.36276582 0
-3.4203818 0.36862463 -0.30098474 0
-3.3433473 0.36027998 -0.30208421 0
-3.2540159 0.35065311 -0.30336457 0
-3.1646848 0.34102625 -0.30464494 0
-3.0746567 0.35362849 -0.3060036 0
-2.9854224 0.343366 -0.30731249 0
-2.8499961 0.34847075 -0.30942824 0
-2.7133925 0.35148373 -0.31134221 0
-2.6242828 0.33994141 -0.31262204 0
-2.5246551 0.35154212 -0.3143042 0
-2.4338589 0.35082287 -0.31508753 0
-2.332371 0.33622393 -0.31628689 0
-2.2465641 0.35672829 -0.3173593 0
-2.1633339 0.34351686 -0.31832543 0
-2.0529981 0.34423456 -0.32108805 0
-1.9690214 0.35607108 -0.32056332 0
-1.8685656 0.3517426 -0.3211782 0
-1.7530801 0.35208026 -0.32242426 0
-1.6355454 0.34580547 -0.32326829 0
-1.5462798 0.35520154 -0.32450661 0
-1.4395469 0.35745373 -0.32526684 0
-1.3715571 0.35090482 -0.32688922 0
1.252129 0.34915307 -0.3484098 0
1.3498862 0.35570583 -0.34887701 0
1.4660991 0.3514671 -0.35005221 0
1.5581648 0.35136312 -0.35202333 0
1.6458771 0.3613202 -0.35249755 0
1.766363 0.35990125 -0.35339355 0
1.8617324 0.35061997 -0.35329852 0
1.9419056 0.3513082 -0.35386384 0
2.0495417 0.35557255 -0.35524774 0
2.1673121 0.35219571 -0.35719296 0
2.2335656 0.33831048 -0.35782087 0
2.3397408 0.3455987 -0.35807487 0
2.464823 0.36112359 -0.35925093 0
2.5653291 0.34183425 -0.36044061 0
2.671031 0.34590998 -0.3608377 0
2.7578042 0.35714948 -0.36154532 0
2.846302 0.34795365 -0.36256269 0
2.9385724 0.35068899 -0.36371621 0
-3.4103849 0.46660873 -0.301157 0
-3.3354115 0.45632327 -0.30226234 0
-3.2464128 0.44414657 -0.30357701 0
-3.157414 0.43196988 -0.30489171 0
-3.0630941 0.46385121 -0.30688423 0
-2.9741712 0.45038554 -0.30809331 0
-2.8820908 0.45755863 -0.30945626 0
-2.7716885 0.44002733 -0.31100431 0
-2.6332674 0.45677704 -0.31296551 0
-2.5228715 0.43762946 -0.31441662 0
-2.4463453 0.44240043 -0.31521681 0
-2.332612 0.44791567 -0.31611434 0
-2.2271767 0.45236871 -0.31715009 0
-2.1392922 0.45043534 -0.31770733 0
-2.0525832 0.44757271 -0.31843722 0
-1.9556867 0.44509956 -0.31971014 0
-1.8463724 0.44440204 -0.32128507 0
-1.7651018 0.45155722 -0.32194871 0
-1.6465797 0.42678118 -0.32377267 0
-1.5863346 0.43626991 -0.32346135 0
-1.4963286 0.41724774 -0.32398337 0
1.1954771 0.47663128 -0.34488267 0
1.2569479 0.44597611 -0.34761685 0
1.3611304 0.45413861 -0.3487702 0
1.4360379 0.45967841 -0.34872675 0
1.550101 0.4509795 -0.34935328 0
1.6681751 0.43698519 -0.3514525 0
1.7500517 0.45531926 -0.35189214 0
1.8361421 0.45571309 -0.35275692 0
1.9256814 0.44877234 -0.35416588 0
2.0302873 0.45792294 -0.35534641 0
2.1625621 0.4602347 -0.3561928 0
2.2296522 0.44050801 -0.35669419 0
2.3609483 0.45340869 -0.35772896 0
2.4607728 0.43607453 -0.35914594 0
2.5641725 0.46363267 -0.35948265 0
2.6607428 0.44188264 -0.36058912 0
2.7468598 0.45618686 -0.36109015 0
2.8404346 0.45092797 -0.36172393 0
2.9123592 0.46230298 -0.36207873 0
-3.4153693 0.56729347 -0.30301842 0
-3.3243623 0.55216575 -0.30417058 0
-3.2355514 0.53741419 -0.30529541 0
-3.1438675 0.54535073 -0.30662015 0
-3.05142 0.55184156 -0.30784294 0
-2.9588783 0.55699825 -0.30909833 0
-2.8676224 0.56107849 -0.31035495 0
-2.7791805 0.54377347 -0.31139696 0
-2.6832907 0.54492706 -0.31214228 0
-2.5519671 0.54140127 -0.31315762 0
-2.4753325 0.55038393 -0.3130236 0
-2.3595786 0.54129076 -0.31489494 0
-2.237452 0.54852045 -0.31619409 0
-2.1148646 0.55719453 -0.31795046 0
-2.0295086 0.55027962 -0.31886354 0
-1.9394616 0.54087549 -0.31996343 0
-1.8616468 0.51911592 -0.31950182 0
-1.2418262 0.58987629 -0.32602525 0
-1.1443594 0.55922949 -0.32732376 0
-1.0873549 0.5653888 -0.32843024 0
1.1674422 0.55484784 -0.34645033 0
1.2469455 0.54944474 -0.3475605 0
1.3620658 0.55852658 -0.34720656 0
1.4360106 0.5399822 -0.34832719 0
1.5482818 0.53784269 -0.34998488 0
1.6472629 0.54963779 -0.35108727 0
1.7369868 0.55434537 -0.3519564 0
1.8594124 0.55020964 -0.35281837 0
1.9636929 0.5505321 -0.3541165 0
2.0666969 0.54455209 -0.35530317 0
2.1686101 0.55474126 -0.35619465 0
2.2736595 0.54711622 -0.3571842 0
2.358598 0.56755471 -0.35779011 0
2.4542892 0.55363429 -0.35898891 0
2.5400732 0.55385375 -0.35953358 0
2.6298037 0.55373299 -0.36003211 0
2.7197866 0.55238867 -0.36047292 0
2.8286338 0.55344558 -0.36115402 0
2.900975 0.52461106 -0.36197186 0
-3.4084656 0.66187799 -0.30392581 0
-3.3375072 0.66143584 -0.30491695 0
-3.2213883 0.6302985 -0.30618697 0
-3.1451128 0.67020893 -0.30723557 0
-3.0212948 0.65870696 -0.30791822 0
-2.9241691 0.6595397 -0.30849251 0
-2.8361006 0.63967538 -0.3093228 0
-2.7473738 0.64042801 -0.31068894 0
-2.6524482 0.65849978 -0.31183413 0
-2.5653212 0.65631676 -0.31328821 0
-2.4629431 0.64893812 -0.31424749 0
-2.3506582 0.65545386 -0.31543076 0
-2.265234 0.64915782 -0.3163304 0
-2.178086 0.64113402 -0.31709966 0
-2.0693138 0.64137352 -0.31840426 0
-1.9624285 0.64968181 -0.31807414 0
-1.8963453 0.66303766 -0.31818873 0
-1.5142021 0.68456858 -0.32302001 0
-1.4418972 0.67268836 -0.32352233 0
-1.3379349 0.65952772 -0.32479057 0
-1.2434446 0.64562404 -0.32454202 0
-1.1551983 0.64939457 -0.32671106 0
-1.0502727 0.6558218 -0.32656249 0
1.1444428 0.6608932 -0.34699321 0
1.2565112 0.64189887 -0.3470974 0
1.3609086 0.65023398 -0.34919786 0
1.4481852 0.65071183 -0.34976405 0
1.5488242 0.65626514 -0.34943071 0
1.657143 0.66065377 -0.34979814 0
1.7401625 0.64467442 -0.35210532 0
1.8546401 0.66331196 -0.35241395 0
1.946064 0.6492877 -0.35330412 0
2.0329208 0.64611083 -0.35424507 0
2.139926 0.64646757 -0.35543469 0
2.2427254 0.64269358 -0.35636482 0
2.3267539 0.66677409 -0.35704008 0
2.4205592 0.65637159 -0.35754487 0
2.5371833 0.64905143 -0.35843241 0
2.6518018 0.65850842 -0.35945162 0
2.7500103 0.6410349 -0.36135089 0
2.8802273 0.6409694 -0.3625392 0
-3.4045074 0.74235398 -0.30485404 0
-3.3705912 0.77296686 -0.30384004 0
-3.276444 0.73899704 -0.30517134 0
-3.1817212 0.76574159 -0.30655125 0
-3.0656776 0.74540144 -0.30804992 0
-2.942878 0.76054662 -0.31010753 0
-2.8233984 0.74392432 -0.31103656 0
-2.7261925 0.7602101 -0.31188533 0
-2.6349843 0.75512588 -0.31273541 0
-2.5424607 0.74833488 -0.31351182 0
-2.4417973 0.75216568 -0.31485808 0
-2.3495843 0.75303507 -0.31617585 0
-2.2412684 0.7656492 -0.31528383 0
-2.1351867 0.74647635 -0.31615067 0
-2.0484698 0.74939311 -0.31703579 0
-1.961524 0.74956816 -0.31842574 0
-1.8618481 0.75740588 -0.32011542 0
-1.7308431 0.77753949 -0.32146832 0
-1.652072 0.756383 -0.3214393 0
-1.577855 0.73617649 -0.3225466 0
-1.4675491 0.75841582 -0.3242358 0
-1.3526672 0.74062759 -0.32483149 0
-1.2427796 0.738123 -0.32626081 0
-1.1600842 0.7613855 -0.3264021 0
-1.0368578 0.75275183 -0.32756251 0
-0.96156031 0.75485522 -0.32765433 0
1.0591398 0.75049174 -0.3454504 0
1.148688 0.75199074 -0.34667909 0
1.2570373 0.75874621 -0.34654066 0
1.3336726 0.73875993 -0.34726545 0
1.4550884 0.75011188 -0.34888339 0
1.5463583 0.74472469 -0.35058036 0
1.6407317 0.75124013 -0.35081118 0
1.729339 0.74733448 -0.35090533 0
1.8455641 0.76005477 -0.35175177 0
1.9497505 0.74523503 -0.35304868 0
2.0680299 0.76039219 -0.35334146 0
2.1345735 0.73678666 -0.35454068 0
2.2498865 0.75096434 -0.35579175 0
2.3655734 0.75182211 -0.35691375 0
2.4746957 0.76703143 -0.35791987 0
2.5591459 0.73337471 -0.35895914 0
2.6700354 0.74454957 -0.35971925 0
2.7576993 0.74778599 -0.3599335 0
2.8384705 0.74792886 -0.36042503 0
-3.3786657 0.86442685 -0.30636239 0
-3.2660027 0.83558404 -0.30732083 0
-3.1671569 0.85878348 -0.30799049 0
-3.0799212 0.83512998 -0.30875969 0
-2.9552507 0.83943242 -0.30968666 0
-2.8564537 0.85573107 -0.3104997 0
-2.7326679 0.86121124 -0.3118422 0
-2.6180716 0.83211905 -0.31328025 0
-2.5572 0.85344481 -0.31316274 0
-2.4362829 0.85182875 -0.31296977 0
-2.3754647 0.86515749 -0.31332761 0
-2.2623973 0.8550325 -0.31495398 0
-2.1516862 0.8486166 -0.31684604 0
-2.0377519 0.86340046 -0.31880635 0
-1.9284567 0.84978175 -0.31959417 0
-1.8363323 0.85851985 -0.31953943 0
-1.745047 0.84458154 -0.32040176 0
-1.640313 0.84560537 -0.32212898 0
-1.5415425 0.84393692 -0.32281613 0
-1.4358451 0.85436904 -0.32382351 0
-1.3534791 0.85724258 -0.32409212 0
-1.2366381 0.84809113 -0.32608005 0
-1.138391 0.84299481 -0.32582214 0
-1.0663141 0.85524827 -0.32652113 0
-0.95373249 0.84117603 -0.32735202 0
-0.86843878 0.85911936 -0.32742012 0
0.94961166 0.86198664 -0.34378219 0
1.04633 0.84311986 -0.34631866 0
1.1540322 0.85372102 -0.34669787 0
1.2363126 0.84880638 -0.34679109 0
1.3385772 0.84919912 -0.34702682 0
1.4361812 0.84348804 -0.34808448 0
1.5579236 0.86219019 -0.35012671 0
1.6409681 0.8383885 -0.35057789 0
1.763162 0.83494413 -0.35134912 0
1.8606842 0.85193574 -0.35141009 0
1.9520851 0.8435905 -0.35213235 0
2.0542352 0.85299724 -0.35362187 0
2.1580868 0.86009783 -0.35480252 0
2.2518232 0.86048025 -0.35555589 0
2.3427124 0.85692883 -0.35574675 0
2.4391348 0.8526957 -0.35660729 0
2.5384431 0.84689856 -0.35769022 0
2.6366301 0.83796626 -0.35909566 0
2.7493026 0.8594777 -0.36022982 0
2.8188438 0.83701009 -0.36110666 0
-3.3502948 0.96012217 -0.30595303 0
-3.2356179 0.95235473 -0.30682635 0
-3.1424198 0.94940913 -0.30765319 0
-3.0531719 0.94640613 -0.30864325 0
-2.9492559 0.96055317 -0.30918077 0
-2.8570514 0.9531517 -0.31007391 0
-2.7629671 0.94379306 -0.31093767 0
-2.6567245 0.95027709 -0.31099343 0
-2.5594542 0.9569869 -0.31193319 0
-2.4668341 0.94255376 -0.31244868 0
-2.3637674 0.95054436 -0.31486297 0
-2.2521465 0.95424312 -0.31672275 0
-2.1602716 0.95193022 -0.31710386 0
-2.0651476 0.94544291 -0.31713355 0
-1.9670206 0.95228159 -0.31796199 0
-1.8726705 0.9566583 -0.31905034 0
-1.7591519 0.95302004 -0.31945303 0
-1.6450143 0.94714653 -0.32147554 0
-1.5588925 0.9426204 -0.32235724 0
-1.4620895 0.95721793 -0.32347679 0
-1.3552068 0.94914049 -0.32467571 0
-1.2433468 0.94963461 -0.32493541 0
-1.140817 0.94972247 -0.32559058 0
-1.0441617 0.94581562 -0.326428 0
-0.95899028 0.95158017 -0.32615653 0
-0.83987987 0.94523275 -0.32816389 0
-0.750862 0.96364665 -0.32737923 0
0.7929008 0.988033 -0.33945006 0
0.84903669 0.95556968 -0.34261355 0
0.95375413 0.94676858 -0.34457362 0
1.0567759 0.9592483 -0.34506613 0
1.1581731 0.95001614 -0.34651774 0
1.2604051 0.94633573 -0.34689355 0
1.3463112 0.9519062 -0.34678295 0
1.4610926 0.96332127 -0.34753948 0
1.5339878 0.94656104 -0.35085541 0
1.644683 0.9626587 -0.35022521 0
1.7566334 0.95214748 -0.35136577 0
1.8584703 0.94950879 -0.35223496 0
1.9632635 0.95058227 -0.35117558 0
2.026984 0.93066937 -0.35177621 0
2.141166 0.94976598 -0.35345384 0
2.2523646 0.95429385 -0.35451719 0
2.352783 0.95760643 -0.356336 0
2.4538641 0.95778334 -0.35766479 0
2.5551994 0.94865537 -0.35781756 0
2.6509485 0.94119072 -0.3580811 0
2.7470112 0.93120909 -0.35891446 0
-3.3209732 1.0554852 -0.30563721 0
-3.2191219 1.0485121 -0.30692694 0
-3.1567988 1.0535052 -0.30713484 0
-3.0351543 1.0529402 -0.30789867 0
-2.916471 1.0431699 -0.3095797 0
-2.8463554 1.0489656 -0.30929181 0
-2.746115 1.0569333 -0.31025699 0
-2.6310744 1.0487767 -0.31207544 0
-2.542989 1.0560234 -0.31389558 0
-2.4498835 1.0379338 -0.31465411 0
-2.3360591 1.0471212 -0.31480467 0
-2.2609978 1.0484285 -0.31460953 0
-2.1560571 1.0438098 -0.31619632 0
-2.0497594 1.0547111 -0.31742477 0
-1.931428 1.0575213 -0.3174718 0
-1.8267339 1.0519787 -0.31970221 0
-1.7355247 1.0493975 -0.32124448 0
-1.6730056 1.0560135 -0.32042471 0
-1.5545329 1.0497638 -0.32164803 0
-1.4503329 1.0508145 -0.32245666 0
-1.3418317 1.0379342 -0.32440621 0
-1.2602267 1.0643141 -0.32405186 0
-1.1518426 1.0454973 -0.32476845 0
-1.0538324 1.0426701 -0.32546428 0
-0.94603449 1.0453867 -0.32671699 0
-0.86566502 1.0603108 -0.3275274 0
-0.74487299 1.0457885 -0.32941669 0
-0.6495285 1.0484248 -0.33060217 0
-0.57086951 1.0882422 -0.32930133 0
0.66862923 1.0793458 -0.34024897 0
0.75629121 1.0455893 -0.34137589 0
0.85683429 1.0521439 -0.34146965 0
0.94810212 1.0388412 -0.34382266 0
1.0505104 1.058658 -0.34491375 0
1.146232 1.0404693 -0.34532189 0
1.2595783 1.0483373 -0.34691414 0
1.373649 1.0678583 -0.34612617 0
1.438009 1.0462314 -0.34693885 0
1.5503217 1.0467422 -0.34850138 0
1.6463774 1.0608991 -0.34995934 0
1.7537459 1.0434722 -0.35102263 0
1.8464005 1.0454972 -0.35162234 0
1.9566736 1.0470284 -0.35242423 0
2.0591908 1.0520828 -0.3530378 0
2.1555483 1.0435491 -0.35294613 0
2.2478349 1.0486742 -0.35350525 0
2.3472149 1.0543909 -0.35498032 0
2.4444854 1.0563582 -0.35603014 0
2.5460601 1.0572106 -0.35746613 0
2.6449175 1.054142 -0.35876036 0
2.7396138 1.0355567 -0.35978818 0
-3.3023984 1.1281648 -0.30531606 0
-3.2801781 1.1601474 -0.3063783 0
-3.1610432 1.1562084 -0.30680707 0
-3.0676937 1.147024 -0.3077623 0
-2.9736552 1.1362083 -0.30823714 0
-2.8552654 1.1458696 -0.31004563 0
-2.7348955 1.1435256 -0.31148145 0
-2.648859 1.1450138 -0.31218585 0
-2.5603974 1.1430322 -0.31240672 0
-2.4566348 1.1391654 -0.31270865 0
-2.3495791 1.1477044 -0.31509164 0
-2.2636583 1.1564304 -0.31556031 0
-2.1539233 1.1395053 -0.31620845 0
-2.051204 1.1616679 -0.31697452 0
-1.9693941 1.1528513 -0.31841734 0
-1.8695505 1.1487603 -0.31920773 0
-1.757874 1.1508127 -0.31872702 0
-1.6452383 1.1456257 -0.31968629 0
-1.5387125 1.1553754 -0.32163635 0
-1.4437958 1.1501851 -0.32240754 0
-1.35206 1.1486698 -0.32215855 0
-1.2432275 1.1449463 -0.32322887 0
-1.1697896 1.1573628 -0.3251487 0
-1.0519983 1.1364499 -0.32587209 0
-0.95320255 1.1511319 -0.32567284 0
-0.83698016 1.140009 -0.32756978 0
-0.74988681 1.1498501 -0.3269951 0
-0.65508592 1.1477711 -0.32955042 0
-0.54200828 1.1510586 -0.32867983 0
-0.45382324 1.1509628 -0.33160573 0
-0.35175598 1.1800007 -0.33002758 0
0.45293081 1.172536 -0.33690557 0
0.5588426 1.1586972 -0.33957067 0
0.64169538 1.1490637 -0.34050938 0
0.75349563 1.1521432 -0.34135923 0
0.86417943 1.1630331 -0.34133166 0
0.94477373 1.1388956 -0.34232646 0
1.0345364 1.1477715 -0.34481278 0
1.1374745 1.1533991 -0.34458169 0
1.2449188 1.1464639 -0.34571925 0
1.3534243 1.1428559 -0.34666795 0
1.4589537 1.1623521 -0.34721029 0
1.5533198 1.1490046 -0.34786296 0
1.6719317 1.1465738 -0.34923649 0
1.7491938 1.1454688 -0.3505291 0
1.8584325 1.1583629 -0.35082653 0
1.9354057 1.1366718 -0.35277444 0
2.0469601 1.1591939 -0.35281587 0
2.1474326 1.1428429 -0.354467 0
2.241009 1.1517866 -0.35472146 0
2.3445659 1.155835 -0.35430777 0
2.4517014 1.1582503 -0.355212 0
2.5523415 1.1614028 -0.35686603 0
2.6591513 1.1491071 -0.35773551 0
-3.2524955 1.2427922 -0.30592445 0
-3.1346865 1.2495005 -0.30722767 0
-3.0426478 1.2635124 -0.30771303 0
-2.9482453 1.2490826 -0.30876425 0
-2.8437235 1.2530551 -0.30950686 0
-2.7378318 1.2535108 -0.31026992 0
-2.6406043 1.2551492 -0.31118712 0
-2.5433986 1.2538575 -0.31226501 0
-2.44942 1.2513394 -0.31358618 0
-2.3500912 1.2433702 -0.31444323 0
-2.2394919 1.2447852 -0.31538314 0
-2.1464343 1.2480619 -0.31603384 0
-2.049886 1.2599831 -0.31703854 0
-1.9530346 1.2390602 -0.31752405 0
-1.8638521 1.2523216 -0.31765771 0
-1.7676055 1.2497997 -0.31839678 0
-1.6426418 1.2438328 -0.32026497 0
-1.550959 1.2648717 -0.3196682 0
-1.4515331 1.2474668 -0.3207936 0
-1.3445432 1.2524558 -0.32177043 0
-1.2512558 1.25578 -0.32454675 0
-1.1434847 1.2342784 -0.32488883 0
-1.0621361 1.2586398 -0.32479069 0
-0.95703775 1.2464653 -0.32596919 0
-0.85679883 1.2462732 -0.32653344 0
-0.74816316 1.2328473 -0.32836825 0
-0.65288109 1.255702 -0.32862481 0
-0.55811012 1.2507716 -0.32921639 0
-0.45412654 1.2557853 -0.33028388 0
-0.35349181 1.2510283 -0.33069175 0
-0.25260082 1.2416517 -0.33138424 0
-0.15492739 1.2467124 -0.33093512 0
-0.048929624 1.2437011 -0.33357421 0
0.049163204 1.2462279 -0.33428487 0
0.14778623 1.2456235 -0.33617306 0
0.24843462 1.2556671 -0.33598933 0
0.35210738 1.2457308 -0.33778763 0
0.45083624 1.2464867 -0.33754483 0
0.54230088 1.2564279 -0.33838221 0
0.66217124 1.2567621 -0.33963874 0
0.73993725 1.260637 -0.33888212 0
0.83891267 1.2370805 -0.34299308 0
0.95109278 1.2414199 -0.34198669 0
1.0383976 1.2566246 -0.3433862 0
1.1523299 1.2691308 -0.34410805 0
1.252669 1.2421556 -0.34476665 0
1.3479866 1.2492532 -0.34641576 0
1.4445471 1.2499052 -0.34591261 0
1.5456293 1.2491894 -0.34765366 0
1.6536601 1.2529507 -0.34833604 0
1.7674007 1.2560639 -0.35007012 0
1.836709 1.2404225 -0.3517518 0
1.9354607 1.2474576 -0.351381 0
2.0373809 1.2519376 -0.35203102 0
2.1422451 1.2539158 -0.35319805 0
2.2479258 1.2517697 -0.35481873 0
2.342721 1.2609072 -0.35573182 0
2.4507258 1.2520213 -0.35601312 0
2.5399668 1.2521594 -0.35563669 0
2.6221557 1.2462146 -0.35648057 0
-3.2193592 1.3368772 -0.30552754 0
-3.1457338 1.3597403 -0.30632532 0
-3.0499358 1.344003 -0.30747962 0
-2.9423809 1.3472201 -0.30786201 0
-2.8790867 1.3684177 -0.30891663 0
-2.7685454 1.3483166 -0.30998078 0
-2.6464727 1.3520329 -0.3109082 0
-2.5510907 1.3496886 -0.31205338 0
-2.4561322 1.3601915 -0.31281152 0
-2.3558996 1.3491735 -0.31341997 0
-2.2849941 1.3595037 -0.31448895 0
-2.1689625 1.3543816 -0.31573212 0
-2.0316632 1.3508853 -0.3158288 0
-1.9441861 1.3333011 -0.31678644 0
-1.8432963 1.3594201 -0.31775844 0
-1.7335573 1.3408642 -0.31861258 0
-1.6573161 1.346548 -0.31943375 0
-1.5423698 1.3471462 -0.3197169 0
-1.457798 1.3619901 -0.31970838 0
-1.3455786 1.3504889 -0.32252759 0
-1.2430284 1.3400159 -0.32351303 0
-1.1487317 1.350439 -0.32327226 0
-1.0395128 1.333968 -0.32563487 0
-0.95039254 1.3615431 -0.32538781 0
-0.85323286 1.3552303 -0.32795221 0
-0.74079424 1.3581363 -0.3282252 0
-0.6481958 1.3515075 -0.3291426 0
-0.55153829 1.3332056 -0.32875225 0
-0.44674513 1.355486 -0.32988605 0
-0.35376969 1.3630188 -0.33099741 0
-0.25632867 1.3566475 -0.32982925 0
-0.14502697 1.3450551 -0.3332653 0
-0.052831598 1.3434426 -0.33347175 0
0.048476804 1.3431875 -0.33423465 0
0.14962292 1.3452342 -0.33575758 0
0.24039181 1.356812 -0.33638048 0
0.35902512 1.3679221 -0.33512211 0
0.45686758 1.3653195 -0.33755532 0
0.55441648 1.353407 -0.33801004 0
0.65018219 1.3308165 -0.3393546 0
0.75494385 1.3594276 -0.33981872 0
0.84166431 1.34946 -0.34047982 0
0.94664115 1.3448697 -0.34199637 0
1.0578092 1.357442 -0.34297058 0
1.1529142 1.3518106 -0.34547248 0
1.2692277 1.3488834 -0.34489873 0
1.3747345 1.3600446 -0.34565732 0
1.4485021 1.3535537 -0.34732592 0
1.5456624 1.3436817 -0.34675598 0
1.6321399 1.3388743 -0.3472327 0
1.7372189 1.343698 -0.3485893 0
1.8549325 1.3515663 -0.35019153 0
1.9716388 1.3520913 -0.3517105 0
2.0719039 1.3564972 -0.35210824 0
2.1729782 1.3568413 -0.35283715 0
2.2517993 1.3544899 -0.35307464 0
2.362015 1.3448764 -0.35536778 0
2.4467885 1.3399661 -0.35708088 0
2.5530384 1.3366132 -0.35722181 0
-3.1700046 1.4421721 -0.30589435 0
-3.0483682 1.4489526 -0.30684307 0
-2.9482734 1.4534403 -0.30780143 0
-2.8509591 1.4564797 -0.30855134 0
-2.7488792 1.4543546 -0.30968866 0
-2.6473751 1.4494509 -0.3105866 0
-2.5481958 1.4429868 -0.31166393 0
-2.4401832 1.4518386 -0.31269425 0
-2.3333833 1.4571015 -0.31379917 0
-2.2366259 1.4415032 -0.31473076 0
-2.1217508 1.4496483 -0.31463033 0
-2.059304 1.4560639 -0.31550384 0
-1.9650803 1.4536896 -0.31639647 0
-1.8572404 1.4579401 -0.31709275 0
-1.7438555 1.451427 -0.31741315 0
-1.6508431 1.4353684 -0.31829563 0
-1.5517535 1.4454257 -0.31910187 0
-1.4278891 1.4329669 -0.32152373 0
-1.3640723 1.4634342 -0.32209101 0
-1.2524533 1.4511601 -0.32207564 0
-1.1368093 1.4375029 -0.32464752 0
-1.0494143 1.4420096 -0.32446846 0
-0.94408667 1.4485137 -0.3266663 0
-0.84094363 1.4485341 -0.32762831 0
-0.75328392 1.4723333 -0.32816306 0
-0.64881414 1.4306241 -0.32851774 0
-0.55290991 1.4628162 -0.32780361 0
-0.45509154 1.4448273 -0.33007708 0
-0.32766175 1.4410361 -0.331723 0
-0.23704778 1.4373953 -0.33095366 0
-0.15082635 1.4410472 -0.33188412 0
-0.051922962 1.4439315 -0.33386213 0
0.043411367 1.4463618 -0.33452013 0
0.15048456 1.4449061 -0.33560136 0
0.25578287 1.4343263 -0.33663943 0
0.34323135 1.441115 -0.3367168 0
0.44829884 1.4644549 -0.3369396 0
0.55077666 1.4463159 -0.33771017 0
0.6441986 1.4476657 -0.33911121 0
0.7611804 1.4460074 -0.34052461 0
0.84778881 1.4603875 -0.34063059 0
0.94829828 1.4534693 -0.34013256 0
1.0488245 1.4284979 -0.34233856 0
1.144456 1.4471992 -0.34323865 0
1.2397444 1.4490235 -0.34535086 0
1.3389604 1.4350731 -0.34545949 0
1.4493991 1.4546268 -0.34607601 0
1.55185 1.4497206 -0.34799683 0
1.6508744 1.4351462 -0.34697977 0
1.7507061 1.4571967 -0.34762159 0
1.8530978 1.4546518 -0.34982485 0
1.9493222 1.4566005 -0.35013184 0
2.0399926 1.4497752 -0.35161269 0
2.1278994 1.4370714 -0.35255453 0
2.2351182 1.4633265 -0.35297805 0
2.3338029 1.4341087 -0.35366574 0
2.4433119 1.4536643 -0.35400772 0
2.5349417 1.4274184 -0.35732147 0
-3.1322227 1.5440212 -0.30570236 0
-3.0483875 1.5573637 -0.30633879 0
-2.9496303 1.5605414 -0.30696028 0
-2.8480029 1.5593474 -0.30864146 0
-2.739336 1.5512159 -0.30904958 0
-2.6477563 1.5498171 -0.31060821 0
-2.5493457 1.5584556 -0.31104067 0
-2.4544113 1.5491366 -0.31231871 0
-2.3603921 1.5693754 -0.31234649 0
-2.2638783 1.5526328 -0.31319338 0
-2.1508732 1.5672883 -0.31478277 0
-2.0408583 1.5380353 -0.31471026 0
-1.9412558 1.5464839 -0.31628808 0
-1.8626661 1.5730066 -0.31615052 0
-1.7532952 1.5508215 -0.31725711 0
-1.6489624 1.5629221 -0.31776145 0
-1.5605453 1.5439203 -0.31931302 0
-1.449929 1.5409715 -0.32096806 0
-1.3520151 1.5282563 -0.32121226 0
-1.2669848 1.5556978 -0.32184535 0
-1.1591513 1.5369407 -0.32361445 0
-1.052359 1.5463334 -0.32432973 0
-0.94597363 1.5516596 -0.32635134 0
-0.84211576 1.5514021 -0.3271437 0
-0.74583358 1.5338531 -0.3275575 0
-0.65145689 1.544306 -0.32848638 0
-0.55386001 1.5586262 -0.32820338 0
-0.44524997 1.557297 -0.3298606 0
-0.35454774 1.5460585 -0.32970938 0
-0.25328162 1.5597088 -0.33117175 0
-0.15287282 1.5488381 -0.33159989 0
-0.051515263 1.5499097 -0.33340368 0
0.047394138 1.550262 -0.33373699 0
0.15051498 1.5534341 -0.33457285 0
0.24508575 1.5407429 -0.33580387 0
0.34151021 1.5569419 -0.33629963 0
0.44623572 1.5361658 -0.33637768 0
0.54642296 1.5539557 -0.33794609 0
0.65073615 1.5512908 -0.33858588 0
0.74726474 1.5580891 -0.34080741 0
0.84869516 1.536936 -0.34134144 0
0.95364857 1.5645155 -0.34088376 0
1.0556872 1.5371543 -0.34117198 0
1.1496691 1.5425155 -0.34339356 0
1.2366245 1.5593046 -0.34367424 0
1.3455381 1.5366042 -0.34536192 0
1.4353514 1.5474823 -0.3463853 0
1.5454248 1.5509852 -0.34775949 0
1.6411867 1.5481296 -0.34833971 0
1.7573179 1.5499132 -0.34774229 0
1.8550159 1.5592351 -0.34847212 0
1.9422387 1.5549377 -0.35010543 0
2.0462904 1.5595758 -0.35088184 0
2.1495492 1.5428909 -0.3521401 0
2.2479188 1.5652786 -0.35256329 0
2.362901 1.5469913 -0.35366365 0
2.4390461 1.5473456 -0.35468248 0
-3.0700502 1.6525044 -0.30573595 0
-2.9513152 1.6434388 -0.30711973 0
-2.8498788 1.6408995 -0.30804047 0
-2.7385743 1.6560317 -0.30906776 0
-2.6396768 1.6483587 -0.31014043 0
-2.5294499 1.6559331 -0.31113729 0
-2.4377434 1.6718661 -0.31129798 0
-2.3635852 1.6456697 -0.31201327 0
-2.2627268 1.6656355 -0.31309512 0
-2.1787305 1.6604767 -0.31268549 0
-2.0519156 1.6346998 -0.31499121 0
-1.9501283 1.6468681 -0.31535724 0
-1.8635947 1.6675597 -0.31670129 0
-1.7568288 1.6490198 -0.3163195 0
-1.6563464 1.6622498 -0.3182295 0
-1.5516744 1.6491412 -0.31961417 0
-1.447462 1.6528499 -0.3200396 0
-1.3365587 1.6414608 -0.321251 0
-1.252683 1.6376731 -0.32302842 0
-1.1609912 1.6545882 -0.32297924 0
-1.0565712 1.6519351 -0.32543686 0
-0.94115174 1.6536392 -0.32507935 0
-0.84476584 1.6389962 -0.32616204 0
-0.73959047 1.6557169 -0.3271963 0
-0.64736199 1.6412363 -0.32720008 0
-0.54442638 1.6340044 -0.3281095 0
-0.45379344 1.6416527 -0.32966566 0
-0.34579882 1.6453457 -0.32923046 0
-0.25068128 1.6652226 -0.33094147 0
-0.16177551 1.6676522 -0.33069217 0
-0.062339511 1.6642133 -0.33178291 0
0.048375618 1.6539133 -0.3338601 0
0.14984949 1.6706973 -0.33311728 0
0.25640243 1.6534688 -0.33567581 0
0.35810575 1.6711224 -0.33517906 0
0.45438388 1.6520019 -0.33697626 0
0.55219412 1.6396786 -0.33742702 0
0.65697306 1.6312138 -0.33880368 0
0.75181037 1.6473624 -0.3416276 0
0.85227203 1.6249135 -0.34116694 0
0.94982576 1.6634357 -0.34154099 0
1.0496665 1.6415191 -0.34040162 0
1.1469043 1.6343341 -0.34253371 0
1.2458034 1.6715121 -0.34406215 0
1.3543479 1.6573288 -0.34398916 0
1.4482106 1.6300312 -0.34539142 0
1.5614901 1.6593385 -0.34738463 0
1.6684811 1.6745107 -0.34731543 0
1.7253997 1.6351634 -0.34907746 0
1.8177319 1.6501561 -0.34823671 0
1.9288284 1.65277 -0.34896028 0
2.0475919 1.6551532 -0.35056648 0
2.1682982 1.6525701 -0.35173476 0
2.2740996 1.6571898 -0.35268408 0
2.3496928 1.6362453 -0.35297382 0
-3.0277214 1.7375429 -0.3060323 0
-2.9623668 1.7531443 -0.30672207 0
-2.8575466 1.7468418 -0.30753174 0
-2.7823353 1.7652118 -0.30839604 0
-2.6613655 1.7695154 -0.3091163 0
-2.5682926 1.7343464 -0.30955821 0
-2.4599805 1.7658309 -0.31117451 0
-2.3389685 1.756196 -0.31148914 0
-2.2306244 1.7511207 -0.31252134 0
-2.1414375 1.7311659 -0.31430316 0
-2.050025 1.7565761 -0.31374151 0
-1.9390191 1.7350501 -0.31551281 0
-1.8546541 1.7577777 -0.3156772 0
-1.7457054 1.7519294 -0.31686139 0
-1.6374192 1.7567286 -0.31885344 0
-1.5440794 1.7550362 -0.31866762 0
-1.4639338 1.7461354 -0.31924221 0
-1.3567431 1.7411433 -0.32117012 0
-1.2522234 1.7486339 -0.32197657 0
-1.140301 1.7435038 -0.32388312 0
-1.0356536 1.7472805 -0.3237372 0
-0.9530983 1.7757201 -0.32430717 0
-0.85968208 1.7346556 -0.32494313 0
-0.75439352 1.7562376 -0.32697725 0
-0.66152436 1.7500294 -0.32687524 0
-0.54716837 1.7517914 -0.32816011 0
-0.45874682 1.7458366 -0.32870948 0
-0.36417487 1.7478195 -0.32849899 0
-0.26046008 1.7621683 -0.33031857 0
-0.14386623 1.7419769 -0.33202177 0
-0.048721798 1.7410104 -0.33233041 0
0.043642197 1.7392845 -0.33299565 0
0.14653522 1.73666 -0.3350338 0
0.2433949 1.7321439 -0.33489168 0
0.33575818 1.7475897 -0.33555946 0
0.45488608 1.7514911 -0.33623332 0
0.55631328 1.7290554 -0.33768332 0
0.6495865 1.7562965 -0.33825764 0
0.74945968 1.7513489 -0.33934292 0
0.85073298 1.735034 -0.34140581 0
0.95205146 1.7536566 -0.34132302 0
1.047187 1.7458284 -0.34218183 0
1.1649908 1.7536538 -0.34124902 0
1.2585769 1.7665222 -0.34420145 0
1.3312157 1.7300007 -0.34408379 0
1.4586457 1.7449421 -0.34438768 0
1.5486302 1.7685016 -0.34571218 0
1.6532477 1.7569489 -0.34817743 0
1.7444025 1.7257386 -0.34794518 0
1.8438568 1.7474552 -0.34821749 0
1.9678971 1.7356275 -0.34892008 0
2.0607471 1.765803 -0.34978867 0
2.1469488 1.7527748 -0.35150516 0
2.2466702 1.7378249 -0.35188782 0
2.3135979 1.7114723 -0.35335186 0
-2.9615784 1.8492578 -0.30629954 0
-2.831532 1.8537009 -0.30740398 0
-2.7385287 1.8209896 -0.30796632 0
-2.6601224 1.8521603 -0.30866957 0
-2.5523078 1.8415288 -0.30975294 0
-2.4469573 1.8558689 -0.31013629 0
-2.3728037 1.8627332 -0.31092441 0
-2.2505267 1.8461075 -0.31269062 0
-2.1415904 1.8618398 -0.312897 0
-2.0370121 1.84914 -0.31405079 0
-1.9467838 1.8450433 -0.31466424 0
-1.837482 1.8440758 -0.31568593 0
-1.7616231 1.8569094 -0.31648517 0
-1.6586199 1.8493422 -0.31772923 0
-1.5626408 1.845644 -0.31906638 0
-1.4503684 1.8447355 -0.3201741 0
-1.3421646 1.8557602 -0.32068145 0
-1.2559409 1.8455617 -0.322133 0
-1.1544785 1.8635442 -0.32233259 0
-1.0544367 1.8468252 -0.32281721 0
-0.94675255 1.8304106 -0.32364351 0
-0.8513062 1.8514336 -0.32504317 0
-0.76661068 1.8721269 -0.32574004 0
-0.65515637 1.8518703 -0.32707372 0
-0.55085814 1.8472277 -0.32684895 0
-0.43966496 1.8559999 -0.32890448 0
-0.34710509 1.842908 -0.32919091 0
-0.24549468 1.842697 -0.32967618 0
-0.15334037 1.8599471 -0.33152044 0
-0.06001588 1.864856 -0.33145863 0
0.04694235 1.8711469 -0.33245713 0
0.14390793 1.85036 -0.33465949 0
0.2480747 1.8626342 -0.33462095 0
0.34259602 1.8566403 -0.335592 0
0.44718218 1.8291292 -0.33528277 0
0.56300002 1.8397422 -0.33786669 0
0.6453346 1.8672074 -0.33753228 0
0.74100173 1.8398221 -0.33921283 0
0.8537702 1.847047 -0.34090844 0
0.95015955 1.8435448 -0.34101987 0
1.0454606 1.867952 -0.34177306 0
1.1433129 1.8358966 -0.34170163 0
1.2501725 1.8655146 -0.34236503 0
1.3518376 1.841202 -0.3449077 0
1.4428488 1.8515598 -0.34480941 0
1.5608612 1.861577 -0.34505022 0
1.6480289 1.8550577 -0.34654304 0
1.7552677 1.8388453 -0.34830627 0
1.8674746 1.8474962 -0.34821776 0
1.9603931 1.8492092 -0.34898043 0
2.03441 1.846782 -0.34886408 0
2.1460369 1.8493812 -0.35031757 0
2.2364526 1.8079518 -0.35310724 0
-2.9116247 1.9360901 -0.30590981 0
-2.8760464 1.9523023 -0.30670831 0
-2.7594593 1.9512054 -0.30719191 0
-2.6615331 1.9394398 -0.30831242 0
-2.5275958 1.9551853 -0.30941689 0
-2.4226327 1.9584854 -0.3110756 0
-2.3233914 1.9338436 -0.31141919 0
-2.2398186 1.947209 -0.31184465 0
-2.1709111 1.9706911 -0.31250179 0
-2.0623825 1.9546088 -0.3134819 0
-1.9430447 1.9499644 -0.31430113 0
-1.8279748 1.9427918 -0.31569168 0
-1.7366012 1.932552 -0.31667531 0
-1.6506187 1.9687409 -0.31774983 0
-1.5276226 1.9318594 -0.31865719 0
-1.4422474 1.9547898 -0.31911039 0
-1.3528924 1.9577932 -0.32078284 0
-1.2400178 1.9392267 -0.32126984 0
-1.1470736 1.9542001 -0.3217369 0
-1.0432734 1.954995 -0.32286555 0
-0.9444502 1.9332509 -0.32339931 0
-0.85633564 1.9623014 -0.32509086 0
-0.74839449 1.9257233 -0.32527778 0
-0.64250737 1.9488108 -0.32697454 0
-0.55218458 1.9532175 -0.32572812 0
-0.44967613 1.9604526 -0.32825732 0
-0.35424963 1.9503167 -0.32882452 0
-0.25910613 1.9451528 -0.32849297 0
-0.14583695 1.9371325 -0.33112246 0
-0.048834201 1.9480529 -0.33141553 0
0.048922442 1.9502643 -0.33213401 0
0.14693111 1.953177 -0.33394277 0
0.24468383 1.943418 -0.33462012 0
0.3569929 1.9346476 -0.33529234 0
0.46137163 1.9475842 -0.33558473 0
0.5447005 1.9472879 -0.33623797 0
0.65728307 1.9467491 -0.3377071 0
0.76035553 1.9554635 -0.33882317 0
0.843862 1.9632753 -0.33989865 0
0.94704616 1.9346945 -0.3412334 0
1.0544938 1.975956 -0.3412517 0
1.1429448 1.9366993 -0.34263214 0
1.254631 1.9621018 -0.3422237 0
1.3574886 1.9446257 -0.34434769 0
1.4544792 1.9515972 -0.34498301 0
1.5631769 1.9479282 -0.34549174 0
1.6633456 1.9553034 -0.3463546 0
1.7513824 1.9431273 -0.34771731 0
1.8466378 1.9533296 -0.34858608 0
1.9434898 1.9505019 -0.34806997 0
2.0437202 1.9536345 -0.34876519 0
2.1070385 1.9127121 -0.34940901 0
-2.8323545 2.0331545 -0.30579346 0
-2.7699409 2.0798945 -0.3076283 0
-2.6821494 2.0441434 -0.30754977 0
-2.5739102 2.0505836 -0.3088502 0
-2.4450972 2.0648963 -0.30995306 0
-2.346328 2.0398326 -0.31065074 0
-2.2378607 2.0314665 -0.31172729 0
-2.139972 2.0474043 -0.31279504 0
-2.0396576 2.046977 -0.31329632 0
-1.9656018 2.0593171 -0.31398582 0
-1.8489138 2.0514381 -0.31549695 0
-1.737823 2.0429931 -0.31747478 0
-1.6383475 2.0563593 -0.31694323 0
-1.5570371 2.0452478 -0.31783098 0
-1.4568356 2.0550416 -0.31973127 0
-1.3593756 2.0603349 -0.31988689 0
-1.2537416 2.0237608 -0.32037684 0
-1.1581949 2.0624704 -0.3212117 0
-1.052876 2.0428822 -0.32223433 0
-0.94818872 2.0384195 -0.32339826 0
-0.84665596 2.0596457 -0.32495257 0
-0.75024843 2.0286741 -0.32533053 0
-0.65811759 2.0452878 -0.3264114 0
-0.54237276 2.0484431 -0.32641932 0
-0.44844577 2.0218484 -0.32805309 0
-0.34197432 2.0391135 -0.32862931 0
-0.24197939 2.0549345 -0.32902822 0
-0.14590247 2.0577369 -0.33106348 0
-0.051834408 2.0669761 -0.330769 0
0.051929731 2.0714312 -0.33164263 0
0.15030308 2.0637472 -0.33356678 0
0.24345514 2.0545092 -0.33457085 0
0.35420084 2.0624421 -0.33436945 0
0.45731831 2.0610089 -0.33592644 0
0.54688305 2.0459936 -0.33545256 0
0.65668464 2.0310311 -0.33819929 0
0.75640959 2.0393488 -0.33870596 0
0.84871787 2.0646477 -0.33987519 0
0.95376396 2.0252056 -0.34087801 0
1.0507659 2.0751343 -0.34118587 0
1.1569818 2.0261407 -0.34230638 0
1.2586278 2.0647767 -0.34254155 0
