# .PCD v0.7 - Point Cloud Data file format
VERSION 0.7
FIELDS x y z intensity
SIZE 4 4 4 4
TYPE F F F F
COUNT 1 1 1 1
WIDTH 214
HEIGHT 1
VIEWPOINT 0 0 0 1 0 0 0
POINTS 214
DATA ascii
-50.131084 -17.10603 0.91621345 8
-49.71069 -17.7598 4.6091013 10
-49.39175 -18.446167 2.7538428 9
-48.900509 -19.06337 10.191107 13
-48.583527 -19.7444 6.4285502 11
-48.565548 -19.737051 8.2920685 12
-40.691109 -34.307907 4.6399155 10
-39.917927 -35.657158 6.5547209 11
-39.224983 -37.109055 2.8124468 9
-39.135731 -37.023247 8.5147676 12
-35.104794 -6.5990911 1.8685894 9
-35.069214 -6.5924087 3.1183145 10
-35.037361 -6.5864234 4.3736191 11
-35.00309 -6.5799861 5.6370659 12
-34.960503 -6.5719838 6.9104652 13
-20.644905 -26.024044 4.0675097 11
-20.095848 -26.088001 5.2046804 12
-20.11615 -26.113934 6.3964663 13
-18.685217 -12.776383 1.1799343 9
-18.67009 -13.161205 2.7977839 11
-18.640879 -13.14047 3.605073 12
-18.621529 -13.126705 4.4211531 13
-18.533533 -11.175128 0.37233347 8
-18.599241 -12.331145 1.9459805 10
-18.563398 -11.192838 4.9973989 14
-18.505388 -26.277611 7.4096661 14
-17.951027 -26.281809 2.7738078 10
-16.949068 -26.402859 3.842118 11
-16.951262 -26.405651 4.9598346 12
-16.964529 -26.425735 6.0941858 13
-14.939471 30.597839 2.9856558 10
-14.351354 30.497889 5.3483825 12
-14.351496 30.499704 6.5637589 13
-14.325166 30.446911 9.0314236 15
-13.825616 30.502583 0.58734035 8
-13.615061 -26.754158 5.8269682 13
-13.621275 -26.765501 6.9256687 14
-13.785703 30.423962 7.7246537 14
-12.611218 7.3723097 0.25772694 8
-12.605715 7.3691998 0.76881099 9
-12.696569 -26.81992 3.6348283 11
-12.715958 30.344814 4.0472946 11
-12.58491 7.3571362 1.2797793 10
-12.402295 9.0296545 1.3472625 10
-12.561715 7.3436747 1.7918599 11
-12.559062 7.3422346 2.3102491 12
-12.54761 7.3356466 2.8322163 13
-12.527701 7.324111 3.3581314 14
-12.52038 7.3199434 3.8948927 15
-12.352842 9.8328009 0.2787787 8
-12.336786 9.8202 0.8306331 9
-12.338526 9.5362587 1.9210638 11
-12.374344 9.0096178 2.4315016 12
-12.358809 8.9984646 2.9798222 13
-12.299847 9.5068941 3.5986614 14
-12.370661 8.7389021 4.0685263 15
-12.259981 -26.883259 4.6718812 12
-12.196949 30.315596 1.7163072 9
-11.671762 30.258242 2.8426538 10
-11.146196 30.181843 5.1045156 12
-11.14027 30.167749 6.2615051 13
-10.621057 30.087078 8.5633259 15
-10.161211 30.140915 0.55618882 8
-10.127499 30.053679 7.3336301 14
-9.6458549 30.035221 3.8794591 11
-8.2063942 29.91382 1.6273304 9
-7.2726088 29.838306 0.53540605 8
-7.2561779 29.782648 4.8616738 12
-7.2457833 29.749083 8.2164602 15
-6.8016014 29.761589 2.6735895 10
-6.7880192 29.714886 7.0469499 14
-6.3288417 29.655693 5.9021444 13
-6.009769 -9.0217743 0.56481588 9
-5.437017 29.609241 3.6999307 11
-5.1001272 -6.1954556 0.13749987 8
-4.9965873 29.587091 1.5722135 9
-4.5380478 29.467602 7.9992309 15
-4.1067061 29.45648 4.7150364 12
-3.6799726 29.460497 0.51515883 8
-3.2355387 29.357481 6.8261781 14
-2.3837936 29.305691 2.5719166 10
-2.3817515 29.289709 3.6095097 11
-2.3790259 29.27437 5.714015 13
-1.5356711 29.232727 1.5312064 9
-1.1063881 29.119141 7.8153968 15
-0.69045591 29.122793 4.6155047 12
-0.27529848 29.119215 0.50256544 8
0.39213106 29.151228 6.718689 14
0.42289281 -7.8326006 0.13675722 8
0.81437153 29.145866 3.5844414 11
1.2341988 29.13439 1.5435421 9
1.2227592 29.074497 5.6522684 13
1.6447597 29.072657 2.5590053 10
1.6388044 29.045177 4.6094794 12
1.6300777 29.010197 7.7730603 15
2.4772267 29.013638 0.53097391 8
2.8711774 28.908447 6.7035275 14
3.1674476 5.9050298 0.12649281 8
3.1735132 5.9162588 0.35963133 9
3.1697235 5.9102783 0.59277725 10
3.188508 5.9437351 0.83252746 11
3.1885395 5.9444418 1.0710249 12
3.1975973 5.960927 1.3158057 13
3.2086422 5.9808984 1.5662135 14
3.571244 5.8227625 -0.10754649 7
3.5605135 5.8107395 1.8270292 15
3.4170656 -21.431364 5.8298039 15
4.1215997 28.811735 2.5637884 10
4.1146631 28.792406 4.6157327 12
4.2386346 5.7267013 0.88404834 11
4.4885421 5.7061195 -0.11412047 7
4.5179415 28.725067 7.7898703 15
4.74189 5.6794267 0.3997829 9
4.7348633 5.6718092 0.65803885 10
4.9544635 28.740837 1.5518693 9
5.2701669 5.6117177 1.7909603 14
5.3504853 28.648439 6.733582 14
5.431469 5.6132288 0.14996739 8
5.4253469 5.6081777 0.97197634 11
5.4182906 5.6025763 2.103127 15
5.7788997 28.636318 3.6046128 11
6.0404682 5.550128 -0.12893118 7
6.7217226 5.483809 0.16716385 8
6.7291384 5.4898653 0.47166291 9
6.6284204 28.579531 0.54267681 8
6.7194643 5.4825387 0.77604866 10
6.7117229 5.4767261 1.0817919 11
6.7168627 5.4810057 1.3921463 12
6.7046924 5.4717274 1.7021482 13
6.6185074 28.554087 2.587719 10
6.6064773 28.528225 5.7049479 13
7.0803237 5.4390121 2.0838649 14
7.0791082 5.4383583 2.4158034 15
7.4525018 28.447273 4.6763468 12
7.8908939 28.43351 1.5759917 9
7.867681 28.38566 6.8141289 14
7.861455 28.370756 7.8990593 15
9.033021 -28.9725 0.531519 8
9.0382442 -28.992342 1.5959796 9
9.0355692 -28.986988 2.6634674 10
9.0443344 -29.018181 3.7417865 11
9.0429916 -29.01713 4.8263121 12
9.0482292 -29.037128 5.9270906 13
11.975518 -29.281199 2.7779996 10
12.48859 -29.325104 1.6783067 9
12.501605 -29.36363 5.0715065 12
13.345841 4.8015733 0.27296159 8
13.334158 6.8488975 0.28866127 8
13.335762 4.7980914 0.77063382 9
13.272459 6.1120157 0.79423738 9
13.314121 4.7905817 1.2683508 10
13.316238 6.3647294 1.3220197 10
13.253306 5.6485815 1.8018274 11
13.270209 5.6556654 2.3201153 12
13.308281 4.7886395 2.7878203 13
13.347701 6.3797698 2.9133189 13
13.287895 4.7815676 3.3017888 14
13.28275 4.7798071 3.827009 15
13.400864 7.1271992 1.8967184 11
13.416119 6.8909321 3.5218365 14
13.424345 6.8952265 4.0860419 15
13.564383 -29.485718 6.330121 13
14.0826 -29.477795 0.5767436 8
14.095783 -29.512903 4.0315423 11
25.153433 -15.956598 0.54616135 8
25.017807 -17.428144 1.6270727 9
25.044176 -17.447783 2.7037046 10
25.073402 -17.469423 3.7897255 11
25.096222 -17.486607 4.8864636 12
25.125683 -17.508442 5.9990482 13
25.198963 -17.562202 8.2856426 15
25.384649 -15.603288 6.9318213 14
33.286713 -14.368717 0.67126262 8
33.315647 -14.382426 1.9443706 9
33.348606 -14.397882 3.2248616 10
33.304695 -15.531414 5.8752866 12
33.344933 -15.5515 7.2114992 13
33.532398 -12.7939 4.4594994 11
33.608513 -11.185883 0.65949869 8
33.680576 -11.754483 5.7082429 12
33.657875 -12.29305 7.0276175 13
33.682106 -12.303066 8.3459835 14
33.967987 -7.6214099 0.65216428 8
33.891846 -8.63521 1.8806413 9
33.874966 -9.1522121 3.121448 10
33.905609 -9.1614962 4.368289 11
33.992188 -8.6637487 5.6168299 12
34.199982 -5.6338749 1.8669623 9
34.196945 -6.1410131 4.3245168 11
34.005707 -8.6681662 6.8869467 13
34.05674 -8.6822309 8.1845207 14
34.277966 -5.1428485 3.0875683 10
34.381821 -4.656004 5.5594435 12
34.358189 -5.6643171 8.1121016 14
34.411057 -3.1543155 0.65198237 8
34.493816 -2.6636128 1.8663476 9
34.51313 -3.1659799 4.3165183 11
34.681099 -1.1794677 3.0945492 10
34.607365 -2.6753533 6.8173499 13
34.703823 -2.1825604 8.1031923 14
34.917091 1.8242981 0.66413361 8
34.803249 0.31697878 1.8800776 9
34.975475 1.8262411 3.125349 10
34.904709 0.81808037 4.3512659 11
34.887852 0.31589481 5.594028 12
34.962929 0.81823003 6.8707733 13
35.093468 3.3527641 1.9064333 9
35.009911 0.81865871 8.162241 14
35.229008 4.9039674 0.6778335 8
35.337753 5.4362283 3.1923773 10
35.316261 4.9148436 4.4456835 11
35.396782 5.4445014 5.7440672 12
35.392246 4.9244986 7.0213785 13
35.46838 5.4546466 8.364872 14
