# .PCD v0.7 - Point Cloud Data file format
VERSION 0.7
FIELDS x y z intensity
SIZE 4 4 4 4
TYPE F F F F
COUNT 1 1 1 1
WIDTH 1407
HEIGHT 1
VIEWPOINT 0 0 0 1 0 0 0
POINTS 1407
DATA ascii
-37.41568 20.583496 3.7441664 10
-37.431202 20.592363 5.254127 11
-37.400818 20.575989 6.7700582 12
-37.387344 20.568916 8.3041992 13
-37.39341 20.572596 9.8634138 14
-36.540565 20.791195 0.74094766 8
-36.544266 20.793633 2.2111084 9
-36.542229 20.79282 3.6864095 10
-36.55648 20.80127 5.1729217 11
-36.528622 20.78577 6.6657357 12
-36.529572 20.786657 8.1793814 13
-36.548908 20.798016 9.7187147 14
-36.20211 -42.184128 4.8410087 10
-36.172077 -42.14846 6.79669 11
-36.142094 -42.112858 8.7659063 12
-36.11018 -42.074974 10.753121 13
-35.692394 20.99349 0.72986668 8
-35.703468 21.000353 2.1783686 9
-35.70155 20.99958 3.6317899 10
-35.712986 21.006659 5.0958982 11
-35.6903 20.993675 6.5673018 12
-35.710094 21.005676 8.0628395 13
-35.708332 21.005005 9.5746927 14
-35.595554 -42.702713 4.8412066 10
-35.577473 -42.680328 6.7992234 11
-35.538624 -42.632992 8.766902 12
-35.520901 -42.611008 10.758516 13
-34.894955 21.205502 0.71978378 8
-34.899036 21.20834 2.1477511 9
-34.882984 21.19895 3.5792532 10
-35.013493 -43.252033 4.8458357 10
-34.8922 21.204912 5.0218797 11
-34.870846 21.192316 6.4720473 12
-34.967056 -43.193913 6.8002114 11
-34.892147 21.205626 7.9463325 13
-34.95026 -43.172405 8.7735891 12
-34.891388 21.205544 9.4365902 14
-34.913952 -43.126797 10.760929 13
-34.523941 -20.289089 2.0875037 9
-34.675331 -19.713892 2.0795949 9
-34.484329 -20.265722 3.4878056 10
-34.64468 -19.696384 3.4753373 10
-34.400208 -43.764423 4.8472657 10
-34.44949 -20.245157 4.8941207 11
-34.613972 -19.678848 4.8771281 11
-34.431103 -20.234264 6.3126993 12
-34.56778 -19.6525 6.2856688 12
-34.520241 -19.625389 7.7058153 13
-34.661758 -19.052715 7.6758552 13
-34.486671 -19.606224 9.1452026 14
-34.635662 -19.038296 9.1116047 14
-34.45517 -19.588228 10.605874 15
-34.621254 -19.030306 10.572138 15
-34.088352 21.392384 0.70947176 8
-34.379158 -20.873713 2.0963914 9
-34.103779 21.402431 2.1175985 9
-34.349464 -20.855581 3.5038195 10
-34.09185 21.395325 3.5293632 10
-34.319172 -20.83709 4.9173236 11
-34.099796 21.400684 4.9517112 11
-34.270344 -20.807341 6.3370566 12
-34.104424 21.403971 6.3863769 12
-34.371082 -43.726578 6.8055439 11
-34.233971 -20.785149 7.7713642 13
-34.380188 -20.204243 7.7382054 13
-34.093765 21.397665 7.8339057 13
-34.342236 -43.689068 8.7773485 12
-34.341991 -20.1817 9.1824121 14
-34.181305 -20.753069 9.2178583 14
-34.091862 21.396864 9.3027592 14
-34.316978 -43.656128 10.768836 13
-34.152775 -20.73564 10.691053 15
-34.307919 -20.161585 10.648228 15
-33.797405 -44.291687 4.8512869 10
-33.777187 -44.264366 6.8129368 11
-33.751778 -44.230209 8.7876854 12
-33.72047 -44.188328 10.779467 13
-33.340591 21.597391 0.70034522 8
-33.329308 21.590469 2.0886307 9
-33.345058 21.601057 3.4839225 10
-33.201073 -44.830303 4.8574471 10
-33.336739 21.59606 4.8855863 11
-33.322506 21.587238 6.2975426 12
-33.322063 21.587349 7.727242 13
-33.321674 21.587502 9.1764965 14
-33.1632 -44.778259 6.8179288 11
-33.14246 -44.749359 8.7952719 12
-33.115925 -44.712635 10.790169 13
-32.582714 21.777817 0.69096881 8
-32.586201 21.780542 2.0615282 9
-32.605408 21.79377 3.4390962 10
-32.603786 -45.371418 4.8647485 10
-32.594704 21.787024 4.8223352 11
-32.570114 21.771002 6.2139697 12
-32.579464 21.777653 7.6269817 13
-32.541553 -45.282917 8.8073101 12
-32.585495 21.782103 9.0592117 14
-32.511272 -45.239807 10.803543 13
-31.860741 21.964504 0.6823141 8
-31.855913 21.961588 2.0351388 9
-31.853031 21.960016 3.3927546 10
-31.858212 21.963997 4.7596822 11
-31.984303 -45.88525 4.8700037 10
-31.848446 21.957685 6.1359806 12
-31.96316 -45.853924 6.8389187 11
-31.852125 21.960646 7.5299678 13
-31.93638 -45.814495 8.8205271 12
-31.852919 21.961618 8.9425449 14
-31.910391 -45.776184 10.821035 13
-31.382706 -46.429012 4.8793058 10
-31.353659 -46.384972 6.8501992 11
-31.329294 -46.347862 8.8356323 12
-31.300346 -46.303951 10.838383 13
-31.143055 22.13702 0.67371124 8
-31.138634 22.134302 2.0094748 9
-31.133022 22.130743 3.3496628 10
-31.146059 22.14043 4.7004304 11
-31.122677 22.124247 6.0569019 12
-31.138393 22.135853 7.4358168 13
-31.143784 22.140125 8.8320446 14
-31.139305 22.13739 10.248223 15
-30.445093 22.306728 0.66549456 8
-30.449261 22.310213 1.9855117 9
-30.455826 22.315462 3.3110256 10
-30.448687 22.310682 4.6431804 11
-30.772692 -46.965893 4.8887172 10
-30.43479 22.300943 5.9848933 12
-30.747219 -46.925892 6.8641148 11
-30.440683 22.305708 7.3451304 13
-30.446241 22.310238 8.7244148 14
-30.447859 22.311886 10.125334 15
-30.690168 -46.83654 10.85874 13
-30.133709 -47.462093 6.8785028 11
-30.112722 -47.427841 8.8728828 12
-30.085485 -47.383732 10.884304 13
-29.780237 22.484768 0.657965 8
-29.773348 22.480022 1.9623317 9
-29.765371 22.474453 3.2707927 10
-29.769581 22.47809 4.5884876 11
-29.759228 22.470732 5.9150429 12
-29.76524 22.475731 7.2594695 13
-29.770447 22.480133 8.6226082 14
-29.764435 22.476072 10.004631 15
-29.525034 -48.01297 6.8961549 11
-29.49482 -47.962559 8.8927488 12
-29.099184 22.634825 0.65003806 8
-29.119614 22.651169 1.9405223 9
-29.108597 22.643074 3.234093 10
-29.115662 22.649036 4.5374675 11
-29.101202 22.638268 5.8484082 12
-28.897308 -48.540291 6.9115639 11
-29.103785 22.640753 7.1768832 13
-29.103304 22.640867 8.5228901 14
-28.877457 -48.505604 8.9156265 12
-29.112225 22.648293 9.8939638 15
-28.489418 -4.1202345 0.50035369 8
-28.74662 -3.7368238 0.50409019 8
-28.465734 22.806608 0.64313573 8
-28.466845 22.807974 1.9186826 9
-28.470039 22.811012 3.1992779 10
-28.466585 22.808729 4.4869976 11
-28.46389 22.80706 5.7856908 12
-28.463602 22.807318 7.0992241 13
-28.451672 22.798271 8.4272804 14
-28.468468 22.812227 9.7857571 15
-28.00576 -4.8750844 0.49369353 8
-28.256079 -4.5016279 0.49712783 8
-28.278603 -49.090893 6.9314232 11
-28.252996 -49.045021 8.93929 12
-27.7939 -5.2504601 0.49102673 8
-27.830542 22.962553 0.63615972 8
-27.83906 22.970066 1.8984311 9
-27.828403 22.961777 3.1639621 10
-27.849083 22.979326 4.4413142 11
-27.830631 22.964613 5.7235446 12
-27.65555 -49.643635 6.9526868 11
-27.829411 22.964115 7.0227432 13
-27.826775 22.962456 8.3392038 14
-27.625444 -49.588066 8.965065 12
-27.824062 22.960741 9.6768408 15
-27.466705 -5.8034692 0.48703992 8
-27.207859 23.114391 0.62943214 8
-27.206261 23.113546 1.877738 9
-27.21356 23.120255 3.131536 10
-27.224152 23.129761 4.3942595 11
-27.210657 23.118818 5.6638613 12
-27.207813 23.117462 8.252552 14
-27.21175 23.121346 9.5786161 15
-26.978231 -6.7205114 0.48181674 8
-27.022041 -50.187836 6.9738626 11
-27.191423 23.103012 6.9449191 13
-26.997797 -50.141205 8.9940844 12
-26.475019 -7.8201165 0.47778791 8
-26.643061 -7.4556065 0.47904494 8
-26.799088 -7.0860181 0.48017809 8
-26.607981 23.271811 0.6231969 8
-26.604567 23.269352 1.8590908 9
-26.60232 23.26791 3.0993745 10
-26.607943 23.273357 4.3483763 11
-26.591505 23.259523 5.6040535 12
-26.599556 23.267099 6.8785338 13
-26.5877 23.257284 8.1651201 14
-26.604322 23.272371 9.481698 15
-26.050531 -8.9310379 0.47602108 8
-26.179993 -8.5574503 0.47629553 8
-26.31617 -8.185729 0.47678941 8
-26.002739 23.41206 3.0684144 10
-26.005274 23.414881 4.3044705 11
-26.007446 23.417942 6.8118305 13
-26.002558 23.414682 9.3863335 15
-25.685661 -10.061428 0.47623104 8
-25.788828 -9.6772013 0.47571847 8
-25.914158 -9.3020983 0.47571865 8
-25.998909 23.407528 0.61671001 8
-25.999987 23.409033 1.8401493 9
-25.99473 23.405943 5.5486641 12
-25.996159 23.408352 8.0860481 14
-25.21172 -12.027046 0.48124275 8
-25.277321 -11.615943 0.4794561 8
-25.37575 -11.222878 0.47841302 8
-25.479704 -10.834307 0.47758773 8
-25.41667 23.553925 0.61082137 8
-25.420958 23.558456 1.822922 9
-25.425009 23.562765 3.0398886 10
-25.425581 23.563856 4.2641602 11
-25.423033 23.562063 5.4983983 12
-25.422403 23.562054 6.7466717 13
-25.425024 23.565065 8.0130167 14
-25.416122 23.557411 9.296032 15
-25.13937 -12.438576 0.48302704 8
-24.846512 23.698843 0.60519063 8
-24.841522 23.694664 1.8055762 9
-24.848431 23.701822 3.0113642 10
-24.855326 23.708977 4.2252526 11
-24.83812 23.693157 5.4450254 12
-24.84252 23.697943 6.68255 13
-24.847836 23.703611 7.9377546 14
-24.857132 23.713081 9.2153997 15
-24.288607 23.843204 0.59982789 8
-24.283451 23.838743 1.7896957 9
-24.287575 23.84338 2.9846041 10
-24.285118 23.841572 4.1861515 11
-24.285723 23.84277 5.39853 12
-24.292477 23.850002 6.626174 13
-24.295021 23.853117 7.8699474 14
-23.736086 23.980881 0.59456778 8
-23.731863 23.977226 1.7742155 9
-23.743803 23.989897 2.9598267 10
-23.738842 23.985504 4.1509843 11
-23.731079 23.978287 5.3513207 12
-23.736868 23.985399 7.8000898 14
-23.736568 23.985744 9.0521164 15
-23.194609 24.117979 0.58955353 8
-23.181131 24.104609 1.7587118 9
-23.189619 24.114058 2.933619 10
-23.188578 24.113613 4.1149406 11
-23.185398 24.11095 5.3058891 12
-23.183252 24.109369 6.5101004 13
-23.19198 24.119761 8.975812 15
-22.654543 24.248257 6.4588742 13
-22.657602 24.252207 7.6715393 14
-22.654268 24.249329 8.9017744 15
-22.212305 0.6383785 0.38815105 8
-22.133228 24.380806 0.57998866 8
-22.216959 0.63851738 1.1651232 9
-22.215145 0.63847053 1.9447044 10
-22.118832 24.365639 1.7304324 9
-22.225471 0.63877255 2.7304292 11
-22.117903 24.365284 2.8853989 10
-22.191019 0.63778752 3.5165501 12
-22.125759 24.374603 4.0490022 11
-22.123697 24.37302 5.2211571 12
-22.123053 24.372997 6.4065943 13
-22.133375 24.385059 7.6119881 14
-22.132959 24.385317 8.833828 15
-21.613232 24.507299 0.57544076 8
-21.603695 24.497189 1.71743 9
-21.617403 24.513407 2.8657253 10
-21.619196 24.51614 4.0203471 11
-21.607668 24.503782 5.1819606 12
-21.609367 24.506422 6.3592124 13
-21.609413 24.507193 7.5522103 14
-21.617264 24.516825 8.7678232 15
-21.114552 0.91054475 0.36930108 8
-21.101238 24.632128 0.57107729 8
-21.120718 0.9108178 1.1083627 9
-21.120987 0.91083658 1.8500509 10
-21.101149 24.632732 1.7053717 9
-21.126802 0.91109443 2.5969856 11
-21.091997 24.622778 2.8426464 10
-21.1022 0.91004097 3.3459415 12
-21.100233 24.633101 3.9892402 11
-21.116148 0.91064966 4.1090002 13
-21.122116 0.9109146 4.881628 14
-21.09277 24.625122 5.1428246 12
-21.133148 0.91139799 5.6685948 15
-21.101885 24.63649 6.3134451 13
-21.101843 24.637186 7.4978523 14
-21.098385 24.633911 8.7001581 15
-20.602976 24.762749 0.56706077 8
-20.602882 24.763369 1.6936105 9
-20.595427 24.755161 2.8233244 10
-20.594015 24.754206 3.9603591 11
-20.598682 24.760563 5.1085911 12
-20.59376 24.755407 6.2672462 13
-20.589529 24.751101 7.441504 14
-20.599762 24.76417 8.640501 15
-20.142529 1.1587313 0.35268924 8
-20.103367 24.881737 0.56298286 8
-20.129503 1.1579912 1.0572606 9
-20.160082 1.1597594 1.767326 10
-20.09454 24.87158 1.6809481 9
-20.154816 1.1594658 2.4794819 11
-20.120813 1.157519 3.1928425 12
-20.098536 24.877285 2.8038714 10
-20.122669 1.157635 3.9187291 13
-20.099751 24.879557 3.9336314 11
-20.132078 1.1581857 4.6564183 14
-20.104849 24.886635 5.0742893 12
-20.130804 1.1581222 5.4038954 15
-20.101974 24.883862 6.2257967 13
-20.101627 24.88423 7.3937058 14
-20.106365 24.890894 8.5827856 15
-19.608267 24.996151 0.55900276 8
-19.61112 25.002148 3.9078803 11
-19.607216 24.997974 5.038835 12
-19.612864 25.00598 6.1849933 13
-19.609896 25.003017 7.344295 14
-19.227022 1.383455 0.33709913 8
-19.27029 5.0984044 0.35008273 8
-19.372305 5.4244971 0.35341418 8
-19.232363 1.38385 1.0112236 9
-19.253561 5.0940332 1.0461473 9
-19.342747 5.4162831 1.0552238 9
-19.227959 1.3835444 1.6873415 10
-19.230618 5.0880203 1.7429971 10
-19.306309 5.4061422 1.75684 10
-19.23979 1.3844067 2.3692944 11
-19.201162 5.0802836 2.4416335 11
-19.291643 5.4020963 2.4628906 11
-19.230444 1.3837451 3.0545897 12
-19.26329 5.3942208 3.1717091 12
-19.23461 1.3840562 3.7494864 13
-19.24836 5.3901019 3.8890598 13
-19.236427 1.3841985 4.4536324 14
-19.226206 5.3839622 4.6134014 14
-19.227362 1.383558 5.1664314 15
-18.867193 3.4258583 0.33622271 8
-18.974236 3.8691051 0.33969074 8
-19.02743 4.1656432 0.34178525 8
-19.153671 4.6286802 0.34593195 8
-18.812468 3.2760696 1.0023651 9
-18.946577 3.8635039 1.0152532 9
-19.021839 4.1644611 1.0225055 9
-19.1541 4.6288562 1.0349466 9
-19.16114 -18.240042 1.3765343 9
-18.860765 3.5645101 1.6812376 10
-19.004547 4.1607175 1.7042778 10
-19.114565 4.619369 1.7229233 10
-19.127024 25.11935 1.6595472 9
-19.167267 -18.245682 2.3047686 10
-18.850788 3.5626583 2.3576729 11
-18.979908 4.1553655 2.3880684 11
-19.101772 4.6163192 2.4156532 11
-19.126823 25.1199 2.7677765 10
-18.821798 3.5572152 3.0361609 12
-18.902309 3.854593 3.0579288 12
-18.971579 4.153585 3.0786309 12
-19.075981 4.609993 3.1113071 12
-19.189863 5.0773516 3.1471326 12
-19.161802 -18.240273 3.2372921 11
-18.802067 3.5535212 3.7219601 13
-18.868305 3.8476982 3.7458069 13
-18.929949 4.1445136 3.7696514 13
-19.051537 4.6042476 3.8131194 13
-19.164055 5.0705814 3.856746 13
-19.134289 25.130508 3.8843851 11
-19.156435 -18.234957 4.1773043 12
-18.849775 3.8439598 4.4442983 14
-18.923719 4.1431947 4.4754949 14
-19.02928 4.5989594 4.5232801 14
-19.133631 5.0625906 4.5730853 14
-19.177946 -18.255253 5.1344218 13
-18.880688 4.1338181 5.182271 15
-19.123976 25.117813 5.0068855 12
-18.998861 4.5915303 5.241118 15
-19.130539 5.0618291 5.3064375 15
-19.197453 5.3759747 5.346067 15
-19.180222 -18.257219 6.1005516 14
-19.130175 25.126774 6.1460299 13
-19.16036 -18.238077 7.0743871 15
-19.126732 25.123106 7.297852 14
-19.135752 25.135801 8.4735727 15
-18.486704 1.8654104 0.32516459 8
-18.557262 2.1422904 0.32703 8
-18.646751 2.5612907 0.32968596 8
-18.759106 2.9896636 0.33289561 8
-18.651707 25.239555 0.5519377 8
-18.415192 1.5912936 0.96949649 9
-18.527565 2.1388798 0.97850794 9
-18.632092 2.5594101 0.98693454 9
-18.734545 2.9857767 0.99570072 9
-18.44771 -18.071867 1.3436284 9
-18.421583 1.591859 1.6185727 10
-18.496696 2.135335 1.6301829 10
-18.606232 2.5558972 1.6445711 10
-18.71228 2.9822562 1.6594032 10
-18.785961 3.2714846 1.6700714 10
-18.64957 25.237505 1.6493167 9
-18.439383 -18.063492 2.2480054 10
-18.426142 1.5922657 2.271852 11
-18.497904 2.1354923 2.287643 11
-18.588623 2.5534 2.3054338 11
-18.699814 2.9802966 2.3268163 11
-18.765589 3.2679679 2.3407543 11
-18.655264 25.246044 2.7516806 10
-18.438093 -18.062021 3.1582818 11
-18.407089 1.5906324 2.9273257 12
-18.461233 2.1312773 2.944813 12
-18.567661 2.5506165 2.970211 12
-18.663103 2.9744744 2.9952066 12
-18.739264 3.2634151 3.0148094 12
-18.456656 2.1307676 3.6129837 13
-18.546507 2.5476708 3.6408594 13
-18.65963 2.973948 3.6749675 13
-18.645039 25.23307 3.8582389 11
-18.440466 -18.064135 4.0770473 12
-18.436417 2.1284502 4.2863269 14
-18.527395 2.5450766 4.319653 14
-18.635115 2.9700692 4.3588557 14
-18.783543 3.5500565 4.4160094 14
-18.434732 -18.058306 5.0040288 13
-18.401348 2.1244211 4.9651818 15
-18.498318 2.5410733 5.0054288 15
-18.617931 2.96736 5.0541072 15
-18.719881 3.3993411 5.100956 15
-18.640608 25.227934 4.9747257 12
-18.438768 -18.06205 5.9462352 14
-18.646797 25.238039 7.2524171 14
-18.653112 25.247463 8.4197302 15
-18.175928 25.350807 0.54844743 8
-18.173952 25.348917 1.6391943 9
-18.184092 25.363913 2.7355838 10
-18.384214 1.8551462 3.5930278 13
-18.35429 1.8521425 4.2604036 14
-18.349222 1.8516474 4.9432082 15
-18.17477 25.353575 6.0707617 13
-18.170216 25.348133 7.2080359 14
-18.180687 25.363646 8.370223 15
-17.70293 25.456661 0.54501659 8
-17.708361 25.465359 1.6299264 9
-17.751442 -17.895195 2.1950471 10
-17.708555 25.466534 2.7187383 10
-17.738806 -17.882229 3.0819354 11
-17.74077 -17.883991 3.9784453 12
-17.706148 25.46398 3.8137491 11
-17.748652 -17.891729 4.8867197 13
-17.703606 25.461246 4.917922 12
-17.708107 25.468632 6.0365238 13
-17.713158 25.47777 8.3227558 15
-17.245947 25.576818 0.5420599 8
-17.244074 25.574978 1.6207347 9
-17.304598 -19.015835 2.2387295 10
-17.410797 -18.589466 2.2178061 10
-17.521183 -18.177338 2.1984973 10
-17.246376 25.579313 2.7038472 10
-17.281748 -18.990423 3.1414623 11
-17.388922 -18.565834 3.1122653 11
-17.497625 -18.152639 3.0848603 11
-17.477438 -18.131428 3.9772053 12
-17.252289 25.589003 3.7947428 11
-17.260916 -18.967232 4.0500207 12
-17.37327 -18.548855 4.0135837 12
-17.248951 -18.9538 4.9690299 13
-17.341919 -18.515087 4.9188247 13
-17.44796 -18.10058 4.8748002 13
-17.251408 25.588638 4.8939157 12
-17.204288 -18.904379 5.8881049 14
-17.308937 -18.479565 5.8326216 14
-17.430424 -18.082123 5.7856045 14
-17.251648 25.589952 6.0056596 13
-17.24934 25.587509 7.1316471 14
-17.247929 25.586395 8.2761431 15
-17.10046 -19.340704 5.9468942 14
-16.800097 25.710676 5.976469 13
-16.799217 25.704472 0.53941989 8
-16.79071 25.694361 3.7739806 11
-16.798403 25.707096 4.8696694 12
-16.794828 25.703623 7.095746 14
-16.34095 25.806528 0.53639841 8
-16.34021 25.806353 1.6045887 9
-16.337376 25.802885 2.6763237 10
-16.347622 25.820047 3.7573266 11
-16.331209 25.795177 4.8411613 12
-16.336313 25.804243 5.9427819 13
-16.339357 25.810083 7.0593162 14
-16.339657 25.811609 8.193099 15
-15.885489 25.904446 0.5334478 8
-15.895577 25.921896 1.5972059 9
-15.881214 25.899546 2.6621909 10
-15.893077 25.919901 3.7380095 11
-15.891265 25.917995 4.8206115 12
-15.89556 25.92605 5.9173555 13
-15.890811 25.919392 7.0257516 14
-15.894182 25.92598 8.1557617 15
-15.444027 26.017202 0.53095281 8
-15.448839 26.026361 1.5895944 9
-15.444474 26.020094 2.6512754 10
-15.438989 26.011948 3.718668 11
-15.451596 26.034237 4.8001862 12
-15.445867 26.025696 5.8885632 13
-15.448894 26.031904 6.9950624 14
-15.44558 26.027468 8.1167183 15
-15.001489 26.120682 0.52841264 8
-15.00859 26.134136 1.5826287 9
-15.010644 26.138821 2.6408951 10
-15.011328 26.141127 3.7056732 11
-15.005968 26.132936 4.7778735 12
-15.009254 26.13979 5.8646946 13
-15.006575 26.136284 6.9641514 14
-15.004019 26.133017 8.0812502 15
-14.572316 26.240469 0.52634132 8
-14.564399 26.227386 1.5752211 9
-14.574652 26.246967 2.630157 10
-14.579211 26.256329 3.6916757 11
-14.566275 26.234243 4.757369 12
-14.57507 26.25124 5.8418221 13
-14.566121 26.236349 6.9340219 14
-14.57052 26.24548 8.0501261 15
-14.135573 26.339876 0.52399647 8
-14.135324 26.340605 1.5694349 9
-14.141786 26.353827 2.6199908 10
-14.13816 26.348282 3.6754043 11
-14.13476 26.343176 4.7395287 12
-14.133892 26.342789 5.8161058 13
-14.13587 26.347715 6.9087462 14
-14.140167 26.356981 8.0208435 15
-13.708059 26.454632 4.7233739 12
-13.708513 26.456785 5.7968864 13
-13.704755 26.450842 6.8831205 14
-13.7104 26.463032 7.9919991 15
-9.4497824 -31.279749 3.9985924 11
-9.4490337 -31.275173 5.160717 12
-9.4519978 -31.282904 6.3379073 13
-9.4546766 -31.289658 7.5315003 14
-8.9282293 -31.160601 3.9667397 11
-8.9277773 -31.156792 5.1197 12
-8.9265909 -31.150379 6.2846584 13
-8.9258757 -31.145594 7.4654431 14
-8.4070749 -31.01454 3.9325573 11
-8.407321 -31.013073 5.0759273 12
-8.4122038 -31.028763 6.2353339 13
-8.4079771 -31.010668 7.4036474 14
-8.0036163 3.6845171 -0.15278798 7
-8.034893 4.4251862 -0.15898558 7
-8.0608149 5.2284064 -0.16648127 7
-8.04533 6.0831008 -0.17476338 7
-8.0100822 7.0166206 -0.18455054 7
-7.6472073 0.55024022 -0.13364299 7
-7.749691 1.1212956 -0.13630813 7
-7.8436713 1.7176934 -0.13960546 7
-7.894495 2.3344545 -0.14298172 7
-7.9574499 2.9903333 -0.14751148 7
-7.9537983 8.0491018 -0.19620968 7
-7.8657513 9.1978588 -0.21000561 7
-7.7351313 10.486004 -0.22633775 7
-7.2795076 -1.0521488 -0.12879975 7
-7.4283099 -0.53420824 -0.13020718 7
-7.5463347 1.9695932e-05 -0.13173161 7
-7.5512433 11.947173 -0.24582323 7
-7.2963696 13.620778 -0.26918438 7
-6.814178 -2.5537698 -0.12807016 7
-6.995707 -2.0642431 -0.12815362 7
-7.1417513 -1.5614822 -0.12822926 7
-6.458457 -3.5431607 -0.13006738 7
-6.6400676 -3.0467575 -0.12878713 7
-6.006701 -4.5181055 -0.13310026 7
-6.2339702 -4.0252099 -0.13121971 7
-5.7502108 -5.0071917 -0.13519602 7
-5.4168696 -5.444674 -0.13633057 7
-4.6993146 -5.4506407 -0.12782533 7
-4.052783 -5.4406848 -0.12054609 7
-4.058126 -1.0402629 -0.2198004 6
-4.1865191 -0.60473746 -0.2217375 6
-4.229692 -0.30405584 -0.22226691 6
-4.3032155 0.15550984 -0.22581255 6
-4.3059034 0.62313837 -0.227997 6
-4.3129697 0.9448815 -0.23137525 6
-4.3027396 1.273133 -0.23514697 6
-4.2333946 1.7705832 -0.24065231 6
-4.1518846 2.2897744 -0.2485348 6
-4.0824428 2.6523726 -0.25522354 6
-3.6945035 -2.0231774 -0.22103366 6
-3.8154657 -1.7480396 -0.22017038 6
-3.9354281 -1.4730345 -0.22039527 6
-3.9654305 3.0043378 -0.26086053 6
-3.8376145 3.3697848 -0.26784527 6
-3.6868227 3.7417784 -0.27556279 6
-3.5017846 -5.4758701 -0.11551681 7
-3.2554426 -2.8267415 -0.22644262 6
-3.4127655 -2.5607057 -0.22401974 6
-3.567867 -2.2989054 -0.22278596 6
-3.517621 4.1275005 -0.28456879 6
-3.3181393 4.5167074 -0.29418719 6
-2.9656482 -5.457973 -0.11038867 7
-2.8764019 -3.3249929 -0.23105279 6
-3.0757482 -3.081459 -0.22873963 6
-2.8167841 -0.82942843 -0.25658226 5
-2.8881371 -0.52240908 -0.25673127 5
-2.953661 -0.21224062 -0.25898948 5
-2.9755003 0.10738247 -0.26071277 5
-2.9887352 0.54362381 -0.26619992 5
-2.9213421 0.98200899 -0.27028778 5
-2.8698397 1.3240438 -0.27714667 5
-3.0845671 4.9045572 -0.30424514 6
-2.8202472 5.3909755 -0.21179123 6.5
-2.48102 -5.4600534 -0.10655013 7
-2.4645996 -3.8406227 -0.23997396 6
-2.6827242 -3.5892015 -0.23557042 6
-2.4999669 -1.6074401 -0.25957406 5
-2.6396687 -1.3231947 -0.25806889 5
-2.7626262 -1.0327433 -0.25766569 5
-2.7937746 1.5428983 -0.27996418 5
-2.6714997 1.8813242 -0.28695211 5
-2.5143669 2.2132344 -0.29410997 5
-2.5114026 5.5590858 -0.17805201 6.6666665
-2.5327735 5.553308 0.21374005 8.5
-2.5326843 5.5533056 0.64340359 10.5
-2.5109055 5.5596833 1.0786742 12.5
-2.5146346 5.5684977 1.414144 14
-2.5113704 5.5618567 1.6393194 15
-2.0223863 -5.4508414 -0.10323744 7
-2.2177215 -4.0672307 -0.24367219 6
-2.0743906 -2.2251236 -0.26592711 5
-2.3261058 -1.8739747 -0.26104763 5
-2.0627663 -0.94216949 -0.27751818 4
-2.1765904 -0.59820956 -0.277013 4
-2.2651961 -0.24420656 -0.279652 4
-2.2737694 0.20539205 -0.2810607 4
-2.2526445 0.57996732 -0.28647506 4
-2.1538181 0.99646342 -0.29303911 4
-2.0269504 1.3214219 -0.2985734 4
-2.3288076 2.5506468 -0.30356115 5
-2.1057515 2.8782394 -0.31333315 5
-2.1419036 5.6426735 -0.15875933 6.75
-2.1434813 5.6469073 0.21111856 8.5
-2.1455708 5.6532006 0.63702065 10.5
-2.1455986 5.6540446 1.0690097 12.5
-2.147419 5.6590877 1.4005874 14
-2.1481135 5.6616368 1.6263088 15
-1.6679718 -4.4793258 -0.25151151 6
-1.9606073 -4.2997227 -0.24862459 6
-1.7639841 -2.5325413 -0.26991275 5
-1.64948 -1.6417321 -0.28458211 4
-1.8084993 -1.40141 -0.28025857 4
-1.8132848 -0.98863727 -0.2853514 3.5
-1.7277073 -0.60945034 -0.2895239 3
-1.8007082 -0.32568952 -0.28936678 3
-1.8410288 0.26658463 -0.2951867 3
-1.7890807 0.55503321 -0.2987186 3
-1.6538538 0.99625212 -0.30794853 3
-1.961566 1.4921861 -0.30423936 4
-1.7876376 1.7621554 -0.31060457 4
-1.9337322 3.0900326 -0.32032341 5
-1.7431648 3.2939692 -0.32754156 5
-1.6985694 5.7582192 -0.17585538 6.6666665
-1.7403557 5.7474957 0.20965326 8.5
-1.7412562 5.7515941 0.63262486 10.5
-1.7403206 5.7490187 1.0611175 12.5
-1.7424959 5.7569952 1.3911034 14
-1.7406673 5.751193 1.6130108 15
-1.3902497 -4.7467437 -0.26030827 6
-1.3302983 -2.894218 -0.27862659 5
-1.5180544 -2.7661541 -0.27590877 5
-1.4454416 -1.8483077 -0.28750342 4
-1.3085006 -1.3454598 -0.29594257 3
-1.449322 -1.0015864 -0.2961019 2.6666667
-1.2997633 -0.6216436 -0.30240637 1.5
-1.4006038 -0.30484685 -0.30161428 1.5
-1.522446 0.33408213 -0.30404454 2
-1.3142033 0.69611079 -0.316829 1.5
-1.3706578 1.0717701 -0.3177048 2.3333333
-1.3909081 1.4253842 -0.31851768 3
-1.203318 1.6586565 -0.3272602 3
-1.3957235 2.2455356 -0.32729694 4
-1.5366426 3.4940457 -0.33551785 5
-1.3179549 3.7022316 -0.34546772 5
-1.3901891 5.8371902 -0.10589485 7
-1.4209232 5.8300977 0.23015092 8.6000004
-1.3896194 5.8363161 0.63123101 10.5
-1.3891355 5.836215 1.0594214 12.5
-1.388541 5.834722 1.3866342 14
-1.3409102 5.8536224 1.6113887 15
-1.0751246 -4.9618874 -0.26721367 6
-1.0393618 -3.0971124 -0.28611869 5
-1.0080589 -2.1794331 -0.29457891 4
-0.87746572 -1.7192159 -0.30446222 3
-1.0066935 -1.4276686 -0.30355191 2.5
-0.97211319 -0.95859075 -0.31030938 1
-1.0432529 -0.64585042 -0.30994755 0.33333334
-1.1495154 -0.24988794 -0.31374213 0
-1.0482221 0.67051005 -0.32045296 0.33333334
-0.98476541 1.0151227 -0.32814825 1
-0.93383825 1.4017704 -0.33183441 2
-0.97048128 1.8600522 -0.33560196 3
-1.0075974 2.561985 -0.34038609 4
-1.0698944 3.8710108 -0.35310066 5
-0.80756593 4.0381317 -0.36210272 5
-1.0101532 5.9304051 -0.1765094 6.6666665
-0.97270399 5.9353886 0.18828548 8.3999996
-0.91741014 5.9486165 0.63254994 10.5
-0.91735756 5.9504533 1.0623826 12.5
-0.91705966 5.9497147 1.390802 14
-0.91690099 5.949688 1.6143787 15
-0.72073799 -3.266732 -0.29298553 5
-0.55176747 -2.4584982 -0.3091855 4
-0.71145898 -2.367537 -0.30313191 4
-0.60492378 -1.8695654 -0.31082559 3
-0.60703981 -1.415254 -0.31502715 1.6666666
-0.66282153 -1.042603 -0.31662738 0.25
-0.57134998 1.1179883 -0.3420783 0
-0.55587089 1.3664663 -0.34118494 1
-0.51587415 1.6943144 -0.34749863 2
-0.53019416 2.1305015 -0.35080945 3
-0.74810159 2.7430704 -0.35121131 4
-0.55485117 2.8292768 -0.35606113 4
-0.52671075 4.1865292 -0.37106213 5
-0.72598583 5.9883962 -0.21247709 6.5
-0.51187295 6.0421515 -0.10768291 7
-0.6827718 5.9958334 0.10392349 8
-0.52310693 6.0475063 0.21057624 8.5
-0.53346616 6.0450029 0.63716608 10.5
-0.53299737 6.0444074 1.0699512 12.5
-0.53306961 6.0475826 1.4017204 14
-0.53292584 6.0469503 1.6269459 15
-0.37293124 -1.603052 -0.31899908 2
-0.3704744 -1.3524261 -0.3224785 1
-0.32579166 -1.1696749 -0.32374638 0
-0.16589929 1.4269842 -0.3547613 0.5714286
-0.17471972 1.8290796 -0.35839906 2
-0.14740257 2.2878649 -0.36322165 3
-0.22477487 2.9964254 -0.3686406 4
-0.22925217 4.3221431 -0.38065949 5
-0.1907368 4.4704709 -0.38541415 5
-0.18940884 6.1673856 -0.1770149 6.6666665
-0.14210013 6.1778831 0.23294638 8.5714283
-0.14236574 6.1777549 0.6355567 10.428572
-0.14470144 6.165556 1.0513746 12.333333
-0.1465645 6.1832848 1.3731623 13.75
-0.13762127 6.1705809 1.654772 15
0.33536208 -5.6735616 -0.29897115 6
0.22228044 -3.5993292 -0.31633791 5
0.25648838 -2.6404655 -0.32695821 4
0.19128917 -2.0727663 -0.33106527 3
0.17990497 -1.7005994 -0.33452207 2
0.16221684 -1.3366368 -0.33722249 0.5
0.23960409 1.4968753 -0.36850861 0.66666669
0.22912854 1.9027364 -0.37180439 2
0.27353439 2.3793163 -0.37704033 3
0.16959155 3.1373546 -0.38165128 4
0.13822623 4.5757298 -0.39453036 5
0.19368303 6.3139777 -0.17646119 6.6666665
0.16985697 6.3067536 0.22774594 8.5
0.16889076 6.3073473 0.67075509 10.5
0.11237437 6.2753024 1.0546912 12.25
0.16779907 6.3130212 1.3502629 13.5
0.16683312 6.3106847 1.6990833 15
0.48439237 4.6751475 -0.40528494 5
0.41931909 -5.7024212 -0.30075771 6
0.65695024 -3.6753964 -0.32788441 5
0.66144556 -2.6586757 -0.33819196 4
0.54305303 -2.0640731 -0.34084064 3
0.55967784 -1.6672769 -0.34588012 2
0.5390538 -1.3772311 -0.34734371 1
0.58358842 -1.1305528 -0.35088003 0
0.70392895 1.1614695 -0.37585768 0
0.57937753 1.3611997 -0.37451741 0.5
0.61800498 1.8420908 -0.38036114 2
0.63126498 2.3559408 -0.38610631 3
0.64483494 3.1697011 -0.3943086 4
0.42642224 6.3707194 -0.10356035 7
0.69207597 6.4489694 -0.21838525 6.5
0.47393754 6.3903742 0.23194762 8.5
0.61789685 6.428112 0.23413806 8.5
0.47326112 6.3926592 0.68245202 10.5
0.61689943 6.4256029 0.57371473 10
0.47311893 6.3989277 1.025086 12
0.61600959 6.4240832 0.91667932 11.5
0.47103158 6.3845744 1.3704342 13.5
0.61498088 6.4235649 1.3821715 13.5
0.47145349 6.3966851 1.728187 15
0.61572534 6.4364591 1.7430831 15
1.0128673 3.1540039 -0.40450528 4
0.84177095 4.7267995 -0.41418353 5
1.0676178 -13.666835 -0.2419719 7
0.85733753 -13.469539 -0.23834868 7
0.85846931 -5.8671794 -0.31177294 6
1.0816625 -3.7012932 -0.338541 5
1.0697452 -2.6197422 -0.34985784 4
0.89025855 -2.0020919 -0.35034522 3
1.0448462 -1.9557166 -0.355005 3
0.97190613 -1.4387076 -0.35881728 1.75
1.0244238 -0.98376703 -0.36392322 0.5
1.1330307 -0.68482888 -0.37013009 0
1.1340231 0.75165397 -0.3829129 0
1.0285282 1.0297171 -0.38503408 0.33333334
0.93026191 1.3236639 -0.38360113 1
0.96234947 1.7183146 -0.38897532 2
0.988213 2.2744381 -0.39449024 3
1.5819641 1.9965785 -0.40777764 3
1.3367276 2.1392941 -0.40297195 3
1.377299 3.0725844 -0.41232881 4
1.4024099 4.7632284 -0.42890358 5
1.3272717 -6.0133834 -0.32361487 6
1.3801425 -3.7073948 -0.34735677 5
1.48423 -2.520225 -0.3621228 4
1.3891866 -1.8090372 -0.36684591 3
1.3596556 -1.2845312 -0.37192029 2
1.4646918 -1.026215 -0.37720698 1.6666666
1.4141753 -0.55111688 -0.37855539 0.75
1.4123735 -0.23702402 -0.3825348 0.33333334
1.4240979 0.2700069 -0.38771951 0.33333334
1.3854856 0.57207382 -0.38988751 0.5
1.3669993 0.8920145 -0.39172918 1
1.389985 1.4234093 -0.39693755 2
1.9930048 0.24021354 -0.40311903 2
1.9069599 0.64650959 -0.40441298 2
1.7088588 1.0538868 -0.40210453 2
1.8045003 1.8172334 -0.41123909 3
1.8623227 2.912149 -0.42435464 4
1.9917951 4.7659869 -0.44612363 5
1.7643808 9.2391815 -0.48087874 6
1.8257645 -6.1351385 -0.33616221 6
1.838364 -3.6643846 -0.36023849 5
1.7901552 -2.4014347 -0.37094602 4
1.6373824 -1.6504769 -0.37400326 3
1.8489178 -1.4931599 -0.38309258 3
1.6901313 -0.92190558 -0.38445461 2
1.8223089 -0.66639209 -0.3890655 2
1.8715467 -0.20892406 -0.39472142 1.75
1.6076411 0.13507274 -0.38890353 1
2.3315518 -0.84776902 -0.40093103 3
2.3371994 1.1386046 -0.4193505 3
2.1950569 1.391699 -0.41889042 3
2.0108204 1.6165155 -0.41486651 3
2.2014706 2.7254519 -0.43054423 4
2.3827701 4.7017217 -0.45540106 5
2.2354202 -14.793646 -0.26340929 7
2.3584118 -6.2405968 -0.35008684 6
2.3142254 -3.5865588 -0.37478167 5
2.1954482 -2.1895776 -0.38502422 4
2.0250771 -1.2970768 -0.38793644 3
2.1983449 -1.0865328 -0.3962048 3
2.7570994 -1.7517443 -0.40522745 4
2.4461124 -0.59247273 -0.40721127 3
2.5415435 -0.22830309 -0.41300955 3
2.5724106 0.20880052 -0.41737834 3
2.5152564 0.5885272 -0.41826874 3
2.4176812 0.96219635 -0.42004415 3
2.5221782 2.4966629 -0.43706855 4
2.7669752 4.59266 -0.4634085 5
2.5527227 9.538559 -0.50415593 6
2.6398985 -3.5057406 -0.38526094 5
2.5749512 -1.9134252 -0.39791295 4
2.9934092 -1.4682137 -0.41394392 4
3.1399925 1.806371 -0.44713995 4
2.9119029 2.1348228 -0.44542071 4
3.1570811 4.4646997 -0.47276235 5
2.9296691 -6.3299756 -0.36569178 6
2.946485 -3.3741865 -0.3931714 5
3.2747395 -3.24226 -0.40431908 5
3.5791075 -3.0630634 -0.41316235 5
3.2564201 -1.0418741 -0.42446491 4
3.4568477 -0.56785941 -0.43473384 4
3.5643973 -0.18829085 -0.44241434 4
3.5925059 0.28675574 -0.44640782 4
3.5689988 0.55145568 -0.44714484 4
3.5053046 0.94685447 -0.44949847 4
3.3326743 1.4538078 -0.44956416 4
3.5423019 4.3029876 -0.48203239 5
3.4077756 9.8110781 -0.52964777 6
3.5133979 -6.3462672 -0.37992337 6
3.8918052 -2.868789 -0.42382616 5
3.9175742 4.1055288 -0.4909645 5
3.6283946 -16.073107 -0.28924483 7
4.2003574 -2.6481731 -0.43501842 5
4.2592077 3.8553069 -0.49724489 5
4.3163595 10.011229 -0.55534977 6
4.1438365 -6.354785 -0.39688563 6
4.3977618 31.198383 2.7948532 10
4.3966937 31.206701 3.9085658 11
4.3946762 31.208611 5.0314913 12
4.3929996 31.213049 6.1676135 13
4.3902178 31.210079 7.3179131 14
4.3884797 31.214594 8.4888077 15
4.6216273 -2.2493899 -0.45016715 5
4.5803299 3.5733516 -0.5030421 5
4.4009233 31.189091 0.58713114 8
4.4013267 31.207378 1.6895139 9
4.8119569 -6.3285055 -0.4153831 6
4.996223 -1.791314 -0.46406081 5
5.1221366 2.9078567 -0.51055402 5
4.8635445 3.2523553 -0.50688994 5
4.8842425 31.342632 0.59210277 8
4.8813348 31.338491 1.701123 9
4.8785205 31.33498 2.814039 10
4.8744292 31.323561 3.9326005 11
4.8746238 31.339111 5.0644083 12
4.8711119 31.331594 6.2054138 13
4.8706641 31.343496 7.3661137 14
4.870182 31.355433 8.5466137 15
5.5264959 -6.2706318 -0.43610755 6
5.2065358 -1.4490709 -0.47217628 5
5.4138193 -1.0895553 -0.48208433 5
5.5673556 -0.70377439 -0.48949215 5
5.5373335 2.1491592 -0.51546717 5
5.3598876 2.5446374 -0.51458037 5
5.2756686 10.138556 -0.58161932 6
5.3180852 -17.558002 -0.32097423 7
5.3668518 31.454004 0.59641552 8
5.21311 -20.309748 1.8344278 10
5.3637228 31.448904 1.7120044 9
5.5075021 -20.247568 2.5772793 11
5.3629432 31.457314 2.8326035 10
5.3575749 -20.272602 3.3224137 12
5.3600593 31.453745 3.9592278 11
5.5024395 -20.234404 4.078002 13
5.3613963 31.474493 5.099308 12
5.3585348 31.471317 6.2488689 13
5.3550234 31.464586 7.4131489 14
5.3530993 31.467186 8.5984964 15
5.6865559 -0.30090073 -0.49632072 5
5.7905312 0.45472628 -0.50553077 5
5.7801986 0.8813386 -0.50851715 5
5.7516284 1.3119082 -0.51267266 5
5.673893 1.737893 -0.5153138 5
5.8566146 10.671076 -0.19205794 7
5.7573462 11.045023 -0.19675697 7
5.6499209 11.43288 -0.2017208 7
5.7965403 -20.155153 0.36551207 8
5.9017944 10.57261 0.23351829 8
5.7968869 10.931767 0.23829724 8
5.6523986 11.439281 0.24523558 8
5.9028096 10.575553 0.65873218 9
5.8031454 10.944608 0.67333347 9
5.7025628 11.334997 0.68918008 9
5.6341734 11.60983 0.70058304 9
5.8581381 31.581429 0.60117018 8
5.9128094 10.594282 1.0873879 10
5.8147726 10.967391 1.1120204 10
5.7101021 11.351078 1.137637 10
5.6365142 11.616051 1.1555806 10
5.9874816 10.376462 1.4988983 11
5.9167871 10.602444 1.518694 11
5.8175793 10.97381 1.5529251 11
5.7233534 11.378295 1.5916942 11
5.7983613 -20.166386 1.8364512 10
5.9276304 10.622678 1.956624 12
5.8602257 10.864994 1.9850565 12
5.6481209 11.640982 1.6164789 11
5.8548746 31.575994 1.7241961 9
5.9942627 10.390237 2.3638132 13
5.9344177 10.635806 2.3994851 13
5.796288 11.124844 2.0166137 12
5.7232451 11.379518 2.0471599 12
5.6527538 11.651856 2.0808172 12
5.7963042 -20.161787 2.5770659 11
5.8325953 11.004265 2.452821 13
5.7226501 11.379804 2.5076103 13
5.6541076 11.656131 2.549757 13
5.9407606 10.648172 2.8492861 14
5.8410335 11.021152 2.9137588 14
5.7381558 11.411477 2.9826109 14
5.6649504 11.679586 3.0304501 14
5.8542256 31.584402 2.8522689 10
5.9515419 10.66836 3.3098574 15
5.8504777 11.040008 3.3841696 15
5.7533579 11.442591 3.4677014 15
5.8547215 31.598942 3.9886968 11
5.796247 -20.16666 4.0811415 13
5.8542471 31.608459 5.1352015 12
5.8494873 31.595461 6.2907271 13
5.8459911 31.589308 7.4628053 14
5.8467774 31.606018 8.6598349 15
6.2675576 -6.1517792 -0.4575375 6
6.3464813 8.8149433 -0.55214167 6
6.0628314 9.8401318 -0.58773094 6
6.3610263 31.723661 -0.52378565 7
6.3263292 8.9229584 -0.17165811 7
6.2173886 9.3259315 -0.17610346 7
6.1070585 9.7561569 -0.18107191 7
6.0258279 10.101951 -0.1852345 7
6.2366457 -20.048817 0.36638457 8
6.3648415 8.8414335 0.21151876 8
6.2328382 9.3495312 0.21775416 8
6.1105933 9.7626247 0.22282723 8
6.0253587 10.102203 0.22726957 8
6.3621039 8.8384266 0.59424925 9
6.234808 9.3532991 0.6128127 9
6.1200824 9.7783203 0.62837505 9
6.0329032 10.11564 0.64115763 9
6.358871 31.724003 0.60635644 8
6.2342792 -20.043695 1.1006374 9
6.3521171 8.9608231 0.98679709 10
6.2426343 9.3655663 1.0105839 10
6.126204 9.7888937 1.0361942 10
6.0399456 10.128257 1.0576038 10
6.3583274 8.9701042 1.3781492 11
6.2490463 9.3759184 1.411564 11
6.1373391 9.8074112 1.4485867 11
6.2339482 -20.04484 1.837765 10
6.3708158 8.9882135 1.7754384 12
6.2574086 9.3891687 1.8174597 12
6.1403584 9.812974 1.8636485 12
6.0505795 10.147842 1.9013448 12
6.3550582 31.716249 1.7375247 9
6.3448496 9.0893373 2.1874962 13
6.2665949 9.4035473 2.2292945 13
6.1743946 9.7114658 2.2694376 13
6.0541277 10.154744 2.3303232 13
6.2330585 -20.04446 2.5792787 11
6.3565679 9.1066322 2.5992908 14
6.27349 9.4145031 2.6470516 14
6.1564579 9.8402662 2.7146633 14
6.3694711 9.1256046 3.0198584 15
6.3072834 9.3193026 3.0529814 15
6.1657557 9.855793 3.1523893 15
6.0119071 10.421378 2.8120389 14
6.3551116 31.727451 2.8740709 10
6.2312856 -20.041218 3.3266568 12
6.0735898 10.188947 3.2153141 15
6.0171943 10.431536 3.2635577 15
6.2329726 -20.048899 4.0843177 13
6.3534899 31.730536 4.0174236 11
6.2280893 -20.035711 4.8478336 14
6.3521242 31.734968 5.1711321 12
6.0855231 -20.087437 5.6281652 15
6.3717599 -19.993174 5.6273327 15
6.3505526 31.738522 6.3378859 13
6.3484144 31.739452 7.5202937 14
6.343328 31.726112 8.7181396 15
6.7210822 8.0430403 -0.53270292 6
6.5990596 8.1344471 -0.16404203 7
6.4581857 8.4472656 -0.16665691 7
6.5393381 8.1823034 0.20386326 8
6.4400306 8.5515137 0.20807913 8
6.5412817 8.1851482 0.57247108 9
6.4479856 8.562602 0.58523351 9
6.6762209 -19.939476 1.1030215 9
6.5541224 8.2017412 0.94428289 10
6.4601398 8.579011 0.96537703 10
6.5480504 8.256485 1.3221437 11
6.4424849 8.6846781 1.3558587 11
6.674562 -19.936779 1.8411039 10
6.5930285 8.1299057 1.6885579 12
6.4816074 8.5456543 1.7294784 12
6.5789003 8.2339754 2.0819917 13
6.4661088 8.6544828 2.1331546 13
6.6728244 -19.933865 2.5834639 11
6.5880532 8.245944 2.4727182 14
6.4782982 8.6055317 2.5224993 14
6.4044137 8.8998814 2.5668597 14
6.5922766 8.2517643 2.8687811 15
6.4979777 8.6318111 2.9334507 15
6.423224 8.9263334 2.9848051 15
6.6748638 -19.942171 3.333858 12
6.6704659 -19.93141 4.0892849 13
7.0193095 -5.9575148 -0.47890246 6
6.9901781 8.120575 -0.16767041 7
6.9732819 8.1018047 0.20824386 8
6.9744587 8.1036921 0.58438671 9
6.8622093 31.846287 0.61130285 8
6.9815254 8.1123133 0.96290898 10
6.9823279 8.1137791 1.3433944 11
6.9854155 8.1178598 1.7278768 12
6.8609705 31.850771 1.7509692 9
6.9872556 8.1205235 2.1166739 13
6.9892116 8.1233282 2.5111053 14
6.9837761 8.1176891 2.9092112 15
6.8583212 31.848864 2.8946223 10
6.8589883 31.862152 4.0471449 11
6.8583498 31.869579 5.2096596 12
6.8535876 31.858299 6.3819628 13
6.8558455 31.879206 7.5772009 14
6.8516569 31.870859 8.7853851 15
7.411129 -19.32448 -0.36078554 7
7.5307636 8.2472486 -0.17466107 7
7.397552 8.2206097 0.21549831 8
7.3995738 8.223176 0.60467893 9
7.3775687 31.99124 0.61683482 8
7.4015441 8.2259693 0.99557567 10
7.3974562 8.2219181 1.3880168 11
7.4077067 8.2337322 1.7869117 12
7.3763943 31.995686 1.765426 9
7.4067583 8.2333078 2.1881385 13
7.4058309 8.2327671 2.5948188 14
7.4137282 8.2420006 3.011646 15
7.3740053 31.995001 2.9181485 10
7.3707018 31.990461 4.0774641 11
7.3728986 32.009491 5.2503729 12
7.3675604 31.996466 6.4313278 13
7.3655787 31.997896 7.6310067 14
7.3660507 32.009979 8.8533077 15
7.824163 -5.7216706 -0.50336641 6
7.8290687 8.325635 -0.17868379 7
7.8433352 8.3410912 0.22314093 8
7.8431764 8.341424 0.62584311 9
7.8972001 32.122604 0.62226146 8
7.8476734 8.3466463 1.0306854 10
7.8423333 8.3415537 1.4367669 11
7.8567142 8.3571453 1.8504606 12
7.8971519 32.131279 1.7798227 9
7.8387675 8.3388443 2.2611077 13
7.8554125 8.356823 2.6872883 14
7.8521204 8.3539057 3.1143849 15
7.8964591 32.137413 2.9420903 10
7.8921661 32.138218 5.2905984 12
7.8903484 32.149357 7.6945901 14
7.8853865 32.138882 8.9206839 15
8.1501245 8.4159431 -0.59504694 6
8.1546507 8.4210443 -0.18323286 7
8.1458092 8.4125271 0.22823937 8
8.1514511 8.418766 0.64052945 9
8.1574993 8.425415 1.0550237 10
8.1587372 8.4271727 1.471886 11
8.1655111 8.4345741 1.8938084 12
8.1636782 8.4332085 2.3187728 13
8.1727152 8.4429302 2.7530577 14
8.1570816 8.4275198 3.18589 15
8.6383114 -5.4046512 -0.52825344 6
8.486207 8.5104017 -0.18782032 7
8.483242 8.5079432 0.23418416 8
8.4859428 8.511095 0.65692145 9
8.4264011 32.261711 0.62799829 8
8.4772005 8.502923 1.0801148 10
8.4950695 8.5210905 1.5097849 11
8.4917212 8.5182638 1.9402156 12
8.4261827 32.26923 1.7948148 9
8.4991264 8.5260849 2.378154 13
8.4973631 8.5248394 2.8198929 14
8.423667 32.268116 2.9657295 10
8.4972954 8.52528 3.269367 15
8.4220648 32.270496 4.1442595 11
8.4239674 32.286179 5.335381 12
8.4232969 32.292267 6.5390182 13
8.4205904 32.290779 7.7578063 14
8.4163694 32.283691 8.9948139 15
8.9667177 32.403828 -0.54067796 7
9.0041008 8.6401386 -0.19496769 7
9.0125103 8.6486368 0.24347806 8
9.0058489 8.6427736 0.6822207 9
8.9692163 32.420605 0.6342864 8
9.0171223 8.6538792 1.1242137 10
8.8306408 8.6021214 1.5467949 11
8.8392801 8.6109047 1.9904611 12
8.9653969 32.41486 1.8107127 9
9.1941862 8.6980467 2.0413523 12
8.8307018 8.6031332 2.4352977 13
8.8322115 8.605073 2.8887196 14
8.9623947 32.41206 2.9913769 10
8.8417358 8.6147289 3.3527496 15
8.9593325 32.409096 4.1791229 11
8.9642296 32.434593 5.3816752 12
8.9584227 32.421989 6.5917907 13
9.4735308 -5.0134091 -0.55467534 6
9.5718498 8.7912645 -0.20299739 7
9.5779905 8.7972746 0.25347844 8
9.5670662 8.7878017 0.70991999 9
9.5117159 32.548126 0.64013261 8
9.573102 8.793726 1.1691291 10
9.2037249 8.7064972 1.5895087 11
9.5762844 8.7970591 1.6313237 11
9.5956106 8.8150568 2.101378 12
9.2127533 8.7158642 2.5049381 13
9.5828562 8.8039351 2.5700734 13
9.211072 8.7147665 2.9702816 14
9.5942364 8.8147287 3.0516379 14
9.2069397 8.7113895 3.4422102 15
9.5901175 8.8114586 3.5365512 15
9.509922 32.564526 4.2173047 11
9.5073013 32.570942 6.6502733 13
9.5051794 32.571556 7.8900423 14
9.9748125 8.8954792 -0.67845231 6
9.9821749 8.9024048 -0.20888735 7
9.9758015 8.8972149 0.26051778 8
9.9880657 8.9084625 0.7313298 9
9.9814215 8.9030361 1.202841 10
9.9915352 8.9123917 1.6794883 11
9.9948225 8.9157295 2.159812 12
9.9971561 8.9182339 2.6456206 13
9.993742 8.9156713 3.1365912 14
10.083821 -21.512001 -0.41249415 7
10.286817 -4.5250111 -0.58053797 6
10.07211 32.713467 1.8444226 9
10.070772 32.716263 3.0466695 10
10.004223 8.9253778 3.6403141 15
10.06532 32.705894 4.2548504 11
10.068362 32.722878 5.477324 12
10.066632 32.724602 6.7115917 13
10.06252 32.718792 7.9610972 14
10.407186 9.011713 -0.21497756 7
10.429655 9.0313835 0.26885444 8
10.412527 9.0171309 0.75259686 9
10.639436 32.85648 0.65340722 8
10.408477 9.014082 1.2381554 10
10.411585 9.017169 1.7275736 11
10.637925 32.858593 1.8618242 9
10.419416 9.0243073 2.2225754 12
10.42696 9.0312052 2.7238193 13
10.640124 32.872047 3.0759606 10
10.426985 9.031661 3.2303958 14
10.442171 9.0451221 3.7506909 15
10.633123 32.857449 4.2949371 11
10.637567 32.87788 5.5292974 12
10.627452 32.853893 6.7698212 13
10.632905 32.877594 8.0372601 14
11.111044 -3.956537 -0.60818303 6
11.458243 8.8112974 -0.73360026 6
11.21786 33.010662 0.6603263 8
11.217743 33.016724 1.8805072 9
11.214545 33.013836 3.1048419 10
11.21069 33.009083 4.3362937 11
11.210385 33.014717 5.5798302 12
11.210593 33.021919 6.838017 13
11.209157 33.024426 8.1128616 14
11.91502 -3.2948031 -0.63631332 6
11.808587 33.164635 -0.56272256 7
11.803549 33.156712 0.66727805 8
11.802773 33.160667 1.8989437 9
11.805264 33.173729 3.136354 10
11.802083 33.171059 4.3803167 11
11.805286 33.186188 5.6378951 12
11.798558 33.173767 6.9049325 13
11.803068 33.192711 8.1961823 14
12.356397 8.1511116 -0.75140685 6
12.39981 33.327068 5.6924982 12
12.653964 -2.5320814 -0.66307759 6
12.591568 -26.836023 0.52106011 8
12.493491 -25.665791 0.50225472 8
12.405685 33.319149 0.67476213 8
12.663293 -26.990738 1.5670601 9
12.48466 -25.650043 1.5000057 9
12.403529 33.319248 1.9187989 9
12.735283 -27.146049 2.6288917 10
12.48223 -25.647409 2.5014389 10
12.400691 33.317558 3.1673086 10
12.48869 -25.662985 3.5112667 11
12.478478 -25.644455 4.5249634 12
12.402338 33.327847 4.4250078 11
12.479496 -25.648937 5.5534377 13
12.482265 -25.657036 6.5972209 14
12.404134 33.344604 6.9779377 13
12.401119 33.342686 8.2775154 14
12.902995 -25.566628 0.50435078 8
13.017091 33.476559 0.68235457 8
12.894875 -25.552881 1.5054953 9
13.017859 33.484108 1.93962 9
12.889937 -25.545425 2.5098217 10
12.898571 -25.564775 3.5233819 11
13.014364 33.480808 3.201102 10
12.803528 -27.293446 3.7081537 11
12.888436 -25.547092 4.5405836 12
13.012029 33.480507 4.4705424 11
12.915583 -27.533909 4.8244104 12
12.883788 -25.540266 5.5700455 13
13.021575 33.510548 5.7561822 12
12.884855 -25.544756 6.6159391 14
13.01785 33.506828 7.0513625 13
13.016541 33.509342 8.3656025 14
13.599684 -24.285675 -0.48117521 7
13.320848 -1.6767715 -0.6886788 6
13.234371 7.4158592 -0.77032793 6
13.308601 -25.454054 0.50631762 8
13.289392 -25.42878 5.5874372 13
13.295494 -25.442741 6.6389875 14
13.916726 -0.73762 -0.71367919 6
13.887043 6.511127 -0.77924132 6
13.651073 33.661083 0.69071966 8
13.71044 -25.331381 1.5160443 9
13.646394 33.655022 1.9614226 9
13.719632 -25.3505 2.529443 10
13.719268 -25.352057 3.54809 11
13.643468 33.653252 3.2368159 10
13.708495 -25.334463 4.5721498 12
13.642902 33.657295 4.5207491 11
13.705214 -25.330685 5.60922 13
13.644736 33.66724 5.8171458 12
13.698907 -25.321369 6.6586771 14
13.640721 33.66296 7.1257849 13
13.63766 33.661076 8.4526691 14
14.133675 -25.237564 0.51083815 8
14.279387 33.802212 0.6984219 8
14.130137 -25.233425 1.5226889 9
14.286125 33.823181 1.9837189 9
14.136178 -25.246344 2.5396023 10
14.128068 -25.234091 3.5602067 11
14.284365 33.824223 3.2734721 10
14.122854 -25.227016 4.5895243 12
14.278491 33.815639 4.5699873 11
14.120725 -25.225451 5.6309204 13
14.281914 33.828926 5.8808947 12
14.122768 -25.231339 6.6883669 14
14.286864 33.845867 7.2082582 13
14.283319 33.84293 8.5501194 14
14.647011 1.1315312 -0.75027466 6
14.735384 4.4591618 -0.78342861 6
14.40921 5.524724 -0.78459543 6
14.551914 -25.130022 0.51332867 8
14.552555 -25.133253 1.5296248 9
14.545549 -25.123329 2.5485446 10
14.5435 -25.121948 3.5740888 11
14.541742 -25.121084 4.608417 12
14.536255 -25.113827 5.652709 13
14.531479 -25.107822 6.7109871 14
14.857459 2.2355514 -0.76630175 6
14.872368 3.3507063 -0.77661008 6
14.943311 33.992088 -0.59034383 7
14.973489 -25.021492 0.515948 8
14.938242 33.985596 0.70722997 8
14.968537 -25.015337 1.5359082 9
14.939134 33.992561 2.0067623 9
14.965794 -25.012869 2.5594518 10
14.963483 -25.011131 3.5891404 11
14.939229 33.997753 3.3114982 10
14.960174 -25.007742 4.6272173 12
14.932775 33.98819 4.6227002 11
14.953584 -24.998922 5.6752968 13
14.944657 34.020065 5.9517932 12
14.959855 -25.011549 6.7427258 14
14.936637 34.007065 7.2885814 13
14.936647 34.012272 8.6473522 14
15.392426 -24.901936 0.51849174 8
15.395957 -24.909689 1.5433806 9
15.39027 -24.902584 2.5711 10
15.388428 -24.901691 3.6054006 11
15.386098 -24.900034 4.6483583 12
15.377727 -24.888655 5.70052 13
15.379187 -24.893156 6.7704086 14
15.825367 -24.79788 0.52151448 8
15.612937 34.173531 0.7163825 8
15.82419 -24.798067 1.5509359 9
15.606834 34.165051 2.0306914 9
15.603177 34.161896 3.3497677 10
15.808643 -24.77994 4.6685157 12
15.604434 34.169453 4.6782312 11
15.815128 -24.792158 5.7305694 13
15.614326 34.195801 6.0221124 12
15.804767 -24.778088 6.8009105 14
15.605082 34.18063 7.3741035 13
15.60781 34.191551 8.7501621 14
16.258894 -24.685097 -0.50860769 7
16.258785 -24.686932 0.52455592 8
16.251194 -24.677443 1.5583861 9
16.252899 -24.68203 2.596658 10
16.290487 34.3465 3.3912513 10
16.255541 -24.688051 3.6418564 11
16.247606 -24.678082 4.6934876 12
16.296875 34.364513 4.7373657 11
16.239702 -24.668177 5.7559576 13
16.294895 34.365059 6.0934606 12
16.241978 -24.673712 6.8363585 14
16.296986 34.374176 7.4666266 13
16.297626 34.380325 8.858593 14
16.695663 -24.573576 0.52771336 8
16.699776 -24.581585 1.5678816 9
16.692148 -24.572386 2.6106808 10
16.688944 -24.569675 3.6600235 11
16.679192 -24.557381 4.7162971 12
16.674955 -24.553194 5.785152 13
17.136692 -24.458515 0.53100544 8
17.139145 -24.463955 1.5764897 9
17.131275 -24.454721 2.6246641 10
17.129156 -24.453672 3.6796682 11
17.123253 -24.44726 4.7425919 12
17.110321 -24.432898 6.9045725 14
17.578045 -24.336065 0.53431284 8
17.368448 -47.114265 0.87735224 8
17.587364 -24.350859 1.5858968 9
17.3696 -47.122341 2.6336241 9
17.57165 -24.3311 2.6388345 10
17.569817 -24.330519 3.6993935 11
17.369026 -47.125751 4.3964581 10
17.566004 -24.329201 5.8503804 13
17.364321 -47.118019 6.168849 11
17.560329 -24.323381 6.9449873 14
17.358816 -47.108181 7.9555211 12
18.074209 -46.939713 0.87957239 8
18.071264 -46.936893 2.6382544 9
18.03018 -24.22418 2.6556811 10
18.020971 -24.213776 3.7212903 11
18.071075 -46.941227 4.4037991 10
18.019329 -24.213512 4.7971373 12
18.013153 -24.207207 5.88342 13
18.066402 -46.933983 6.1789198 11
18.010914 -24.206196 6.9854879 14
18.060911 -46.924664 7.9683847 12
18.496168 -24.112398 -0.52033859 7
18.484388 -24.09897 0.54164898 8
18.482828 -24.098831 1.6045951 9
18.783119 -46.770611 2.6445711 9
18.779055 -46.765213 4.4129424 10
18.474302 -24.093464 4.8261557 12
18.467163 -24.086123 5.9186258 13
18.777565 -46.766239 6.1925483 11
18.463661 -24.08354 7.0267253 14
18.768871 -46.749424 7.9844627 12
18.953522 -23.988035 0.54577988 8
