# .PCD v0.7 - Point Cloud Data file format
VERSION 0.7
FIELDS x y z intensity
SIZE 4 4 4 4
TYPE F F F F
COUNT 1 1 1 1
WIDTH 1355
HEIGHT 1
VIEWPOINT 0 0 0 1 0 0 0
POINTS 1355
DATA ascii
0.66737235 3.3472536 -0.43462718 0
0.76648039 3.3425226 -0.43662414 0
0.86444235 3.3289499 -0.43844903 0
0.99057615 3.3215544 -0.44176275 0
1.0515932 3.3503034 -0.44380003 0
0.044864085 3.4141324 -0.41927195 0
0.13526249 3.4345639 -0.42248768 0
0.23524851 3.454864 -0.4264816 0
0.33588755 3.4651508 -0.42880079 0
0.43734711 3.4733355 -0.43135884 0
0.52827471 3.4610479 -0.43314222 0
0.63005692 3.4608431 -0.43530807 0
0.74955201 3.4566066 -0.43877032 0
0.85048527 3.4431334 -0.44065297 0
0.92413044 3.4571323 -0.4432717 0
1.0490203 3.4566777 -0.44604883 0
0.56939876 3.5056562 -0.43608063 0
0.67286348 3.5054405 -0.43827072 0
0.7265349 3.5127144 -0.4404352 0
0.83068633 3.5069947 -0.44251892 0
1.2534711 -3.1451511 -0.30081823 0
1.3417844 -3.1774352 -0.3018572 0
1.4331324 -3.1597273 -0.30477864 0
1.5481254 -3.1348104 -0.30799681 0
1.6495166 -3.1448793 -0.31069908 0
1.7545644 -3.1243062 -0.31350258 0
1.8379526 -3.1144109 -0.31638476 0
1.1907889 -3.0189364 -0.30204225 0
1.2639349 -3.0131335 -0.30388784 0
1.3434986 -3.0786543 -0.30436304 0
1.4423544 -3.0627322 -0.30689853 0
1.5345048 -3.0303552 -0.31023389 0
1.6345152 -3.0281351 -0.31261837 0
1.7223175 -3.067091 -0.31395847 0
1.8557924 -3.0441468 -0.31755143 0
1.9373928 -3.0780957 -0.31820053 0
1.1335486 -2.9350076 -0.3018612 0
1.2497622 -2.9206219 -0.30563608 0
1.3492799 -2.9563873 -0.3071394 0
1.4505503 -2.9692516 -0.30942467 0
1.5368264 -2.9301045 -0.31233665 0
1.6560409 -2.9484086 -0.31502938 0
1.7744372 -2.9582529 -0.31781638 0
1.8464906 -2.9336717 -0.31942245 0
0.98267376 -2.8432291 -0.30160806 0
1.0560437 -2.8553779 -0.30132079 0
1.1485373 -2.8516822 -0.3048009 0
1.2352912 -2.8307076 -0.30717343 0
1.3480177 -2.8444605 -0.30986324 0
1.4527584 -2.8689246 -0.31175831 0
1.5433278 -2.8426313 -0.31444627 0
1.6408519 -2.8421357 -0.31709918 0
1.7511939 -2.8725326 -0.31896946 0
0.89250857 -2.7072411 -0.30118024 0
0.93873268 -2.7160916 -0.30357113 0
1.0471294 -2.7699201 -0.30325463 0
1.1595011 -2.7641659 -0.30723196 0
1.2415109 -2.7371697 -0.30926323 0
1.3516817 -2.7498941 -0.31217039 0
1.4526352 -2.7695861 -0.31356242 0
1.5447359 -2.7508683 -0.31660968 0
1.656056 -2.7457438 -0.31944588 0
1.725564 -2.7415457 -0.32104796 0
0.84408855 -2.6232369 -0.3016392 0
0.94187331 -2.6429074 -0.30398741 0
1.041984 -2.6422076 -0.30645195 0
1.1434169 -2.6721103 -0.30863667 0
1.2502304 -2.6547518 -0.31196162 0
1.3596659 -2.6380522 -0.3142519 0
1.4510714 -2.657877 -0.31652328 0
1.5438638 -2.6591649 -0.31886929 0
1.6289761 -2.6295104 -0.3210901 0
0.7576856 -2.5403824 -0.30105805 0
0.85823739 -2.5417051 -0.30487517 0
0.95932305 -2.5377076 -0.30595982 0
1.0550671 -2.515198 -0.31057605 0
1.1479691 -2.5798645 -0.31066629 0
1.252416 -2.5636797 -0.31421441 0
1.3494682 -2.5284145 -0.31650963 0
1.4752309 -2.5415878 -0.31979647 0
1.5409051 -2.5689294 -0.32082391 0
1.6046374 -2.5494194 -0.3226735 0
0.5882358 -2.4834161 -0.3006686 0
0.65938669 -2.4665463 -0.30113259 0
0.75039136 -2.4517884 -0.30264914 0
0.84691042 -2.4502637 -0.30613622 0
0.9390434 -2.4313662 -0.30796748 0
1.0370717 -2.4235981 -0.31163728 0
1.14482 -2.4583912 -0.31374636 0
1.2483927 -2.4653475 -0.31556934 0
1.3455801 -2.4366338 -0.31826279 0
1.4407921 -2.4420588 -0.3208411 0
1.5333112 -2.4750786 -0.32227084 0
0.56631386 -2.3613167 -0.30285212 0
0.6403622 -2.3783493 -0.30266857 0
0.7426542 -2.3657074 -0.30457285 0
0.85146576 -2.353982 -0.30805147 0
0.95003933 -2.3382206 -0.31160191 0
1.039461 -2.3248777 -0.31362823 0
1.1449209 -2.3349271 -0.31691924 0
1.2421573 -2.3682909 -0.31662685 0
1.3437742 -2.3531418 -0.32094175 0
1.4376464 -2.3206468 -0.32345158 0
1.5078961 -2.3957186 -0.32397392 0
0.36206827 -2.2291706 -0.30021408 0
0.46076611 -2.2271659 -0.30111983 0
0.5603115 -2.2232244 -0.30504209 0
0.65288335 -2.2486141 -0.30533788 0
0.74686998 -2.2652667 -0.30826256 0
0.85364825 -2.2581019 -0.3098349 0
0.95550323 -2.2328064 -0.31377229 0
1.061933 -2.2408514 -0.31727371 0
1.1660405 -2.2822001 -0.317269 0
1.2506621 -2.2647755 -0.31965217 0
1.3432041 -2.2392776 -0.32331336 0
1.4393381 -2.2331171 -0.32623464 0
1.5237514 -2.2049339 -0.32908851 0
0.34929016 -2.1506689 -0.30104369 0
0.44398308 -2.1460073 -0.30277336 0
0.53992552 -2.1423433 -0.30635956 0
0.63443351 -2.1271639 -0.30776286 0
0.75668365 -2.1396596 -0.31117466 0
0.85679597 -2.1721172 -0.31242645 0
0.95763093 -2.1520264 -0.31581029 0
1.0650171 -2.1409628 -0.31873962 0
1.152365 -2.1593637 -0.31981653 0
1.2613239 -2.1371601 -0.32301292 0
1.3609043 -2.139739 -0.32671693 0
1.4476029 -2.1600666 -0.32816845 0
1.5458983 -2.1483495 -0.33167329 0
1.6471287 -2.164294 -0.33428147 0
1.7295182 -2.1237948 -0.33713543 0
0.27678218 -2.0784006 -0.3018035 0
0.35083121 -2.066525 -0.30270416 0
0.45875764 -2.0678923 -0.30598834 0
0.54947656 -2.0555437 -0.30791983 0
0.64279461 -2.0475075 -0.31052712 0
0.7499603 -2.0275629 -0.31349808 0
0.85119867 -2.054194 -0.3152999 0
0.95532125 -2.0667088 -0.31783387 0
1.0504733 -2.0379813 -0.32030484 0
1.1495423 -2.0470183 -0.32256442 0
1.2528791 -2.0548956 -0.32525492 0
1.3526155 -2.0183191 -0.32904217 0
1.4354311 -2.0769813 -0.32992351 0
1.5485995 -2.0470045 -0.33435288 0
1.6541179 -2.0611403 -0.3365396 0
1.7509114 -2.0386527 -0.33809352 0
1.8529927 -2.0558426 -0.34132233 0
1.9368204 -2.0096364 -0.34342828 0
0.056761663 -1.9209474 -0.30144101 0
0.19145148 -1.9300261 -0.30230668 0
0.25977102 -1.9518509 -0.30442846 0
0.33398047 -1.9483993 -0.30438542 0
0.44815689 -1.933943 -0.30953163 0
0.54259551 -1.9729439 -0.30954176 0
0.64832026 -1.9662939 -0.31335592 0
0.74921048 -1.9397604 -0.31500918 0
0.86284262 -1.9390442 -0.31824541 0
0.94118458 -1.9621068 -0.31994697 0
1.042987 -1.9544125 -0.32237968 0
1.1413306 -1.9338734 -0.32446241 0
1.2319919 -1.9572978 -0.32761949 0
1.3384143 -1.936601 -0.33088771 0
1.4392382 -1.960143 -0.33330032 0
1.5464959 -1.9270388 -0.33665976 0
1.6490409 -1.9666965 -0.33803466 0
1.7685435 -1.9622802 -0.3406418 0
1.8510567 -1.9391375 -0.34337416 0
1.9595046 -1.9664801 -0.34634516 0
2.0371907 -1.9474268 -0.3483651 0
2.1402876 -1.9149669 -0.35263604 0
-0.045335557 -1.8097481 -0.30119157 0
0.043435022 -1.8367914 -0.30216035 0
0.15900056 -1.8622639 -0.30224648 0
0.24644476 -1.8518682 -0.30487168 0
0.35526446 -1.8728694 -0.30668613 0
0.44748291 -1.8491583 -0.31112862 0
0.54943734 -1.8779179 -0.31162417 0
0.65030384 -1.8644854 -0.31546649 0
0.74766713 -1.8460735 -0.31732997 0
0.84250349 -1.8322868 -0.32037416 0
0.94032961 -1.8325591 -0.32269216 0
1.0444102 -1.8598145 -0.32383627 0
1.1518601 -1.8299745 -0.32844689 0
1.2462032 -1.8595579 -0.33010477 0
1.3509336 -1.8398558 -0.33388349 0
1.4503611 -1.8611596 -0.33589736 0
1.5525388 -1.8249279 -0.33855256 0
1.6516693 -1.8538227 -0.34074029 0
1.762853 -1.8646868 -0.34266821 0
1.853088 -1.8331887 -0.3462199 0
1.946691 -1.871457 -0.34768888 0
2.0478957 -1.8414739 -0.35130891 0
2.1541128 -1.8456483 -0.35344815 0
2.2531044 -1.8210934 -0.35573599 0
-0.030952446 -1.72679 -0.30216095 0
0.046191536 -1.7416279 -0.30284855 0
0.14091629 -1.7394499 -0.30385247 0
0.2435237 -1.7329028 -0.30775425 0
0.34540689 -1.7319063 -0.31057048 0
0.44831821 -1.7437736 -0.31255361 0
0.54722273 -1.7617754 -0.3144815 0
0.6510554 -1.7602295 -0.31708425 0
0.75695574 -1.7344571 -0.3200185 0
0.85645705 -1.7536176 -0.32269153 0
0.95820618 -1.770661 -0.3242982 0
1.0417491 -1.7537912 -0.32637757 0
1.149456 -1.7419658 -0.33059496 0
1.2513586 -1.7564102 -0.33324504 0
1.3584642 -1.7431968 -0.33628711 0
1.438808 -1.7585112 -0.33717909 0
1.5440272 -1.7378644 -0.3406992 0
1.6720854 -1.7516447 -0.34294355 0
1.7605262 -1.7585825 -0.34528613 0
1.8544102 -1.7322758 -0.3481895 0
1.9484915 -1.7686768 -0.35011545 0
2.0412052 -1.7322779 -0.35258046 0
2.1558404 -1.7427216 -0.35530734 0
2.2700465 -1.7300504 -0.359108 0
2.3578675 -1.7441906 -0.36013547 0
-0.27274972 -1.6065474 -0.30005911 0
-0.13444752 -1.6298708 -0.30115679 0
-0.041212145 -1.6463904 -0.30337277 0
0.041357245 -1.6517706 -0.30490762 0
0.14807397 -1.6497583 -0.30583403 0
0.25701925 -1.6566563 -0.30977768 0
0.35456109 -1.6544491 -0.31268761 0
0.45104706 -1.6402488 -0.31460598 0
0.54456168 -1.6521503 -0.31580764 0
0.6434899 -1.6512355 -0.31921023 0
0.75137943 -1.656307 -0.32181379 0
0.86187154 -1.6374588 -0.32494065 0
0.94792473 -1.6600044 -0.32684854 0
1.0551388 -1.644709 -0.32988685 0
1.1462982 -1.6586417 -0.33272883 0
1.2538447 -1.6577468 -0.33521685 0
1.3449841 -1.6514328 -0.33765298 0
1.4352175 -1.6324629 -0.34059829 0
1.5422059 -1.6389823 -0.3427957 0
1.6551265 -1.6609329 -0.34453943 0
1.7570076 -1.657379 -0.34688225 0
1.8476483 -1.6296401 -0.35047507 0
1.9569433 -1.6525214 -0.35246018 0
2.0515351 -1.6345894 -0.35576612 0
2.144031 -1.6501116 -0.35795966 0
2.2422602 -1.6339751 -0.35942447 0
2.3575048 -1.641573 -0.36249447 0
2.4563851 -1.6689838 -0.36494225 0
2.5002337 -1.6368436 -0.36692658 0
-0.34662724 -1.5115589 -0.30144328 0
-0.24782626 -1.525714 -0.30179071 0
-0.14269012 -1.5439928 -0.3029362 0
-0.050075218 -1.5578794 -0.30448923 0
0.050524171 -1.5684421 -0.30655992 0
0.15204556 -1.5683097 -0.30749711 0
0.24808349 -1.5708768 -0.31130549 0
0.35127786 -1.5685915 -0.31450987 0
0.45374238 -1.5465692 -0.31545764 0
0.54723293 -1.5378293 -0.31903887 0
0.65419644 -1.5286769 -0.32185096 0
0.74281228 -1.5488317 -0.32584986 0
0.8408556 -1.5485201 -0.32667851 0
0.94609761 -1.5519032 -0.32939625 0
1.0525006 -1.546283 -0.33229142 0
1.1453832 -1.5508603 -0.3345246 0
1.2465901 -1.5306516 -0.3373912 0
1.345307 -1.5587236 -0.33935049 0
1.4626092 -1.5617881 -0.34237647 0
1.5438887 -1.5273124 -0.34416395 0
1.6498286 -1.5633149 -0.34663111 0
1.7526032 -1.5609306 -0.34964904 0
1.8383871 -1.5300903 -0.35202393 0
1.9511995 -1.5543069 -0.35491511 0
2.0723481 -1.556031 -0.35759425 0
2.1528151 -1.5611191 -0.35889563 0
2.2467482 -1.5488092 -0.36220989 0
2.3332725 -1.5514481 -0.36468345 0
2.4471586 -1.552434 -0.36642846 0
2.5607357 -1.5633771 -0.36928952 0
2.6168585 -1.5066836 -0.3717925 0
-0.34305438 -1.4338986 -0.30130616 0
-0.24419279 -1.4383756 -0.30202204 0
-0.14152387 -1.461053 -0.30413532 0
-0.051801547 -1.4348958 -0.30651918 0
0.046764858 -1.4502662 -0.30887729 0
0.15154567 -1.4549943 -0.31093457 0
0.2510404 -1.4445057 -0.31387025 0
0.34638506 -1.4421506 -0.3159236 0
0.44181567 -1.4509469 -0.3182458 0
0.552719 -1.4513245 -0.32128862 0
0.6521948 -1.4476649 -0.32428303 0
0.76283646 -1.4684741 -0.32616577 0
0.84846246 -1.4549464 -0.33007112 0
0.95666414 -1.4311191 -0.33208707 0
1.055889 -1.4599183 -0.33461237 0
1.1506497 -1.4422352 -0.33700043 0
1.251893 -1.4462011 -0.33847016 0
1.3550296 -1.4607228 -0.34176078 0
1.4474337 -1.4402965 -0.34398323 0
1.5637933 -1.4609605 -0.34637061 0
1.651836 -1.4485321 -0.34931734 0
1.7506603 -1.4571053 -0.35271946 0
1.8419468 -1.4247926 -0.35555774 0
1.9356148 -1.4533257 -0.35680047 0
2.0572314 -1.4543871 -0.35937825 0
2.1559086 -1.4784443 -0.36150569 0
2.2465396 -1.4479338 -0.36364353 0
2.3475263 -1.4661242 -0.36552978 0
2.4292667 -1.4452974 -0.36918858 0
2.5308197 -1.45704 -0.37177023 0
2.6655757 -1.4594646 -0.37482727 0
2.707813 -1.4078869 -0.37473172 0
-0.3481769 -1.3406503 -0.30205062 0
-0.22752181 -1.3387773 -0.30482048 0
-0.14924473 -1.3407724 -0.30571842 0
-0.052541364 -1.3340412 -0.30828905 0
0.05031836 -1.3368549 -0.31163037 0
0.14917715 -1.3391551 -0.31410655 0
0.25339669 -1.3382298 -0.31561804 0
0.35149226 -1.3395535 -0.31789434 0
0.45178571 -1.3360733 -0.32162309 0
0.54969811 -1.3648895 -0.32255554 0
0.64528883 -1.3451325 -0.32721788 0
0.73964459 -1.352663 -0.32880512 0
0.84943742 -1.3494092 -0.33112004 0
0.94030142 -1.3547949 -0.33403781 0
1.0474733 -1.3508958 -0.33581701 0
1.1394658 -1.334613 -0.33738789 0
1.265416 -1.3486116 -0.34117413 0
1.3493267 -1.3737035 -0.34330091 0
1.4424517 -1.33971 -0.34615055 0
1.5513146 -1.3391781 -0.34886295 0
1.6370786 -1.3427836 -0.35138091 0
1.7536192 -1.3683958 -0.35377935 0
1.8308446 -1.338303 -0.35653958 0
1.9443827 -1.3539264 -0.35881436 0
2.0505946 -1.3424493 -0.3617585 0
2.1631231 -1.3505857 -0.36445725 0
2.2651715 -1.3697791 -0.367006 0
2.3449247 -1.3651644 -0.36872676 0
2.4411173 -1.3442446 -0.37233946 0
2.5466359 -1.3552605 -0.37296709 0
2.6432192 -1.3584994 -0.37517956 0
2.7576039 -1.3446133 -0.38025254 0
2.8295269 -1.3201135 -0.3833729 0
-0.5055449 -1.2052238 -0.30173463 0
-0.44741932 -1.2214725 -0.30149415 0
-0.35343903 -1.2506242 -0.30375281 0
-0.2553291 -1.2664231 -0.30407041 0
-0.14554571 -1.2485087 -0.30822986 0
-0.049472619 -1.2561283 -0.30967584 0
0.042408988 -1.2592971 -0.31319329 0
0.15453584 -1.2491754 -0.31589982 0
0.24997766 -1.2537072 -0.31709656 0
0.34940985 -1.2493517 -0.32086724 0
0.44488341 -1.2537735 -0.32276613 0
0.55293149 -1.2752898 -0.3255187 0
0.64652908 -1.2543619 -0.32904169 0
0.748721 -1.2373357 -0.33140978 0
0.83331269 -1.235047 -0.3344503 0
0.94535953 -1.2391745 -0.33547553 0
1.0480812 -1.2463549 -0.33804697 0
1.1643178 -1.263296 -0.33967951 0
1.257037 -1.2405373 -0.34434733 0
1.3456519 -1.2752497 -0.34505248 0
1.4388849 -1.250909 -0.34754646 0
1.539548 -1.244549 -0.35070175 0
1.6529334 -1.2447674 -0.35394779 0
1.7551956 -1.2409739 -0.35684204 0
1.8594875 -1.2643024 -0.35879716 0
1.944486 -1.2385783 -0.36185396 0
2.0396943 -1.233434 -0.36447263 0
2.1388879 -1.251833 -0.366537 0
2.2537591 -1.2549126 -0.36938098 0
2.3552761 -1.2676463 -0.37128556 0
2.4625769 -1.2581034 -0.37339282 0
2.5443437 -1.2468135 -0.376508 0
2.6454036 -1.2575653 -0.37987614 0
2.7160957 -1.2436163 -0.38173336 0
2.8406615 -1.2517087 -0.38433278 0
2.9054098 -1.2065051 -0.38627467 0
-0.63844621 -1.1368542 -0.30114272 0
-0.54440391 -1.1559505 -0.30205783 0
-0.44774082 -1.1462321 -0.30304125 0
-0.33929107 -1.150081 -0.30576339 0
-0.25050429 -1.1478986 -0.30659935 0
-0.15489452 -1.155075 -0.3097975 0
-0.054036912 -1.1607591 -0.31145397 0
0.046393957 -1.1764405 -0.31556496 0
0.14817837 -1.1763666 -0.31779161 0
0.24975109 -1.1649216 -0.31932804 0
0.352314 -1.1514279 -0.32273933 0
0.45005724 -1.1574068 -0.32485133 0
0.54446781 -1.1465483 -0.33012018 0
0.66210216 -1.1469158 -0.33095974 0
0.74485463 -1.1465911 -0.33354869 0
0.85111696 -1.1566917 -0.33515432 0
0.94973892 -1.1327852 -0.33912471 0
1.0593671 -1.1476338 -0.34064826 0
1.1524061 -1.1564907 -0.34312358 0
1.2532039 -1.1507683 -0.34557062 0
1.3405527 -1.1587851 -0.34687155 0
1.4377741 -1.1453743 -0.34985161 0
1.5606642 -1.1547607 -0.35438457 0
1.6460029 -1.1461788 -0.35584584 0
1.7402596 -1.1392478 -0.35885379 0
1.8428342 -1.150556 -0.3614271 0
1.9597149 -1.1533816 -0.36401919 0
2.0390422 -1.1402788 -0.36680144 0
2.1362953 -1.1302235 -0.36955678 0
2.2196653 -1.1541228 -0.37019184 0
2.3466446 -1.1608312 -0.37356633 0
2.4580734 -1.1466621 -0.37770629 0
2.563863 -1.1517876 -0.38045898 0
2.6605976 -1.1497527 -0.38203934 0
2.761776 -1.146818 -0.38459614 0
2.8672493 -1.1427058 -0.3868697 0
2.9493642 -1.1511252 -0.38875079 0
-0.72115225 -1.0277406 -0.30017313 0
-0.63535696 -1.0496625 -0.30230001 0
-0.53019458 -1.0471921 -0.30306485 0
-0.4500517 -1.0515757 -0.30658048 0
-0.35769865 -1.0850979 -0.30623212 0
0.59048498 -1.0876893 -0.3316313 0
0.6534757 -1.054603 -0.33253044 0
0.74828714 -1.0502827 -0.33448121 0
0.85700852 -1.0488335 -0.33835548 0
0.9571287 -1.0505587 -0.34026939 0
1.0464506 -1.0528177 -0.34306851 0
1.1374559 -1.0425129 -0.34516332 0
1.2543392 -1.0562922 -0.3480188 0
1.3477075 -1.0518183 -0.34990391 0
1.4583218 -1.0590457 -0.35365433 0
1.5416015 -1.0359708 -0.35601366 0
1.6478035 -1.0521266 -0.35880452 0
1.7466692 -1.047945 -0.36186701 0
1.8387542 -1.0586722 -0.3633855 0
1.93007 -1.0388178 -0.36631098 0
2.0475097 -1.0538942 -0.36796203 0
2.1408751 -1.0302006 -0.37207353 0
2.2445917 -1.0475254 -0.37508991 0
2.322046 -1.0431609 -0.37731397 0
2.4374199 -1.0533142 -0.37895408 0
2.5483129 -1.0441136 -0.38101956 0
2.6326475 -1.0274907 -0.3838203 0
2.7225888 -1.040226 -0.38531145 0
2.8165393 -1.0531516 -0.38714653 0
2.9410746 -1.0599567 -0.38988671 0
3.0409296 -1.0306699 -0.39462665 0
-0.8535794 -0.92026305 -0.30024904 0
-0.75716299 -0.92307836 -0.30113524 0
-0.64980501 -0.94918078 -0.3028495 0
-0.56151003 -0.98316085 -0.30341315 0
0.77336735 -0.99235743 -0.3371352 0
0.85668963 -0.95032752 -0.34061736 0
0.94640315 -0.94781196 -0.34344101 0
1.0461812 -0.94661021 -0.34574679 0
1.1571714 -0.96110487 -0.34803423 0
1.2395359 -0.93919337 -0.35105127 0
1.3570262 -0.94994658 -0.35427594 0
1.4517918 -0.9446699 -0.35627413 0
1.5633042 -0.95792389 -0.35955775 0
1.6430196 -0.93720675 -0.36119628 0
1.7552996 -0.95576125 -0.36363161 0
1.8451647 -0.95285618 -0.36499465 0
1.944555 -0.94154423 -0.3681916 0
2.0501482 -0.94952041 -0.37230134 0
2.1656387 -0.93587059 -0.37488863 0
2.270582 -0.94284606 -0.37669873 0
2.3731749 -0.94577903 -0.37914392 0
2.4739954 -0.94524354 -0.38132802 0
2.5672443 -0.9599402 -0.38318831 0
2.6470692 -0.9397707 -0.38572761 0
2.7576363 -0.93482608 -0.38966581 0
2.8736403 -0.95873022 -0.39159727 0
2.9772737 -0.94619209 -0.39471093 0
3.0703743 -0.95969898 -0.39637637 0
3.105582 -0.93827641 -0.39834028 0
-0.83600938 -0.85348779 -0.30152029 0
-0.75084281 -0.8560158 -0.30324814 0
0.96321511 -0.86177397 -0.34641489 0
1.0585679 -0.84494048 -0.3477501 0
1.1476889 -0.85622942 -0.35073218 0
1.2620389 -0.85678101 -0.35410392 0
1.3453244 -0.8344717 -0.35659844 0
1.4587981 -0.83995652 -0.35858402 0
1.5563661 -0.8520965 -0.36041191 0
1.6538868 -0.85058534 -0.36232907 0
1.7583897 -0.85110247 -0.36509648 0
1.8613917 -0.85214025 -0.36863893 0
1.9606113 -0.8471489 -0.37108198 0
2.0543725 -0.85313135 -0.37317201 0
2.1427219 -0.85404176 -0.3752698 0
2.2254026 -0.85026115 -0.3773447 0
2.3286877 -0.85171366 -0.38002923 0
2.4312966 -0.84989864 -0.3826704 0
2.5360682 -0.84610558 -0.38565126 0
2.6376269 -0.83825189 -0.38831952 0
2.7290547 -0.84584892 -0.39013052 0
2.8246765 -0.85331982 -0.39294186 0
2.9205518 -0.85957658 -0.39580888 0
3.0261812 -0.84381557 -0.39862725 0
3.120851 -0.84621054 -0.39979497 0
-1.0816957 -0.70434624 -0.30061546 0
-0.9450379 -0.73644483 -0.30150938 0
-0.86213732 -0.75673687 -0.30340582 0
1.0572853 -0.77016497 -0.35059634 0
1.1539285 -0.74366373 -0.35447237 0
1.2481899 -0.75476831 -0.35524437 0
1.3454844 -0.74916703 -0.35673138 0
1.4415121 -0.74932081 -0.35874954 0
1.548555 -0.75431418 -0.36167333 0
1.6428931 -0.75507867 -0.36500698 0
1.7248975 -0.75604367 -0.36691734 0
1.8303666 -0.7448051 -0.36945993 0
1.9339535 -0.75805688 -0.37151262 0
2.0360587 -0.75313807 -0.37461978 0
2.1464028 -0.75745159 -0.37743002 0
2.2674735 -0.75209105 -0.38099739 0
2.3828919 -0.75729674 -0.38352594 0
2.4736207 -0.76667845 -0.38521737 0
2.5523617 -0.74475026 -0.38826498 0
2.6560075 -0.73391694 -0.39097157 0
2.768003 -0.77182126 -0.39328808 0
2.8514547 -0.74412376 -0.39628494 0
2.9622197 -0.78042346 -0.39805889 0
-1.0242403 -0.65204418 -0.30242226 0
-0.94175142 -0.65417993 -0.30458468 0
-0.88960969 -0.68811965 -0.30135769 0
1.1505934 -0.65147918 -0.35439578 0
1.2400807 -0.65760404 -0.35587105 0
1.3528852 -0.66309839 -0.3591634 0
1.430889 -0.65227276 -0.36148441 0
1.5469749 -0.64772809 -0.36448541 0
1.6533089 -0.65353429 -0.36680788 0
1.7657282 -0.65697473 -0.36947006 0
1.8424238 -0.63583946 -0.37255615 0
1.9682167 -0.6379956 -0.3757486 0
2.0679152 -0.65719634 -0.37771174 0
2.1480553 -0.64075547 -0.38016257 0
2.256737 -0.646631 -0.38249776 0
2.3391645 -0.65207684 -0.38466191 0
2.4345973 -0.66002333 -0.38716319 0
2.5432105 -0.65049416 -0.39089826 0
2.6518424 -0.63804144 -0.3945452 0
2.7387056 -0.65894538 -0.39620328 0
2.8370347 -0.66125929 -0.39872628 0
-1.1534964 -0.56863087 -0.30034217 0
-1.0476093 -0.54010206 -0.30187577 0
-0.98143923 -0.5632683 -0.3033146 0
1.1881448 -0.59631389 -0.35620847 0
1.2517262 -0.5574261 -0.35929322 0
1.362705 -0.53996366 -0.3629162 0
1.4669272 -0.56774163 -0.36521482 0
1.5444853 -0.53463352 -0.36812979 0
1.6571165 -0.55284119 -0.37023225 0
1.7426274 -0.54008508 -0.37232918 0
1.8437074 -0.54256737 -0.37509346 0
1.9461156 -0.54248357 -0.37797138 0
2.035723 -0.55190963 -0.38032904 0
2.1449623 -0.55709434 -0.38290739 0
2.2404122 -0.5478642 -0.38610035 0
2.3682725 -0.54949635 -0.38957745 0
2.4426723 -0.54066867 -0.39091721 0
2.5867593 -0.54468495 -0.39389515 0
2.6762595 -0.54351342 -0.39561307 0
2.7745972 -0.54275244 -0.39827612 0
2.8427575 -0.59857851 -0.39830559 0
-1.0275556 -0.4883928 -0.30484962 0
1.2737668 -0.45551369 -0.36257997 0
1.3532776 -0.45145646 -0.36484194 0
1.4466823 -0.46313861 -0.36669201 0
1.526938 -0.44618475 -0.36886054 0
1.6472855 -0.45375845 -0.37166071 0
1.7566981 -0.44972864 -0.37580538 0
1.865281 -0.45220995 -0.37889227 0
1.9358679 -0.42852816 -0.37924498 0
2.0685103 -0.45104176 -0.38270581 0
2.1526172 -0.45323849 -0.38442996 0
2.2487974 -0.43984735 -0.38738188 0
2.330889 -0.45591006 -0.38912931 0
2.4358485 -0.44040567 -0.39268538 0
2.5283689 -0.45711875 -0.39461359 0
2.6331947 -0.43729171 -0.39800704 0
2.7077279 -0.48966435 -0.39821851 0
-1.3367931 -0.34199122 -0.30094635 0
-1.2686507 -0.33426222 -0.30290714 0
1.3385301 -0.35613993 -0.36540562 0
1.4495251 -0.34564996 -0.36949614 0
1.563116 -0.35243818 -0.37226573 0
1.6615467 -0.34976673 -0.37562841 0
1.7514118 -0.35829914 -0.37666258 0
1.8569573 -0.34516016 -0.37926874 0
1.9296709 -0.34892127 -0.38198537 0
2.0192423 -0.35018224 -0.38395378 0
2.1496661 -0.35706186 -0.3875016 0
2.2613156 -0.33431822 -0.3908444 0
2.3628902 -0.3577421 -0.39312348 0
2.473666 -0.33837646 -0.39667419 0
2.5715754 -0.3517611 -0.39881048 0
-1.3293614 -0.24058959 -0.30297336 0
-1.2681403 -0.24821262 -0.30237529 0
-1.1581037 -0.22126839 -0.30505246 0
1.3585432 -0.24550951 -0.36999208 0
1.4454956 -0.26442161 -0.37149739 0
1.5615497 -0.24673901 -0.37414563 0
1.6357725 -0.25015154 -0.37676972 0
1.7501109 -0.24962962 -0.37902734 0
1.8520124 -0.2397933 -0.38212746 0
1.9496803 -0.25245097 -0.38404068 0
2.0476325 -0.25028631 -0.38673034 0
2.1363211 -0.24556595 -0.3893542 0
2.2425139 -0.24991879 -0.39198887 0
2.3500772 -0.25348741 -0.39477542 0
2.4548023 -0.24096687 -0.39737988 0
2.5029564 -0.25160819 -0.3984369 0
-1.1344811 -0.19678874 -0.30852219 0
1.3858916 -0.14946413 -0.37357768 0
1.4567384 -0.15707722 -0.37518793 0
1.5574541 -0.15827282 -0.37742218 0
1.6322731 -0.14831655 -0.37973794 0
1.744452 -0.15878044 -0.38267264 0
1.8481007 -0.14057624 -0.38580027 0
1.9755628 -0.16399658 -0.38825202 0
2.044358 -0.13205631 -0.39096603 0
2.1709795 -0.13996591 -0.3937428 0
2.2547913 -0.14537099 -0.39549056 0
2.3386033 -0.15077607 -0.39723825 0
2.4175587 -0.17330357 -0.39807132 0
2.5112779 -0.1619658 -0.39920875 0
1.3952266 -0.063254006 -0.37429282 0
1.4556487 -0.046245303 -0.37779292 0
1.5444982 -0.0551764 -0.37913951 0
1.6413313 -0.046897188 -0.38151491 0
1.7306657 -0.049438938 -0.38366842 0
1.8393561 -0.058388114 -0.38602704 0
1.9649951 -0.054443657 -0.38913757 0
2.0366542 -0.039077397 -0.39118275 0
2.1563261 -0.038716279 -0.3940945 0
2.2592795 -0.04842094 -0.39616871 0
2.338623 -0.06692452 -0.39724791 0
2.4228177 -0.069336459 -0.39923793 0
1.3966359 0.049994655 -0.37446657 0
1.4455737 0.049206898 -0.37898448 0
1.5428063 0.05072242 -0.38205323 0
1.6500154 0.047337126 -0.38374415 0
1.7406764 0.049927838 -0.38593194 0
1.8509191 0.047250539 -0.38836351 0
1.9608253 0.064415827 -0.39150661 0
2.036067 0.04009258 -0.39236584 0
2.1584983 0.046096861 -0.39604732 0
2.2429559 0.047907054 -0.39817354 0
2.3455718 0.016785765 -0.3993015 0
1.4418831 0.15070431 -0.38065797 0
1.5537726 0.14507389 -0.3828674 0
1.6471277 0.14637043 -0.38470834 0
1.7393626 0.14978452 -0.38723865 0
1.8506948 0.15350023 -0.3903265 0
1.9731407 0.15565316 -0.39374837 0
2.0268538 0.14543201 -0.3950434 0
2.1498315 0.1386904 -0.397652 0
-1.8730485 0.2904816 -0.30105707 0
-1.7372392 0.28422895 -0.30400971 0
-1.6394808 0.27238357 -0.3064996 0
-1.5554315 0.2763415 -0.30899453 0
-1.4492242 0.26763538 -0.31067425 0
-1.34033 0.26235253 -0.3119697 0
-1.2559221 0.25508654 -0.31508365 0
-1.1614985 0.24450646 -0.31813809 0
1.3927433 0.28288504 -0.38081369 0
1.4512922 0.24112247 -0.38342831 0
1.549939 0.24616161 -0.3855128 0
1.6490141 0.25314909 -0.38760537 0
1.7402587 0.25083697 -0.39028341 0
1.8584145 0.24510793 -0.39343932 0
1.9624878 0.25703013 -0.39689422 0
2.0338471 0.23395263 -0.39795634 0
2.1125731 0.22764628 -0.39900106 0
-1.8641399 0.34537122 -0.30033678 0
-1.7571214 0.34378102 -0.30284488 0
-1.6508733 0.35610923 -0.30600479 0
-1.5459954 0.34875223 -0.30962846 0
-1.4479519 0.34211463 -0.31201139 0
-1.3428183 0.33332199 -0.31372046 0
-1.2373744 0.31656492 -0.31517673 0
-1.1412516 0.30069992 -0.31623355 0
1.3864899 0.36539263 -0.38424188 0
1.4527655 0.34612131 -0.3857975 0
1.5449191 0.35253808 -0.38738629 0
1.645676 0.35552171 -0.39155185 0
1.7381262 0.35310689 -0.39355713 0
1.8494728 0.34227473 -0.39598796 0
1.9675627 0.34129086 -0.39870176 0
2.0320418 0.3076973 -0.39949095 0
-1.9599606 0.48652679 -0.3047286 0
-1.856907 0.4470816 -0.30341566 0
-1.7478551 0.44721377 -0.30733088 0
-1.6365597 0.43763375 -0.30934641 0
-1.5415144 0.41204941 -0.31202799 0
1.3616332 0.45443124 -0.38470939 0
1.445172 0.4632268 -0.38719463 0
1.553647 0.44496179 -0.3897537 0
1.6390573 0.45278046 -0.39091298 0
1.7460417 0.45179734 -0.39453369 0
1.8441391 0.44927055 -0.3970136 0
1.9298884 0.44527277 -0.39895466 0
-2.1080434 0.55541903 -0.3008076 0
-2.0271394 0.54971713 -0.30298591 0
-1.9375198 0.5552761 -0.30470067 0
-1.8517612 0.53358877 -0.30630749 0
-1.2450743 0.59162927 -0.32304937 0
-1.1427712 0.55835271 -0.32694152 0
-1.0777786 0.56035525 -0.32553104 0
1.3411779 0.55697137 -0.38920304 0
1.4535311 0.55513263 -0.39068609 0
1.5664556 0.54777461 -0.39381438 0
1.6455033 0.55602276 -0.39674398 0
1.7586346 0.53105718 -0.39805469 0
1.8637707 0.53401041 -0.39930898 0
-2.2416923 0.69482416 -0.30198407 0
-2.1572626 0.63495433 -0.30149302 0
-2.0438192 0.64961797 -0.30388856 0
-1.940197 0.66282821 -0.30682373 0
-1.8400844 0.64344239 -0.30878437 0
-1.475989 0.68213248 -0.31918949 0
-1.3460723 0.65444374 -0.32168517 0
-1.2458059 0.65921873 -0.32554263 0
-1.1477437 0.64577842 -0.32665041 0
-1.0446727 0.6524244 -0.33015808 0
1.2901827 0.67088681 -0.38967431 0
1.3500885 0.64169979 -0.38924813 0
1.449941 0.64725173 -0.3932538 0
1.5645218 0.64523691 -0.39355513 0
1.664066 0.64946979 -0.39665085 0
1.7314122 0.67576468 -0.39784861 0
-2.3302979 0.75909239 -0.30173537 0
-2.2364991 0.76406747 -0.30222985 0
-2.1575263 0.73708612 -0.30343565 0
-2.0734768 0.74172044 -0.30592489 0
-1.9663149 0.72444606 -0.30802897 0
-1.8123214 0.78316242 -0.31270561 0
-1.7074059 0.78176546 -0.31738704 0
-1.6223316 0.77109545 -0.31749859 0
-1.5478451 0.74935156 -0.31848341 0
-1.4609876 0.74208993 -0.32096049 0
-1.3528005 0.74068815 -0.32442608 0
-1.2416664 0.73877919 -0.32508969 0
-1.1666663 0.75781471 -0.32818323 0
-1.0547264 0.74574316 -0.33061033 0
-0.98071945 0.75884402 -0.33233052 0
1.2463938 0.74160826 -0.38869572 0
1.3481503 0.75441533 -0.39195862 0
1.4573821 0.75012237 -0.39402786 0
1.5380262 0.74763322 -0.39627993 0
1.6311083 0.74216777 -0.39817181 0
1.7550554 0.72826731 -0.39979982 0
-2.4080856 0.86144507 -0.30146635 0
-2.3256176 0.84793252 -0.30257472 0
-2.2277932 0.83299422 -0.30523527 0
-2.1493211 0.8036527 -0.30626029 0
-2.0431268 0.88290405 -0.30946329 0
-1.9661916 0.84965682 -0.31054407 0
-1.8622178 0.84188133 -0.31404826 0
-1.7755752 0.85958481 -0.31596488 0
-1.6561999 0.84105372 -0.31847966 0
-1.5448831 0.86025691 -0.32216278 0
-1.4371021 0.83880252 -0.32413328 0
-1.3525218 0.84437567 -0.32592925 0
-1.2491924 0.85687882 -0.32951134 0
-1.1544214 0.8508631 -0.3314392 0
-1.0534793 0.84836656 -0.33266586 0
-0.94908512 0.85741687 -0.33671439 0
1.1794035 0.85943961 -0.39107442 0
1.2555956 0.84436798 -0.39300138 0
1.3462607 0.84980655 -0.39497265 0
1.4590427 0.86173779 -0.39735603 0
1.5350651 0.83074284 -0.39791742 0
1.6043903 0.80522186 -0.39901847 0
-2.480402 0.94773984 -0.3009612 0
-2.3579299 0.93345863 -0.30314171 0
-2.2738543 0.96338606 -0.30616072 0
-2.1363051 0.94146127 -0.30822474 0
-2.0454113 0.9721778 -0.31166643 0
-1.9468158 0.94250226 -0.3136391 0
-1.8570014 0.94877774 -0.3159501 0
-1.7546697 0.95522672 -0.31852058 0
-1.6452422 0.94728214 -0.32059434 0
-1.5579458 0.95755148 -0.32305822 0
-1.4583771 0.93998927 -0.32580647 0
-1.3695652 0.95936006 -0.32840526 0
-1.2638164 0.94890654 -0.33044511 0
-1.1566755 0.93949968 -0.33257267 0
-1.061131 0.95138657 -0.33497652 0
-0.94424933 0.9592889 -0.34009185 0
-0.86073506 0.9449206 -0.34048724 0
1.0759068 0.97667879 -0.38935426 0
1.1459007 0.94975853 -0.39383596 0
1.2465935 0.9501242 -0.3945317 0
1.3501748 0.95463961 -0.39637408 0
1.4353696 0.94807392 -0.39854339 0
-2.5428905 1.0560548 -0.30094546 0
-2.4540718 1.0398188 -0.30268162 0
-2.3624098 1.0410126 -0.30477881 0
-2.2674241 1.043884 -0.30686244 0
-2.1785228 1.0354563 -0.30948246 0
-2.0628974 1.0539472 -0.31303596 0
-1.9441011 1.057102 -0.31619039 0
-1.8303273 1.0574715 -0.31787935 0
-1.7258967 1.0437628 -0.31947768 0
-1.6580807 1.0418788 -0.32229561 0
-1.5454443 1.0532591 -0.32508171 0
-1.4513224 1.0576931 -0.32850531 0
-1.340821 1.0494773 -0.33022445 0
-1.2601207 1.0573605 -0.33196357 0
-1.1425269 1.0478538 -0.33671084 0
-1.0359569 1.0496713 -0.33948517 0
-0.94804722 1.0497425 -0.34107974 0
-0.83863497 1.0452883 -0.34551728 0
-0.74487245 1.0617012 -0.34765476 0
0.98689234 1.0793889 -0.39189708 0
1.0507143 1.0437769 -0.39191502 0
1.1466836 1.0408628 -0.39474794 0
1.2520064 1.0573844 -0.39771596 0
1.3556466 1.0433679 -0.39843541 0
1.4607084 1.0485415 -0.39983374 0
-2.6405423 1.148721 -0.30048606 0
-2.5345144 1.1605589 -0.30305195 0
-2.4283383 1.1543565 -0.30590475 0
-2.3411458 1.154177 -0.30837384 0
-2.2446342 1.1467965 -0.31053394 0
-2.1452668 1.1350369 -0.312691 0
-2.0439997 1.1574446 -0.31530929 0
-1.9583036 1.1462876 -0.31705889 0
-1.8632947 1.1635796 -0.31981397 0
-1.7528563 1.129778 -0.32187879 0
-1.6630961 1.1581692 -0.32340416 0
-1.5528634 1.1487507 -0.32703939 0
-1.453558 1.158004 -0.33008331 0
-1.3487874 1.1388464 -0.33281431 0
-1.2575306 1.1646299 -0.33769971 0
-1.1383326 1.1423739 -0.3381494 0
-1.0382782 1.1524172 -0.34098887 0
-0.94870633 1.1412623 -0.3442812 0
-0.83998126 1.1465226 -0.34656206 0
-0.75278825 1.1563398 -0.34950325 0
-0.65765482 1.1517267 -0.35099059 0
-0.57420713 1.1754361 -0.35055208 0
0.86059648 1.1721058 -0.38970894 0
0.95219845 1.1430018 -0.39138106 0
1.0516578 1.1502576 -0.39434633 0
1.1538817 1.146279 -0.39598611 0
1.2554387 1.159518 -0.39850643 0
1.3146203 1.1264563 -0.39968351 0
-2.7560039 1.2618842 -0.30009237 0
-2.6738062 1.247545 -0.30186445 0
-2.5621357 1.2477721 -0.30522066 0
-2.4493346 1.2513189 -0.30759183 0
-2.3442791 1.2545104 -0.31028944 0
-2.218493 1.2503726 -0.31330872 0
-2.1629684 1.2386101 -0.31436035 0
-2.0574551 1.2521245 -0.31684747 0
-1.9409546 1.2510244 -0.32001352 0
-1.841651 1.2630353 -0.32291687 0
-1.73245 1.2437634 -0.32404798 0
-1.6365769 1.2607647 -0.32831699 0
-1.548897 1.241142 -0.32970601 0
-1.4486899 1.2592324 -0.33376455 0
-1.3468281 1.258243 -0.33689022 0
-1.2345341 1.2389424 -0.3378377 0
-1.1662433 1.2575284 -0.33923569 0
-1.0596782 1.245841 -0.34302473 0
-0.95339108 1.2575817 -0.34536806 0
-0.85408878 1.2417715 -0.34857997 0
-0.764938 1.2612076 -0.35066351 0
-0.64911491 1.2496306 -0.35189563 0
-0.54642975 1.2522786 -0.3551057 0
-0.45567742 1.2603678 -0.35921547 0
-0.38311863 1.2844048 -0.35914809 0
0.66847456 1.2744759 -0.38566732 0
0.75883478 1.2506663 -0.38731721 0
0.8427301 1.2574958 -0.3914443 0
0.94277972 1.2462174 -0.39283562 0
1.0453545 1.2468058 -0.39610636 0
1.1470325 1.2654959 -0.39835364 0
1.2177091 1.2220147 -0.39829135 0
-2.8324242 1.3712306 -0.30111498 0
-2.7443612 1.352952 -0.30288273 0
-2.6518328 1.3548228 -0.30496657 0
-2.5596249 1.3543272 -0.3072122 0
-2.4706481 1.3528687 -0.30965367 0
-2.3590908 1.3359022 -0.31190422 0
-2.242939 1.3452926 -0.31513864 0
-2.1637242 1.3511432 -0.31673172 0
-2.0513575 1.3640906 -0.32095048 0
-1.9649137 1.3475838 -0.32220855 0
-1.8634948 1.3580941 -0.32359284 0
-1.762641 1.3333272 -0.32570946 0
-1.6291826 1.3473572 -0.3308301 0
-1.549126 1.3598572 -0.3332054 0
-1.4433482 1.348444 -0.33548707 0
-1.3426136 1.3628525 -0.33796462 0
-1.2407798 1.3377553 -0.33930254 0
-1.1472204 1.3466201 -0.34224966 0
-1.0648863 1.3615059 -0.34483391 0
-0.95098352 1.3556352 -0.34838033 0
-0.84903926 1.3489863 -0.35109225 0
-0.745601 1.3337635 -0.35238597 0
-0.65040803 1.3685111 -0.35435286 0
-0.54077476 1.3520541 -0.35716543 0
-0.45934749 1.349794 -0.36128747 0
-0.34653902 1.3522997 -0.36412308 0
-0.25960317 1.358865 -0.36573523 0
-0.15167579 1.3616197 -0.36717612 0
-0.054332264 1.3832576 -0.37100381 0
0.044808768 1.391207 -0.37304202 0
0.14537477 1.3945026 -0.37578282 0
0.24698739 1.3936211 -0.37931579 0
0.34807509 1.3810191 -0.38169318 0
0.44755831 1.3573558 -0.38304114 0
0.55551809 1.351252 -0.38527185 0
0.64258188 1.346328 -0.38768244 0
0.75180781 1.3520062 -0.39022422 0
0.84781301 1.3467547 -0.3927342 0
0.94191128 1.3571502 -0.39654297 0
1.0476489 1.3517748 -0.39765379 0
-2.9097404 1.4343941 -0.30062875 0
-2.8502572 1.4561427 -0.30262712 0
-2.7410324 1.4668497 -0.30489412 0
-2.6241693 1.4613413 -0.30862781 0
-2.5260537 1.4543796 -0.31008798 0
-2.4356449 1.4492743 -0.31198072 0
-2.3482194 1.4430348 -0.31438571 0
-2.2517922 1.4514512 -0.31705418 0
-2.1577349 1.4404713 -0.32070214 0
-2.0544899 1.4526196 -0.32168609 0
-1.9474494 1.4535935 -0.32387024 0
-1.8251625 1.4540677 -0.32717648 0
-1.7381065 1.4468859 -0.33011478 0
-1.6416163 1.4480146 -0.33285612 0
-1.5408739 1.4395957 -0.3340317 0
-1.4604596 1.4449629 -0.33664134 0
-1.349648 1.4551339 -0.33961272 0
-1.2605646 1.4397211 -0.34154743 0
-1.1518034 1.4567444 -0.34563288 0
-1.0497235 1.4552355 -0.34771135 0
-0.95687914 1.4504445 -0.3505469 0
-0.85611433 1.4474095 -0.35240158 0
-0.74606848 1.4475361 -0.35391545 0
-0.64590329 1.4608374 -0.35774365 0
-0.55814904 1.4456313 -0.35889202 0
-0.46363154 1.4546494 -0.3621158 0
-0.35593635 1.4562895 -0.3654781 0
-0.24270426 1.4571748 -0.36829093 0
-0.15271795 1.4454916 -0.36883321 0
-0.057155997 1.4548248 -0.37299439 0
0.047131855 1.4629524 -0.37507346 0
0.15129676 1.4516943 -0.37880471 0
0.24892634 1.4655052 -0.38083944 0
0.34434661 1.4536921 -0.38279614 0
0.45873171 1.4505166 -0.38537946 0
0.54759938 1.4575719 -0.38807672 0
0.65569133 1.4457244 -0.39116532 0
0.74359745 1.4427299 -0.39308918 0
0.85534483 1.4640844 -0.39562845 0
0.93890089 1.4454762 -0.39796031 0
1.003737 1.4384857 -0.39984027 0
1.1055855 1.4187995 -0.39981103 0
-3.0526538 1.5595434 -0.3001208 0
-2.9631524 1.5406899 -0.30115616 0
-2.8717153 1.5457829 -0.30351669 0
-2.7817214 1.549077 -0.30669838 0
-2.6825073 1.5444604 -0.30834752 0
-2.5651786 1.534461 -0.31085512 0
-2.4472368 1.5526463 -0.31405973 0
-2.3406949 1.5566467 -0.31834099 0
-2.2287273 1.5519229 -0.3215282 0
-2.1202648 1.5451766 -0.32215479 0
-2.0541112 1.5425769 -0.32346845 0
-1.9580647 1.5599416 -0.32579151 0
-1.8582845 1.5353587 -0.32893485 0
-1.7678313 1.5592391 -0.33207232 0
-1.6661458 1.5566323 -0.33365577 0
-1.5439212 1.5368204 -0.33734798 0
-1.4613556 1.5530781 -0.33952111 0
-1.3541977 1.5509739 -0.34258127 0
-1.2594676 1.5466671 -0.34511822 0
-1.1695623 1.5460634 -0.34636301 0
-1.048169 1.5641094 -0.35069376 0
-0.95160538 1.5408303 -0.35209528 0
-0.86038184 1.5493075 -0.35353005 0
-0.75573438 1.5465653 -0.35591638 0
-0.64802778 1.554997 -0.35911104 0
-0.54548347 1.5431364 -0.36154187 0
-0.45019141 1.5366334 -0.36609313 0
-0.35284701 1.5393047 -0.36594948 0
-0.24806328 1.5786026 -0.37047836 0
-0.14748304 1.5467992 -0.37223056 0
-0.056488793 1.5423405 -0.37563244 0
0.049454946 1.5346977 -0.37710491 0
0.14957687 1.5422324 -0.38067541 0
0.25143334 1.5473908 -0.38239488 0
0.35141635 1.5496855 -0.38510182 0
0.43890056 1.5524778 -0.3864626 0
0.55955452 1.5700427 -0.39091656 0
0.65011352 1.5618172 -0.39407906 0
0.7494995 1.5371175 -0.3958441 0
0.84323186 1.5474684 -0.39752325 0
0.93723845 1.5374461 -0.39978829 0
-3.0303841 1.6405482 -0.30181259 0
-2.9268589 1.6574258 -0.30506912 0
-2.8389606 1.6345414 -0.3066071 0
-2.7372494 1.6553855 -0.30891654 0
-2.6481571 1.653667 -0.31138074 0
-2.5558872 1.6474462 -0.31382644 0
-2.4703426 1.6684167 -0.31817085 0
-2.3773546 1.6554241 -0.31988502 0
-2.2669499 1.6520739 -0.32092205 0
-2.1857474 1.6168892 -0.32209569 0
-2.0470798 1.6402991 -0.32492238 0
-1.944714 1.6581687 -0.330446 0
-1.8388932 1.6455216 -0.33218867 0
-1.7479931 1.6410322 -0.33376732 0
-1.6560242 1.6616769 -0.33690023 0
-1.5410701 1.6532941 -0.3396515 0
-1.4271489 1.6429552 -0.34368929 0
-1.3674661 1.6669728 -0.34517977 0
-1.2521867 1.6553049 -0.34740996 0
-1.1472838 1.6449444 -0.35010374 0
-1.0603505 1.6583179 -0.35183668 0
-0.95435888 1.6441807 -0.35438713 0
-0.84329534 1.6338718 -0.35648286 0
-0.7556361 1.6501344 -0.35854417 0
-0.65231907 1.6539404 -0.36163411 0
-0.56063229 1.6494888 -0.36442563 0
-0.44643578 1.6608279 -0.36790496 0
-0.35633898 1.6437939 -0.36913469 0
-0.24563539 1.6630088 -0.37213829 0
-0.14975083 1.6339867 -0.37442091 0
-0.049249355 1.6278595 -0.37797481 0
0.04530219 1.6293902 -0.37945431 0
0.15077193 1.64311 -0.38337728 0
0.25272977 1.6359547 -0.38437527 0
0.34763938 1.6332028 -0.38711268 0
0.44623253 1.6277351 -0.38800427 0
0.53500664 1.6386549 -0.39166051 0
0.64193922 1.6619101 -0.39539698 0
0.73984492 1.6313751 -0.39763677 0
0.81111282 1.6313585 -0.39949122 0
-3.0152104 1.7265234 -0.30471191 0
-2.9799633 1.7442685 -0.30484509 0
-2.8653228 1.7515807 -0.30796182 0
-2.7633646 1.7622863 -0.31083104 0
-2.6452582 1.7771775 -0.31579292 0
-2.5259819 1.7589252 -0.31824189 0
-2.425046 1.7408483 -0.31930989 0
-2.3514292 1.7483293 -0.32076088 0
-2.0409532 1.7488778 -0.33002359 0
-1.9510704 1.7459177 -0.33155739 0
-1.8437537 1.7473589 -0.33337227 0
-1.7450304 1.7514862 -0.33627963 0
-1.6451765 1.7484545 -0.33927491 0
-1.5484109 1.7432338 -0.3418088 0
-1.4434788 1.7469209 -0.34517229 0
-1.33346 1.7368989 -0.34738022 0
-1.269681 1.7684798 -0.34935957 0
-1.1476619 1.7500393 -0.35192627 0
-1.0410683 1.7584934 -0.35468602 0
-0.96011889 1.7391105 -0.35596147 0
-0.86066496 1.7489264 -0.35811692 0
-0.74688673 1.733673 -0.3624585 0
-0.65249163 1.7537117 -0.36457035 0
-0.55580342 1.755168 -0.36641619 0
-0.44293338 1.7574427 -0.36943591 0
-0.35353237 1.7467051 -0.37225977 0
-0.25695714 1.7396115 -0.37400568 0
-0.15002458 1.7562621 -0.37739056 0
-0.05638862 1.7526091 -0.38021743 0
0.035239656 1.7463826 -0.38181749 0
0.14291811 1.7322965 -0.38492382 0
0.25415382 1.7472572 -0.38654414 0
0.35517195 1.7525734 -0.38995036 0
0.44353351 1.7425237 -0.39150915 0
0.53978628 1.763872 -0.39439577 0
0.64441001 1.7425054 -0.39705002 0
0.73645449 1.7211822 -0.39974833 0
-2.967196 1.8410562 -0.30730945 0
-2.853301 1.8680605 -0.31162921 0
-2.7703671 1.8710277 -0.31476814 0
-2.6746094 1.8624263 -0.31659877 0
-2.5724027 1.8466265 -0.31796509 0
-2.4777257 1.8328828 -0.31973886 0
-2.0141561 1.8022835 -0.33208019 0
-1.9532671 1.860139 -0.33338317 0
-1.854475 1.843382 -0.33542085 0
-1.7491612 1.8589671 -0.33914638 0
-1.6481618 1.8373809 -0.34124634 0
-1.5525234 1.8517355 -0.34454527 0
-1.4625587 1.8495833 -0.34638965 0
-1.3557715 1.8467447 -0.34932065 0
-1.2389853 1.8412883 -0.35213292 0
-1.1552981 1.8647327 -0.3535265 0
-1.0602131 1.8567696 -0.35579592 0
-0.95232487 1.8477408 -0.3589831 0
-0.8474735 1.8507409 -0.36194858 0
-0.74262089 1.8433694 -0.36387783 0
-0.64117712 1.8551717 -0.3668164 0
-0.53480971 1.8312305 -0.37006468 0
-0.44345343 1.8565475 -0.37224972 0
-0.35305747 1.8673645 -0.37487754 0
-0.2550635 1.8466851 -0.37665406 0
-0.13930362 1.8523787 -0.37943265 0
-0.04678015 1.8697605 -0.38262704 0
0.05506989 1.8522066 -0.384799 0
0.15248471 1.8482329 -0.38715738 0
0.24132371 1.8518641 -0.38972872 0
0.34086305 1.8613675 -0.39159751 0
0.45439827 1.859159 -0.39473787 0
0.5498907 1.8439279 -0.39716294 0
0.64463866 1.8226357 -0.39831641 0
0.71052259 1.8013457 -0.39997628 0
-2.9527721 1.9432131 -0.31103739 0
-2.8232369 1.9659274 -0.31495559 0
-2.7197597 1.9524047 -0.31662023 0
-2.6237149 1.9408795 -0.31856048 0
-2.5361571 1.904351 -0.31943956 0
-1.9150697 1.959026 -0.33664247 0
-1.8356115 1.9230962 -0.3378773 0
-1.7486029 1.9680266 -0.3415131 0
-1.6350284 1.9220341 -0.34327126 0
-1.558859 1.951815 -0.34615907 0
-1.4576695 1.9558839 -0.34904081 0
-1.3467591 1.954808 -0.35176307 0
-1.2470437 1.9502535 -0.35333547 0
-1.1312171 1.9406476 -0.35697347 0
-1.0406104 1.9500619 -0.35888231 0
-0.94965434 1.9441417 -0.3609668 0
-0.8552947 1.9406121 -0.36428148 0
-0.74676001 1.9500391 -0.36684763 0
-0.64175427 1.9469045 -0.36887223 0
-0.54236698 1.9498838 -0.37246588 0
-0.4474555 1.951479 -0.37455809 0
-0.35238382 1.9468008 -0.37727961 0
-0.2510038 1.9269226 -0.37890208 0
-0.14640291 1.9463736 -0.38099232 0
-0.049299859 1.9678845 -0.38448429 0
0.040985804 1.9760876 -0.38695627 0
0.14109883 1.9828387 -0.38908225 0
0.23376878 1.9719448 -0.39135039 0
0.35876268 1.9775378 -0.39387247 0
0.44406176 1.9689854 -0.39701554 0
0.52675664 1.9494861 -0.3989417 0
0.63824528 1.9359857 -0.39932051 0
-2.9344845 2.0332026 -0.31373453 0
-2.8671165 2.0581832 -0.3152754 0
-2.7697039 2.0488763 -0.31738204 0
-2.6814995 2.0134857 -0.31843102 0
-1.8564492 2.0473268 -0.34047073 0
-1.732128 2.0659816 -0.34372786 0
-1.6492847 2.0253494 -0.3455579 0
-1.5570608 2.0479345 -0.34833869 0
-1.4632877 2.0642083 -0.35106814 0
-1.3824223 2.0629354 -0.35307801 0
-1.2539737 2.0403252 -0.35594702 0
-1.1500846 2.0482399 -0.35889784 0
-1.0495757 2.0326629 -0.3609339 0
-0.95720953 2.0582802 -0.36420918 0
-0.85538131 2.039124 -0.36624989 0
-0.74298161 2.0631187 -0.36958548 0
-0.6407789 2.0421045 -0.37145805 0
-0.54512268 2.0585849 -0.37447998 0
-0.45756882 2.0489821 -0.3760702 0
-0.34166485 2.0473938 -0.37969914 0
-0.26385465 2.0357242 -0.38087451 0
-0.15335777 2.0385993 -0.38301712 0
-0.051689148 2.0621471 -0.38648582 0
0.06595473 2.0553954 -0.3901712 0
0.16632983 2.0547805 -0.39221129 0
0.26110446 2.0365982 -0.39444107 0
0.34403613 2.0552394 -0.39572272 0
0.44000366 2.0306361 -0.39912534 0
-2.9156983 2.1247709 -0.3156378 0
-2.8618517 2.1489086 -0.31717956 0
-1.7711613 2.1623378 -0.34544903 0
-1.6517572 2.1514709 -0.34808969 0
-1.547774 2.140095 -0.35060704 0
-1.4524423 2.156039 -0.35354295 0
-1.351058 2.1465037 -0.35515282 0
-1.2526405 2.1577506 -0.3590121 0
-1.1497653 2.1547456 -0.36066559 0
-1.043116 2.1354468 -0.36341122 0
-0.95291549 2.1333032 -0.36743343 0
-0.85043323 2.1564281 -0.36855978 0
-0.74901831 2.1672592 -0.37192476 0
-0.65124303 2.1285288 -0.37286374 0
-0.55170548 2.1559744 -0.37756005 0
-0.46055603 2.147651 -0.37822077 0
-0.35113487 2.162317 -0.38157392 0
-0.23931009 2.1484022 -0.38401198 0
-0.1447846 2.1270247 -0.38549539 0
-0.0537888 2.1459684 -0.38827762 0
0.038620211 2.1585102 -0.39093229 0
0.14786834 2.1708934 -0.39438623 0
0.25810149 2.1749477 -0.39750469 0
0.35230646 2.1689787 -0.39898935 0
0.41436389 2.1587262 -0.39934066 0
-1.7216275 2.2424488 -0.34812176 0
-1.6630206 2.2650113 -0.35041088 0
-1.5558686 2.2516353 -0.35268092 0
-1.4347267 2.243772 -0.35520777 0
-1.3234861 2.2426887 -0.35956055 0
-1.2428782 2.2503781 -0.36082745 0
-1.1605763 2.2518721 -0.3624267 0
-1.0418811 2.2545922 -0.36714038 0
-0.94820213 2.2158566 -0.36864784 0
-0.85648555 2.2663395 -0.37085932 0
-0.75434512 2.2345693 -0.37356839 0
-0.65601581 2.2589519 -0.37525436 0
-0.55273861 2.2611735 -0.37955734 0
-0.45506412 2.2480874 -0.38103449 0
-0.3490051 2.2504196 -0.38356194 0
-0.25319767 2.2731144 -0.38668156 0
-0.15926108 2.242635 -0.38789433 0
-0.055888455 2.2297895 -0.39006934 0
0.040127065 2.2426445 -0.39292264 0
0.13717018 2.2527106 -0.39576682 0
0.21861923 2.2561717 -0.39816502 0
-1.6422313 2.3405914 -0.35242707 0
-1.5614814 2.3667104 -0.35520574 0
-1.4541306 2.3475797 -0.35729107 0
-1.3511873 2.3275142 -0.36034393 0
-1.2547475 2.3512139 -0.36286846 0
-1.150673 2.3555741 -0.3662771 0
-1.0628375 2.343832 -0.36822867 0
-0.95306188 2.3468359 -0.37023243 0
-0.85713655 2.369657 -0.37319136 0
-0.75057793 2.3326111 -0.37531176 0
-0.63653737 2.346144 -0.37868777 0
-0.53916198 2.3510287 -0.38205826 0
-0.43761057 2.3714123 -0.38351774 0
-0.36174193 2.3325789 -0.38494039 0
-0.26245606 2.3562562 -0.38846123 0
-0.15230101 2.3586347 -0.39066499 0
-0.058807719 2.3460894 -0.39257953 0
0.041633919 2.3267787 -0.39491305 0
0.14229895 2.3368824 -0.39784086 0
-1.5639886 2.4460533 -0.35650602 0
-1.4529165 2.4622977 -0.36054611 0
-1.3642918 2.4296753 -0.36229971 0
-1.2478905 2.4639642 -0.36598223 0
-1.1319222 2.4484453 -0.36850572 0
-1.0519779 2.4583898 -0.37112823 0
-0.94608068 2.4489152 -0.37286183 0
-0.84155363 2.4536498 -0.37624884 0
-0.74408776 2.4315879 -0.37729862 0
-0.64964849 2.4534292 -0.38072407 0
-0.55904382 2.4377358 -0.38351405 0
-0.455755 2.4697487 -0.38536954 0
-0.33677512 2.4298799 -0.38884118 0
-0.23773153 2.4541614 -0.39115363 0
-0.1505854 2.4729629 -0.3930203 0
-0.05317425 2.4790897 -0.39524254 0
0.043894202 2.4529803 -0.39789864 0
0.13010868 2.4223819 -0.39969885 0
-1.5068809 2.5121775 -0.35969171 0
-1.4670402 2.5691741 -0.36363319 0
-1.3401785 2.555232 -0.36533189 0
-1.2212163 2.545778 -0.36883956 0
-1.1388036 2.5428541 -0.37088636 0
-1.0490506 2.5520039 -0.37241304 0
-0.96742892 2.5407426 -0.37491736 0
-0.85191822 2.5529275 -0.37774307 0
-0.74975848 2.5469217 -0.37939444 0
-0.64295441 2.550168 -0.38457409 0
-0.54268819 2.5328288 -0.38515005 0
-0.43650293 2.5716429 -0.38839546 0
-0.35364142 2.5185478 -0.39037916 0
-0.24678117 2.5477836 -0.39309669 0
-0.13821907 2.5750027 -0.39623758 0
-0.072381847 2.5438237 -0.39698043 0
0.027058709 2.519402 -0.39906669 0
-1.4133184 2.6033897 -0.36372179 0
-1.3569852 2.6610994 -0.36803862 0
-1.2426661 2.638978 -0.37034354 0
-1.1395174 2.6451628 -0.37278998 0
-1.0477228 2.6563988 -0.37504739 0
-0.96342987 2.643363 -0.37655625 0
-0.8589837 2.6695545 -0.38010111 0
-0.74339724 2.6296377 -0.38190538 0
-0.65116507 2.6640773 -0.38662034 0
-0.56134468 2.6198857 -0.38668105 0
-0.45145646 2.6597211 -0.39016318 0
-0.35820344 2.6409805 -0.39317265 0
-0.25541988 2.6369257 -0.39493433 0
-0.16177669 2.6567135 -0.39725965 0
-0.047874786 2.6761804 -0.39949298 0
-1.3252791 2.7128553 -0.37071833 0
-1.2481775 2.7523994 -0.37218645 0
-1.1523249 2.7471538 -0.37493056 0
-1.0622643 2.7509339 -0.37687111 0
-0.95741749 2.7486966 -0.37871656 0
-0.84779519 2.7704828 -0.38247013 0
-0.74952811 2.725992 -0.38409278 0
-0.65817463 2.7784286 -0.38879842 0
-0.55697405 2.741437 -0.38989285 0
-0.44722265 2.7539833 -0.39239585 0
-0.33635169 2.7499304 -0.39566576 0
-0.24530247 2.7352791 -0.39775288 0
-0.16723785 2.7463832 -0.39933258 0
-1.1429721 2.8383482 -0.37678584 0
-1.0565044 2.8568583 -0.37911883 0
-0.93421692 2.8337855 -0.38209742 0
-0.85357761 2.862462 -0.38449159 0
-0.75115681 2.8507814 -0.38715973 0
-0.63704133 2.8724141 -0.39079031 0
-0.55310273 2.8442192 -0.39192763 0
-0.44210005 2.8516624 -0.39520833 0
-0.34602258 2.8594754 -0.39828011 0
-0.27315998 2.8187089 -0.39858001 0
-1.0519245 2.9080915 -0.37972009 0
-0.97028095 2.943203 -0.38349047 0
-0.85896111 2.9577706 -0.3863605 0
-0.74024522 2.9374981 -0.39021653 0
-0.6563251 2.9593587 -0.39235917 0
-0.56195551 2.9652061 -0.39482358 0
-0.45579886 2.9399948 -0.3969917 0
-0.92004955 3.0063708 -0.38603446 0
-0.86023581 3.0429189 -0.38827583 0
-0.77460033 3.0426195 -0.39125299 0
-0.65462673 3.0551701 -0.39433599 0
-0.53491682 3.0612967 -0.39786473 0
-0.47032282 3.0327065 -0.39860234 0
-0.73211384 3.1240189 -0.39433029 0
-0.65339524 3.1591606 -0.39680389 0
-0.58582091 3.1745663 -0.39977324 0
0.80738497 -3.2034824 -0.28903237 0
0.95531672 -3.2033241 -0.29245147 0
0.099956483 -3.10274 -0.271595 0
0.16787693 -3.1237848 -0.27369672 0
0.25864458 -3.1346889 -0.27518833 0
0.35078132 -3.1491957 -0.27722955 0
0.44400749 -3.1606257 -0.27924085 0
0.53986424 -3.1798749 -0.28268179 0
0.63243234 -3.1718955 -0.28361008 0
0.74211711 -3.1732471 -0.28681788 0
0.86243373 -3.16588 -0.28960678 0
0.94096988 -3.1556942 -0.29222798 0
1.0431706 -3.1644797 -0.29476798 0
1.1397276 -3.1515474 -0.29733425 0
1.2028537 -3.1822171 -0.29763287 0
-0.22010688 -3.0196826 -0.26529065 0
-0.14108971 -3.0314417 -0.26777023 0
-0.054699678 -3.0571265 -0.26996464 0
0.045996159 -3.0625708 -0.27116892 0
0.1648908 -3.0695219 -0.27489012 0
