# .PCD v0.7 - Point Cloud Data file format
VERSION 0.7
FIELDS x y z intensity
SIZE 4 4 4 4
TYPE F F F F
COUNT 1 1 1 1
WIDTH 1409
HEIGHT 1
VIEWPOINT 0 0 0 1 0 0 0
POINTS 1409
DATA ascii
-11.17901 27.87051 8.137496 15
-10.530226 3.1028545 -0.18909444 7
-10.740213 27.948542 0.60632563 8
-10.753934 27.976271 3.7662964 11
-10.779263 28.033911 7.0248818 14
-10.786728 28.050503 8.1454906 15
-10.330128 28.079874 -0.43762287 7
-10.339752 28.103363 0.60778123 8
-10.344443 28.113449 1.6556531 9
-10.355934 28.141973 2.7101274 10
-10.363131 28.158831 3.7718663 11
-10.369562 28.173582 4.8438878 12
-10.372944 28.180031 5.9274354 13
-10.387128 28.215738 7.0338197 14
-10.390856 28.22304 8.1529245 15
-9.8286219 2.1452131 -0.17422575 7
-9.9447451 28.274254 0.60969877 8
-9.9565821 28.305197 1.659736 9
-9.9575491 28.305277 2.713196 10
-9.9667635 28.328745 3.7764714 11
-9.9790983 28.361036 4.8524008 12
-9.9792299 28.358673 5.9356971 13
-9.9876204 28.379694 7.0396757 14
-9.6009684 28.581015 8.17626 15
-9.2191353 1.3296949 -0.16196908 7
-9.5527592 28.456839 0.61197978 8
-9.5578976 28.469461 1.6625212 9
-9.5686445 28.498734 2.7196705 10
-9.5808029 28.529467 4.8585887 12
-9.588007 28.54813 5.9473491 13
-9.2037315 28.758789 8.1899252 15
-9.1561556 28.629553 0.61415964 8
-9.1662188 28.658279 1.667053 9
-9.1714306 28.671854 2.7247159 10
-9.1768475 28.686058 3.7901838 11
-9.1836052 28.704409 4.8668222 12
-9.1920424 28.727972 5.9581203 13
-9.1957922 28.736866 7.0627284 14
-8.806694 28.941963 8.2066755 15
-8.6648293 0.62158018 -0.15145871 7
-8.7686186 28.833611 1.6711092 9
-8.7778387 28.861179 2.7318103 10
-8.7812729 28.869736 3.7987745 11
-8.788722 28.891436 4.8780193 12
-8.7947645 28.908497 5.9701576 13
-8.6004133 29.013311 7.0857921 14
-8.4056273 29.117388 8.2227812 15
-8.356986 28.971136 -0.4342311 7
-8.1434164 2.1395737e-05 -0.14215448 7
-8.3606167 28.981014 0.61898148 8
-8.367857 29.003376 1.6751559 9
-8.3791981 29.037197 3.8059464 11
-8.3893232 29.066696 5.9787264 13
-8.0007858 29.288124 7.1111002 14
-8.002224 29.290518 8.2397852 15
-7.696589 -0.55194414 -0.13467357 7
-7.9611511 29.159739 0.62161726 8
-7.9700274 29.189491 1.6804513 9
-7.9730711 29.197918 2.7435675 10
-7.9818726 29.227362 3.816802 11
-7.9854245 29.237602 4.8984566 12
-7.9894967 29.249702 5.9935265 13
-7.601788 29.482105 8.263525 15
-7.2584324 -1.046219 -0.12778431 7
-7.5654092 29.360567 0.62483722 8
-7.5701656 29.376297 1.6860973 9
-7.5769477 29.39986 2.7533658 10
-7.5790715 29.405365 3.8267806 11
-7.5874619 29.435104 4.9141369 12
-7.5891337 29.438803 6.0106897 13
-7.5966544 29.465097 7.1282315 14
-6.8396769 -1.4913778 -0.12161259 7
-6.9008865 4.4565482 -0.13671184 7
-7.1596594 29.531826 0.62753761 8
-6.8067241 4.5326819 1.8974776 14
-7.1665993 29.557699 1.6917399 9
-7.1717515 29.576212 2.7612703 10
-7.1793966 29.602224 4.9256563 12
-7.1893706 29.640478 6.0315185 13
-7.192132 29.649035 7.1483765 14
-6.4560928 -1.8998626 -0.11639777 7
-6.5649996 4.6154861 0.14775236 8
-6.5725083 4.6201687 0.57028848 9.5
-6.7577147 29.728888 0.63089567 8
-6.5730133 4.6199751 0.99527621 11
-6.594739 4.6344466 1.4311892 12.5
-6.504631 4.6764975 1.8598199 14
-6.7603078 29.737604 1.6976064 9
-6.6028376 4.6390624 2.1728809 15
-6.7643871 29.752827 2.7697108 10
-6.7676587 29.76449 3.8492737 11
-6.4780812 -32.590836 4.1889873 11
-6.7741766 29.790361 4.9415898 12
-6.4747353 -32.568855 5.3694587 12
-6.7795396 29.811136 6.0471506 13
-6.470686 -32.543274 6.5610533 13
-6.462904 -32.498798 7.7628837 14
-6.7897134 29.850122 8.3113518 15
-6.4536486 -32.446819 8.97929 15
-6.3413868 29.875191 -0.43324506 7
-6.0806136 -2.2726417 -0.11162818 7
-6.2200079 4.7514296 -0.12861706 7
-6.0586052 4.8386126 -0.12693624 7
-6.2372179 4.7641492 0.14536189 8
-6.0531931 4.8338718 0.14394765 8
-6.2509375 4.7504845 0.5125258 9.333333
-6.1082091 4.8290739 0.59983784 9.666667
-6.3470039 29.898937 0.63379067 8
-6.2397275 4.7648988 0.97348374 11
-6.0744019 4.8495102 0.96427977 11
-6.3122768 4.7485704 1.403502 12.5
-6.1427937 4.8313608 1.3889602 12.5
-6.326755 4.7588053 1.8384013 14
-6.1500297 4.8364716 1.8174913 14
-6.3244872 4.7566595 2.1316197 15
-6.1610889 4.8446951 2.1118357 15
-6.3568296 29.9398 2.7796245 10
-6.3623791 29.963194 3.8640575 11
-6.3648453 29.972082 4.9573712 12
-6.3762627 30.020193 7.1934352 14
-6.3820763 30.044676 8.3404989 15
-5.7441998 -2.628387 -0.10786018 7
-5.7404747 4.9789567 -0.12352599 7
-5.7469974 4.9841819 0.14228947 8
-5.7673149 4.9819751 0.51668704 9.3999996
-5.9386778 30.092983 0.63730437 8
-5.7975836 4.9785414 0.94903147 11
-5.8042607 4.9834232 1.3608441 12.5
-5.8015871 4.9803367 1.7775011 14
-5.9435015 30.114737 1.7112523 9
-5.8141198 4.9906702 2.0659723 15
-5.9455438 30.122433 2.7896459 10
-5.951488 30.149817 3.8779895 11
-5.9509158 -32.354755 4.1488156 11
-5.9460902 -32.323231 5.315958 12
-5.9619164 30.197123 6.0908327 13
-5.9420185 -32.295784 6.4949393 13
-5.9638643 30.204227 7.2175903 14
-5.9379773 -32.268436 7.6883955 14
-5.968236 30.223522 8.3668356 15
-5.931829 -32.229511 8.8964043 15
-5.3901362 -2.9485908 -0.10403052 7
-5.2149119 3.3688486 -0.32061478 6
-5.2490373 3.9517736 -0.33805659 6
-5.2620015 4.5881333 -0.35777551 6
-5.373425 5.144309 -0.11982806 7
-5.3709412 5.1413727 0.14017747 8
-5.2020273 5.2367649 0.39813164 9
-5.3902392 5.1591949 0.53294241 9.5
-5.2027202 5.2369938 0.65756047 10
-5.525805 30.279879 0.64077735 8
-5.382751 5.1634998 1.0160004 11.333333
-5.2143216 5.2479415 1.0524836 11.5
-5.4796181 5.1317539 1.3364315 12.5
-5.2735486 5.2309074 1.456921 13
-5.4838452 5.1350093 1.7474755 14
-5.2782922 5.2351503 1.7299796 14
-5.5272532 30.285225 1.7175153 9
-5.4894195 5.1397362 2.0285954 15
-5.2820196 5.2382622 2.0075438 15
-5.5311794 30.304089 2.8000903 10
-5.5366678 30.331461 3.8919976 11
-5.5419888 30.357889 4.9953747 12
-5.4292307 -32.089485 5.2657428 12
-5.5471196 30.383253 6.1129718 13
-5.4240394 -32.053326 6.4314814 13
-5.5497193 30.394756 7.2446346 14
-5.4198203 -32.022869 7.6122289 14
-5.5556445 30.424362 8.4008055 15
-5.416678 -31.998732 8.8120356 15
-5.0370035 -3.2425835 -0.10046428 7
-4.8863692 1.4400132 -0.26596481 6
-5.0062003 1.8746717 -0.27850962 6
-5.0874143 2.3334696 -0.29086459 6
-5.1653767 2.8339245 -0.30527499 6
-5.0769134 5.2787929 -0.18149695 6.75
-4.9773512 5.3316946 0.266139 8.5
-4.916924 5.3689132 0.64954293 10
-5.1080236 30.456507 0.64414001 8
-4.9234943 5.375349 1.0382001 11.5
-4.9302254 5.3819795 1.432987 13
-4.9317975 5.3827252 1.8360354 14.5
-5.1108556 30.470829 1.7249447 9
-5.1171637 30.503244 3.9054613 11
-5.1244893 30.544182 5.0146646 12
-5.1263924 30.5529 6.1329317 13
-5.1306496 30.575556 7.2707033 14
-5.1354179 30.601192 8.4297028 15
-4.4043107 9.7747269 -0.53433776 6
-4.7160687 -3.5360575 -0.097798131 7
-4.5473866 0.32613853 -0.23887888 6
-4.6572886 0.67165601 -0.24637327 6
-4.7895885 1.0453923 -0.25637543 6
-4.6413798 5.4765739 -0.17616202 6.75
-4.5957484 5.5014338 0.23801664 8.3999996
-4.5513735 5.5282393 0.64015824 10
-4.5397816 5.5457969 0.99665266 11.4
-4.5909662 5.5346079 1.412994 13
-4.4298759 5.6226277 1.4070836 13
-4.5927801 5.5358295 1.8102497 14.5
-4.4212575 5.6109138 1.7983081 14.5
-4.692574 30.665697 1.7332172 9
-4.6966643 30.68988 2.8245959 10
-4.7047324 30.737448 5.0360308 12
-4.7067089 30.747801 6.1591096 13
-4.7099004 30.766026 7.3004317 14
-4.0117121 10.933418 -0.57767075 6
-4.2637053 30.815962 -0.43501249 7
-4.0631738 -4.0690408 -0.093086615 7
-4.3757234 -3.797287 -0.094996147 7
-4.1087799 -0.59189826 -0.21735421 6
-4.2570691 -0.30514917 -0.22362822 6
-4.3903165 1.133998e-05 -0.23009227 6
-4.1768866 5.6867971 -0.19215108 6.6666665
-4.1672182 5.701015 0.26087394 8.5
-4.1728806 5.7079234 0.63347477 10
-4.2664423 30.833326 0.65170878 8
-4.1751142 5.7101636 1.010187 11.5
-4.1786809 5.7142458 1.3926654 13
-4.1850719 5.7220359 1.7858291 14.5
-4.2699161 30.855995 1.741547 9
-4.274684 30.887953 2.838105 10
-4.2764502 30.898314 3.9411623 11
-4.2789111 30.913639 5.0555429 12
-4.2827506 30.93885 6.1856651 13
-4.2861209 30.960651 7.3325076 14
-4.2892528 30.980694 8.499362 15
-3.742054 -4.3246284 -0.091318488 7
-3.6418641 -1.3598839 -0.20256375 6
-3.8724251 -0.98846608 -0.20898002 6
-3.7973402 5.8545356 -0.16820908 6.75
-3.7922924 5.8684821 0.25951731 8.5
-3.7920244 5.8674946 0.62728065 10
-3.7972863 7.2843075 0.59418869 9.5
-3.8403716 31.023396 0.655698 8
-3.8056192 5.8874254 1.002543 11.5
-3.7121685 7.1206245 1.0072401 11
-3.8040049 5.8843231 1.3798788 13
-3.6421525 6.986167 1.2693336 12
-3.8084404 5.8901334 1.76837 14.5
-3.8453639 31.061325 1.7510425 9
-3.8460879 31.06496 2.8502049 10
-3.8504372 31.097694 3.9603412 11
-3.85201 31.108105 5.078989 12
-3.855896 31.137064 6.2148056 13
-3.8566899 31.141163 7.362617 14
-3.8599567 31.165075 8.5351086 15
-3.5176613 12.231826 -0.6283741 6
-3.4094939 -4.5608845 -0.089623556 7
-3.2816172 -1.7929076 -0.19382158 6
-3.4581611 -1.5806276 -0.19763745 6
-3.2016048 1.1992176 -0.29832435 5
-3.2084193 1.4722079 -0.30760592 5
-3.3831964 6.0992689 -0.18793736 6.6666665
-3.5604119 5.9705014 0.25897154 8.5
-3.4240906 6.0337453 0.2993452 8.666667
-3.5669973 5.98067 0.62602007 10
-3.3364663 6.0806513 0.62438357 10
-3.4106674 31.216091 0.65985727 8
-3.5681748 5.9817944 0.99681062 11.5
-3.4294319 6.0416007 0.99483377 11.5
-3.5721095 5.9875116 1.3737482 13
-3.4344242 6.0494938 1.3712146 13
-3.5638633 6.8359199 1.5202317 13
-3.5753264 5.9920087 1.7599382 14.5
-3.4413257 6.0606985 1.7584114 14.5
-3.4967785 6.7070985 1.768332 14
-3.4146292 31.250145 1.7599297 9
-3.4487975 6.6147819 2.0214291 15
-3.4159524 31.260183 2.8645091 10
-3.4177206 31.274254 3.9773581 11
-3.4227502 31.317965 5.1058984 12
-3.4261909 31.345118 7.3996577 14
-3.4293506 31.371725 8.5785589 15
-2.8751974 13.596489 -0.68305123 6
-3.0783288 -4.7968349 -0.088361487 7
-3.0148556 -2.0922801 -0.18939367 6
-2.8618436 -0.41203424 -0.25272405 5
-2.9357147 -0.21033816 -0.25741714 5
-3.0286334 0.10959295 -0.26532495 5
-3.145328 0.57086259 -0.27973124 5
-3.1813347 0.93766177 -0.28972709 5
-3.1885509 1.7503293 -0.31643903 5
-3.1318841 2.1907101 -0.33173579 5
-3.0328498 2.6474593 -0.34802836 5
-2.9475031 2.9720569 -0.36095372 5
-2.8176017 3.2824056 -0.37204781 5
-2.9778538 31.419847 0.66436595 8
-2.9804671 31.445498 1.7695101 9
-2.9814565 31.454136 2.8792324 10
-2.9845219 31.484497 3.9994059 11
-2.989085 31.530529 5.1342034 12
-2.9887879 31.52564 6.2750363 13
-2.992193 31.557657 8.6179733 15
-2.7290072 -5.0053959 -0.087016091 7
-2.5354109 -2.5336306 -0.18310502 6
-2.7436171 -2.3765724 -0.18617722 6
-2.5286219 -1.0469815 -0.23836736 5
-2.7326481 -0.69677871 -0.24630387 5
-2.5967145 3.7880731 -0.39357886 5
-2.5385828 31.601311 0.66852015 8
-2.5412292 31.632627 1.7789575 9
-2.5430608 31.653879 2.8950281 10
-2.544744 31.673294 4.0194864 11
-2.5480206 31.71096 6.3051586 13
-2.5507121 31.74276 7.4755273 14
-2.5522442 31.760227 8.663579 15
-2.3070951 4.2869897 -0.41513792 5
-2.0625987 4.5959873 -0.42831227 5
-2.0754862 15.0787 -0.74495345 6
-2.0952909 31.7859 -0.43947998 7
-2.2009058 -5.3265839 -0.085936658 7
-2.1419482 -2.8571606 -0.18085241 6
-2.3369589 -2.6940987 -0.18142083 6
-2.2471099 -1.4414623 -0.23169713 5
-2.0850537 -0.5709306 -0.26519826 4
-2.2069416 -0.236901 -0.27250451 4
-2.319139 0.21030933 -0.2864866 4
-2.3616862 0.60605758 -0.29953808 4
-2.3432117 0.97628635 -0.31147712 4
-2.2794032 1.3620292 -0.3251555 4
-2.1604512 1.7562723 -0.33999264 4
-2.0446763 2.0645893 -0.35370734 4
-2.0981035 31.827314 0.67373019 8
-2.0990036 31.840044 1.7898736 9
-2.1004117 31.860397 2.9119873 10
-2.1023164 31.888189 4.0436406 11
-2.1032851 31.901939 5.1850071 12
-2.1042416 31.915483 6.340301 13
-2.1055768 31.934702 7.5139832 14
-2.1091838 31.988008 8.7177143 15
-1.7977057 4.9247484 -0.44444096 5
-1.6572762 -5.6603889 -0.085791416 7
-1.8250614 -3.0693119 -0.17974718 6
-1.8425239 -1.8361146 -0.22423512 5
-1.6643345 -1.2418357 -0.252514 4
-1.8368279 -0.99995416 -0.25550961 4
-1.6567723 -0.55033767 -0.2757099 3
-1.7587842 -0.31675479 -0.28276578 3
-1.8567923 0.26768875 -0.29732123 3
-1.86891 0.58989429 -0.31110093 3
-1.7853506 1.0259731 -0.32638407 3
-1.6641307 1.3545082 -0.33901507 3
-1.9423397 2.2665718 -0.36267912 4
-1.7421489 2.5467935 -0.37403551 4
-1.6544517 32.100971 5.2140756 12
-1.6555768 32.122631 6.3771977 13
-1.6566038 32.142422 7.5576153 14
-1.4975173 5.2434845 -0.46096483 5
-1.2726181 -5.8751788 -0.086063147 7
-1.3777528 -3.3163545 -0.17912497 6
-1.4041879 -2.1733809 -0.22140747 5
-1.227488 -1.6280227 -0.24629578 4
-1.4509894 -1.4435962 -0.24849088 4
-1.3955293 -0.96371931 -0.26726237 3
-1.376426 -0.68259823 -0.27670524 2.3333333
-1.353725 -0.29405633 -0.2919794 1.5
-1.4334861 0.31288821 -0.31029916 1.5
-1.3357663 0.6705451 -0.32602873 1.3333334
-1.3946692 0.97973555 -0.33234835 2
-1.3955266 1.4120972 -0.34503654 2.5
-1.3852503 1.8125792 -0.35928226 3
-1.4258544 2.9072142 -0.39085737 4
-1.2013509 32.320343 5.2474623 12
-1.2017605 32.332977 6.4159708 13
-1.2024264 32.352402 7.6032524 14
-1.0873425 16.656864 -0.81377226 6
-1.1513112 3.1704752 -0.40556711 4
-0.94398493 3.3286328 -0.41511133 4
-1.1597792 5.53934 -0.47707945 5
-1.0305771 -3.4929173 -0.18032499 6
-0.92125422 -2.445962 -0.22163267 5
-1.0826079 -2.3518372 -0.22006787 5
-0.98695201 -1.7894094 -0.24647608 4
-1.0113671 -1.3371109 -0.26234275 3
-1.0187286 -1.0091292 -0.27357301 2
-1.0060387 -0.62837058 -0.28915298 0.60000002
-1.0892975 -0.23634319 -0.29781249 0
-1.1598544 0.25316739 -0.3187798 0
-1.0364877 0.67275107 -0.33274397 0
-1.0091124 1.0070517 -0.34204215 0.75
-1.0275892 1.393199 -0.35460544 1.6666666
-0.89378989 1.6770209 -0.36674169 2
-0.98563892 2.2193038 -0.38034302 3
-1.1977171 32.217304 0.683209 8
-1.1987197 32.245533 1.8122089 9
-1.1994057 32.265415 2.9468586 10
-1.1999657 32.281975 4.089735 11
-0.59641898 3.51846 -0.42708743 4
-0.78905159 5.825985 -0.49429226 5
-0.78621137 -3.5911181 -0.18125129 6
-0.6599291 -2.550864 -0.22281232 5
-0.45237496 -2.0235021 -0.24828844 4
-0.60439891 -1.8435391 -0.25294149 3.6666667
-0.60579509 -1.401327 -0.26913747 2.4000001
-0.65702659 -1.0172756 -0.28197071 0.83333331
-0.76802671 -0.75739723 -0.28606075 0
-0.69134796 1.1055002 -0.349879 0
-0.5915513 1.4099525 -0.36458325 0.75
-0.63520157 1.8448038 -0.37640241 2
-0.60139149 2.4773302 -0.39707246 3
-0.74005574 32.415966 0.68820977 8
-0.74068183 32.448025 1.8238816 9
-0.74093497 32.464272 2.9648187 10
-0.7415185 32.494602 4.115973 11
-0.74186152 32.514774 5.2778301 12
-0.74223506 32.536297 6.4546142 13
-0.74286604 32.568871 7.651916 14
-0.088688485 18.291815 -1.1684521 6
-0.10324506 32.832073 -0.94925022 7
-0.020778036 1.4422259 -0.40050673 0
-0.010602451 1.7268367 -0.4165343 1
-0.18833776 2.6446824 -0.42451102 3
-0.14941412 3.7400572 -0.47440493 4
-0.22961254 6.1831188 -0.56644875 5
-0.37486514 -1.659536 -0.26434779 3
-0.30050611 -1.310366 -0.27990645 1.5
-0.33853221 -1.1003566 -0.28268486 0.5
-0.18703464 1.3819274 -0.37166169 0
-0.17730832 1.648243 -0.3788794 1
-0.18767019 2.0405784 -0.39227036 2
-0.10406256 32.872566 0.19666365 8
-0.27729475 32.645573 0.69399345 8
-0.10487648 32.907345 1.3456548 9
-0.27716327 32.652218 1.8360043 9
-0.10570779 32.955067 2.5013525 10
-0.27719 32.67614 2.9845505 10
-0.10655067 33.007607 3.6670759 11
-0.27722558 32.701195 4.1422634 11
-0.10738018 33.039921 4.842607 12
-0.27723414 32.723537 5.3115778 12
-0.10822199 33.074562 6.0329356 13
-0.27712813 32.733685 6.4933696 13
-0.10910173 33.131935 7.2459459 14
-0.27723774 32.76762 7.6979456 14
0.29268092 1.4212562 -0.40676174 0
0.23766519 1.7108475 -0.41805249 1
0.20779422 2.1127067 -0.43709278 2
0.22235967 2.7367764 -0.46550414 3
0.20121512 3.8448875 -0.51581615 4
0.38783246 6.4798212 -0.64097208 5
0.24917226 -3.9247735 -0.19115816 6
0.39587569 -2.8163333 -0.23816609 5
0.168319 -2.7640622 -0.23220944 5
0.21052743 -2.1433904 -0.25722453 4
0.19774204 -1.7392608 -0.27231598 3
0.18069166 -1.3603078 -0.28748915 1.5
0.17160234 -1.1018051 -0.29827794 0
0.3697803 33.096436 0.19954306 8
0.36925495 33.129852 1.3564054 9
0.36879224 33.168358 2.5193076 10
0.3682147 33.198753 3.6901951 11
0.36794159 33.252911 4.8758326 12
0.36747292 33.293243 6.0749593 13
0.36704355 33.337746 7.2932229 14
0.66937143 1.2966737 -0.41051137 0
0.54583049 1.6503115 -0.42222309 1
0.61639714 2.0632875 -0.4428468 2
0.62414664 2.7224863 -0.47321752 3
0.62998354 3.8873785 -0.52704632 4
0.73698223 11.412691 -0.7279852 6
0.44172588 -6.684732 -0.090710886 7
0.57297301 -4.0010738 -0.19586575 6
0.6064654 -2.8268273 -0.24190563 5
0.53680122 -2.1494856 -0.2644853 4
0.59238905 -1.7182584 -0.28309873 3
0.5752117 -1.3541406 -0.29591691 1.75
0.60026252 -1.0387392 -0.30737087 0.33333334
0.73954624 11.457232 -0.32964078 7
0.59254348 11.772822 -0.33903974 7
0.43801382 12.118681 -0.34937185 7
0.74067998 11.481616 0.070892736 8
0.59450769 11.817262 0.072289005 8
0.4386223 12.144814 0.073636502 8
0.74382418 11.534468 0.47448316 9
0.59508139 11.837106 0.48588905 9
0.44019541 12.19401 0.49960059 9
0.7446326 11.554355 0.88042021 10
0.59753048 11.890332 0.90461475 10
0.44083512 12.221067 0.92854458 10
0.74693829 11.595528 1.2922959 11
0.59781748 11.90525 1.3250308 11
0.44210333 12.263248 1.3633556 11
0.6735248 11.778609 1.7300522 12
0.44235721 12.281364 1.800983 12
0.67530698 11.816045 2.1594577 13
0.44420919 12.337873 2.2514129 13
0.75180513 11.690798 2.5628192 14
0.6025427 12.019611 2.6319652 14
0.75309688 11.718197 3.0013802 15
0.60375625 12.051688 3.0834632 15
0.92258388 1.1025146 -0.40497833 0
1.0287225 1.3862855 -0.42057276 1
0.94295377 1.9341365 -0.44261372 2
1.0230224 2.636667 -0.47815391 3
1.0598084 3.8494077 -0.5326255 4
0.87428278 6.5948873 -0.65534794 5
1.0091287 -6.9188585 -0.093480133 7
0.878438 -4.0429158 -0.20003456 6
0.92713028 -2.8033369 -0.24705712 5
0.9859395 -2.0783827 -0.27525657 4
0.95058537 -1.6219825 -0.29332134 3
1.0274199 -1.3562258 -0.30559155 2.3333333
0.96287006 -0.99126154 -0.31771198 1
1.0723927 -0.5824151 -0.33651006 0
1.1924022 0.74760044 -0.39529565 0
1.0785437 0.92373621 -0.39941862 0
1.1382204 10.598547 -0.30430806 7
0.94381255 10.996271 -0.31601489 7
1.1399118 10.619704 0.067633353 8
0.94711608 11.03927 0.069189124 8
0.85009795 33.315853 0.20253329 8
1.1423187 10.647168 0.4414869 9
1.0151758 10.918577 0.45142204 9
0.88312221 11.21922 0.46262261 9
1.1468321 10.696403 1.0094953 10.5
1.0196768 10.970724 0.83915222 10
0.88373512 11.233986 0.85754198 10
1.1480908 10.717208 1.583052 12
1.0210129 10.991134 1.2290629 11
0.88819027 11.294021 1.2606716 11
0.85029483 33.36507 1.3680563 9
1.1522954 10.760771 1.9772117 13
1.0216745 11.004838 1.6224655 12
0.88851088 11.305511 1.6640115 12
1.09113 10.928412 2.2034242 13.5
0.89026892 11.334038 2.0754452 13
1.0927938 10.951892 2.6103623 14.5
0.89281571 11.372005 2.496253 14
0.8497681 33.388321 2.5383897 10
1.0292584 11.103041 2.851814 15
0.89419156 11.396334 2.9227242 15
0.84997731 33.438545 3.7195888 11
0.85012537 33.48703 4.9132681 12
0.84997487 33.525211 6.1207685 13
0.84929484 33.544773 7.3423734 14
1.5045701 0.71728349 -0.40120727 1
1.3873098 0.95963538 -0.40863815 1
1.5323759 1.4877713 -0.43616432 2
1.3095597 1.7083063 -0.44098032 2
1.3929504 2.4610205 -0.47652221 3
1.3483164 3.8006945 -0.53676003 4
1.3797991 6.6742911 -0.66942489 5
1.3682168 10.043579 -0.64248216 6
1.570906 -7.139204 -0.096772894 7
1.3698726 -4.1036153 -0.20880932 6
1.3796275 -2.7620981 -0.25839138 5
1.2859517 -2.0133116 -0.28577527 4
1.4504917 -1.9456782 -0.29069215 4
1.4047036 -1.4087195 -0.31244642 3
1.3830204 -0.95873559 -0.32935169 2
1.3365176 -0.57378411 -0.34339806 1
1.3946953 -0.19163284 -0.35994774 0.5
1.4506938 0.23174019 -0.37902507 0.5
1.4514664 0.54206681 -0.39098939 0.66666669
1.5354992 9.7284288 -0.27907142 7
1.3154765 10.206592 -0.29288578 7
1.5376178 9.7461462 0.064683422 8
1.3197007 10.243689 0.066361062 8
1.5618826 9.756382 0.64131039 9.666667
1.3401506 10.218687 0.54556102 9.333333
1.3871782 10.204153 1.1487825 11
1.2679721 10.430523 0.98670197 10.5
1.3863424 10.204066 1.5139874 12
1.2697561 10.45354 1.5473776 12
1.3911769 10.243743 1.8903083 13
1.2722995 10.479551 1.9294574 13
1.450367 10.150638 2.2475967 14
1.2749528 10.506524 2.3185027 14
1.4496616 10.152376 2.6259432 15
1.2775244 10.532992 2.7153292 15
1.3392463 33.785122 7.4004688 14
1.9074861 0.65616983 -0.4066143 2
1.8215753 0.98679537 -0.42030725 2
1.6773107 1.3039269 -0.43231362 2
1.8082156 2.1621294 -0.47277889 3
1.8962568 3.5949001 -0.53794295 4
1.6272832 3.7121811 -0.53805912 4
1.8923479 6.6836886 -0.67992371 5
1.8707086 8.935607 -0.5757674 6
1.8841064 -4.1139479 -0.21799922 6
1.8522848 -2.6647382 -0.27204397 5
1.7874454 -1.7835635 -0.30402648 4
1.6430444 -1.2290983 -0.32301778 3
1.8934069 -0.97972524 -0.33804518 3
1.6828325 -0.58040267 -0.35095477 2
1.8440237 -0.20789048 -0.36870176 2
1.9256861 0.21531932 -0.38762987 2
1.9090025 0.42940867 -0.39279294 2
1.9676996 8.778429 -0.2521252 7
1.8320558 9.0783749 -0.2605564 7
1.9007314 8.9668274 0.18997966 8.3999996
1.7248294 9.3487616 0.28423291 8.666667
1.9799685 8.8442373 0.69630098 10
1.7454813 9.3431349 0.728306 10
1.9388326 8.9645052 1.0272405 11
1.7500194 9.3713408 1.0661124 11
1.6013451 9.7105389 1.0993776 11
1.9437791 8.9914074 1.356775 12
1.7553818 9.4037857 1.4092112 12
1.6077917 9.7531672 1.4548538 12
1.9461838 9.006567 1.6894404 13
1.7570999 9.4171247 1.7546041 13
1.6086814 9.7636137 1.8110496 13
1.9346873 9.0625076 2.1501839 14.333333
1.7631341 9.4533262 2.1105032 14
1.6105092 9.7795897 2.1737995 14
1.7654197 9.4702349 2.469445 15
1.6146054 9.8088627 2.5467443 15
2.3201568 1.4131838 -0.44935673 3
2.1387608 1.7745965 -0.46248022 3
2.1580122 3.4595807 -0.53790075 4
2.1864481 -7.370326 -0.10096182 7
2.2533011 -4.1108108 -0.22585726 6
2.223336 -2.5594931 -0.28462586 5
2.2126713 -1.5261219 -0.32502112 4
2.1713133 -0.61686486 -0.36054406 3
2.3522651 -0.22390571 -0.37983623 3
2.1290791 8.6260366 -0.24800114 7
2.2836626 8.7155409 0.22128426 8.5
2.2127097 8.7035742 0.69159263 10
2.2891593 8.7459898 1.0150688 11
2.2142861 8.7219563 1.3293396 12
2.3721685 8.8086815 1.3485701 12
2.2167711 8.737916 1.8189102 13.5
2.3690822 8.8018494 1.6744614 13
2.1546478 8.761569 2.3167346 15
2.3747308 8.8287935 2.1805863 14.5
2.4757054 0.27205169 -0.40394908 3
2.485229 0.6491695 -0.41937846 3
2.4518108 1.0401987 -0.43766877 3
2.623054 3.0991745 -0.53169721 4
2.4053481 3.2984946 -0.53662622 4
2.413512 6.6533914 -0.69000679 5
2.5111685 8.7931786 -0.57333714 6
2.6459301 -4.0972137 -0.23514158 6
2.4697165 -2.459595 -0.29320115 5
2.7389345 -2.3591857 -0.30477726 5
2.4447575 -1.3208354 -0.33713797 4
2.668133 -1.0841272 -0.35125351 4
2.5951865 8.8472395 -0.25508076 7
2.5943942 8.8506432 0.22818159 8.5
2.5167012 8.8286085 0.70864707 10
2.6034756 8.8912582 1.0420499 11
2.6073461 8.9082975 1.3736367 12
2.6076493 8.9135551 1.7076311 13
2.6123006 8.9359274 2.2221496 14.5
3.1431339 2.3958862 -0.51113558 4
2.9927311 2.6445012 -0.51874298 4
2.8206017 2.8814366 -0.52592194 4
2.9194391 6.5369058 -0.69486111 5
2.8654275 -7.6076479 -0.10612528 7
3.0593741 -4.0627728 -0.24552919 6
2.9902148 -2.2205763 -0.31489143 5
2.8947251 -0.82428706 -0.36864409 4
3.0835848 -0.52248794 -0.38542941 4
3.0062308 9.0249062 -0.26109964 7
2.9682729 9.0240889 0.15304141 8.25
3.0477111 9.0728102 0.6072098 9.6000004
2.9350772 9.0463696 1.0716588 11
3.0210788 9.0890894 1.4200596 12
2.9397221 9.0690975 1.7550644 13
2.9406211 9.0762348 2.1032152 14
3.030793 9.134984 2.4775612 15
3.3738487 0.24088871 -0.42215219 4
3.4594321 0.6315065 -0.44203669 4
3.4772701 1.0337927 -0.45875591 4
3.4470341 1.4499406 -0.47644132 4
3.3648615 1.8664116 -0.49322671 4
3.2664447 2.1348436 -0.50245154 4
3.4095998 6.3605428 -0.69704032 5
3.3573518 9.1837425 -0.60887212 6
3.4930787 -4.0029306 -0.25701323 6
3.2526963 -2.0685391 -0.32691202 5
3.4946988 -1.8825142 -0.33784714 5
3.219095 -0.19156243 -0.39951056 4
3.3562422 9.1849661 -0.26662517 7
3.5410793 9.2725067 -0.26969272 7
3.4528856 9.2441225 0.076188095 8
3.4583309 9.2644835 0.59558707 9.5
3.4642713 9.2868767 1.1200079 11
3.4683528 9.3016109 1.4744719 12
3.203001 9.198925 1.794757 13
3.4723682 9.3167353 1.8337622 13
3.2905116 9.2382517 2.16417 14
3.387603 9.2995768 2.5503907 15
3.8693588 6.1158247 -0.69533634 5
3.6282392 -7.8678923 -0.11268499 7
3.967448 -3.9344635 -0.27105466 6
3.7748692 -1.6936958 -0.35348374 5
3.8295212 9.4083614 -0.27454165 7
3.8340664 9.4236479 0.080550231 8
3.7412407 9.3970995 0.61073422 9.5
3.8741071 9.4680748 1.0375506 10.666667
3.7548625 9.4414768 1.5108111 12
3.8529193 9.4909611 1.8915426 13
3.8561635 9.5032511 2.266948 14
3.8652766 9.5296993 2.6530299 15
4.2874088 5.8053737 -0.68954009 5
4.3258138 9.6138353 -0.65145761 6
4.152977 -1.342057 -0.37558967 5
4.126574 9.5415373 -0.27943301 7
4.3371282 9.6472569 0.086424761 8
4.1328964 9.5645256 0.44839916 9
4.3439622 9.6665621 0.45719773 9
4.1410708 9.5896425 1.0001335 10.5
4.2541723 9.6639576 1.5730569 12
4.1602702 9.6444321 1.941395 13
4.2649617 9.6971731 2.3441958 14
4.3772721 9.7665358 2.7643847 15
4.7695317 -0.63554716 -0.41894838 5
4.6733932 5.457582 -0.68246794 5
4.4855103 -8.1337471 -0.12064677 7
4.4358196 -3.8061726 -0.28454906 6
4.5172949 -0.93812972 -0.39963457 5
4.6588693 9.7834301 -0.28852308 7
4.6613832 9.7930899 0.090327509 8
4.6693807 9.8139391 0.47062501 9
4.6763124 9.8326759 0.85344636 10
4.6777644 9.8402405 1.2383476 11
4.6857672 9.8614941 1.6291008 12
4.6901999 9.875206 2.0239899 13
4.5867248 9.8459415 2.405489 14
4.5928321 9.8635454 2.8116984 15
4.9973531 -0.30121741 -0.43830296 5
5.0094113 5.0620308 -0.67230755 5
4.9689512 -3.6768658 -0.30219904 6
4.993752 9.9274683 -0.29414722 7
5.0045009 9.9530067 0.094549775 8
5.0109239 9.9700794 0.48499727 9
5.0176034 9.98769 0.87794745 10
5.0212059 9.9992962 1.2736031 11
5.0385418 10.03792 1.67778 12
5.0372372 10.040004 2.0815649 13
4.8145313 9.9566422 2.4506364 14
5.0460744 10.062083 2.4956632 14
4.8179264 9.9683065 2.8625054 15
5.0482202 10.071098 2.9140909 15
5.3370056 0.37323546 -0.47336078 5
5.5032692 0.78679603 -0.49490181 5
5.4923949 4.1459208 -0.6413784 5
5.2753644 4.6139688 -0.6574527 5
5.4764338 10.140053 -0.70621002 6
5.4700603 -8.4246502 -0.13062868 7
5.5200129 -3.4990258 -0.32110146 6
5.3621192 10.105326 -0.30097488 7
5.3670206 10.118827 0.099086687 8
5.3711514 10.131119 0.5003221 9
5.38377 10.15928 0.90509349 10
5.384675 10.16558 1.311426 11
5.3975301 10.19412 1.7251976 12
5.4045649 10.211993 2.1432502 13
5.4076796 10.222584 2.5662575 14
5.2946477 10.192486 2.9725094 15
5.6331773 1.2252251 -0.51646912 5
5.721899 1.6844604 -0.53784323 5
5.7820377 2.165803 -0.56041366 5
5.7836523 2.6558681 -0.58150417 5
5.7436028 3.1566656 -0.60282493 5
5.6387138 3.6507847 -0.62198496 5
6.125526 -3.289932 -0.34354857 6
6.334374 -19.173433 0.44202498 8
6.3262048 -19.146139 1.1469916 9
6.3210759 -19.128 1.8536578 10
6.3128891 -19.100632 2.56232 11
6.3136368 -19.100166 3.2799268 12
6.3076563 -19.079407 4.0014768 13
6.2998037 -19.052969 4.7301989 14
6.616621 -8.7436657 -0.14315236 7
6.7516136 -3.0216537 -0.36780822 6
6.5940585 -19.039244 0.44139308 8
6.5923133 -19.031509 1.146014 9
6.5863576 -19.011654 1.8517082 10
6.5814624 -18.994843 2.5609088 11
6.5744419 -18.971907 3.2741609 12
6.5692339 -18.954151 3.9949851 13
6.5660357 -18.942135 4.7260299 14
6.8515415 -18.902462 0.44075727 8
6.8534479 -18.904945 1.1445131 9
6.8474426 -18.885677 1.8491503 10
6.8451467 -18.876589 2.5582962 11
6.8306923 -18.834084 3.2673268 12
6.8349276 -18.842882 3.9921887 13
6.8201885 -18.796633 5.4579287 15
7.4361606 -2.7040393 -0.39621186 6
7.9646235 -9.0861502 -0.15879124 7
8.1767607 -2.3225713 -0.42889968 6
8.9279242 -1.8542227 -0.46390921 6
9.7820902 -1.3071063 -0.5065226 6
9.6148272 -9.4955873 -0.17925805 7
10.67456 -0.65123743 -0.55401146 6
11.66502 -9.9707794 -0.20603122 7
12.437757 0.85194314 -0.65746009 6
13.46603 1.9001812 -0.72471261 6
13.506798 -23.587717 0.59811306 8
13.548071 -23.6553 1.5537984 9
13.739642 -23.984697 2.546629 10
13.931113 -24.313774 3.572521 11
13.816112 -23.327835 4.4238882 12
13.803578 -23.302214 5.3965855 13
14.282145 -10.531081 -0.24177358 7
14.214175 -23.250898 0.59952813 8
14.209826 -23.239359 1.5525098 9
14.200521 -23.219717 2.5075679 10
14.189531 -23.197309 3.4668608 11
14.172366 -23.164787 4.4310503 12
14.158443 -23.137522 5.4049363 13
14.151343 -23.121325 6.3933759 14
14.136726 -23.092804 7.3930464 15
14.560928 3.1330793 -0.80226713 6
14.581597 -23.101038 0.6008684 8
14.558855 -23.060587 1.5542452 9
14.551099 -23.043821 2.5107591 10
14.538741 -23.019762 3.4710615 11
14.530811 -23.002668 4.4394011 12
14.528158 -22.99386 5.4194751 13
14.513856 -22.966593 6.4075027 14
14.500663 -22.941013 7.4103184 15
14.940602 -22.934618 0.60188591 8
14.923524 -22.903904 1.5578002 9
14.913431 -22.883884 2.5162468 10
14.90138 -22.860844 3.4788566 11
14.875777 -22.812355 5.4263678 13
14.869468 -22.797972 6.4192739 14
14.851332 -22.765421 7.4216509 15
15.296018 -22.759939 0.60279214 8
15.284863 -22.738768 1.5611285 9
15.277492 -22.723211 2.5222423 10
15.265394 -22.700611 3.4872816 11
15.255029 -22.680552 4.4596567 12
15.598514 -22.482855 5.4519606 13
15.403638 -22.540428 6.4386759 14
15.38998 -22.515757 7.4466453 15
15.678025 4.5705113 -0.88933027 6
15.662132 -22.597971 0.60414147 8
15.647512 -22.572256 1.5647104 9
15.637379 -22.552996 2.5277684 10
15.623507 -22.528332 3.4946866 11
15.605866 -22.498217 4.4671874 12
15.97773 -22.342733 4.4811506 12
15.965523 -22.320854 5.4674659 13
15.954265 -22.300247 6.4662108 14
15.941362 -22.277266 7.4790998 15
16.345236 25.480173 -1.8352262 6
16.026743 -22.430161 0.60545284 8
16.017458 -22.412479 1.5691278 9
16.383524 -22.243305 1.5732617 9
16.371613 -22.22238 2.5417664 10
16.359657 -22.201372 3.5148282 11
16.341057 -22.171328 4.4930701 12
16.324478 -22.143978 5.4807091 13
16.306141 -22.109156 7.500257 15
16.795519 6.2330098 -0.98650676 6
16.627544 29.517359 -0.88298315 7
16.650751 29.571718 0.30089259 8
16.585476 -22.18684 0.6078859 8
16.666407 29.612774 1.4889373 9
16.737226 -22.049177 2.5488157 10
16.697475 29.681179 2.6861384 10
16.727076 -22.030958 3.5251548 11
16.730499 29.753181 3.8956609 11
16.715015 -22.010199 4.5082483 12
16.748537 29.798815 5.1158571 12
16.688021 -21.969759 5.496007 13
16.772703 29.855478 6.3546247 13
16.677584 -21.951025 6.5006089 14
16.66992 -21.93586 7.5216141 15
16.789108 29.898619 7.6103902 14
17.11426 28.444118 -0.85796475 7
16.880152 28.986885 -0.87062454 7
17.134815 28.491037 0.30207613 8
16.89769 29.029991 0.30148292 8
17.127335 -21.90826 1.5829191 9
17.167814 28.558619 1.4674637 9
16.923471 29.087255 1.4782653 9
17.10606 -21.876196 2.5565412 10
17.184122 28.598639 2.6391342 10
16.945631 29.138397 2.6624711 10
17.094309 -21.856266 3.5357139 11
16.976183 29.204041 3.8590155 11
17.086849 -21.84178 4.5231533 12
16.990646 29.24227 5.0654378 12
17.063707 -21.80724 5.5157046 13
17.020391 29.306866 6.2930303 13
17.054914 -21.790936 6.5246997 14
17.040722 -21.767672 7.5467448 15
17.047907 29.367882 7.5406804 14
17.586544 27.419077 -0.83465695 7
17.349924 27.922441 -0.84600168 7
17.377119 27.978725 0.3029294 8
17.507498 -21.749376 0.61164147 8
17.498055 -21.732719 1.5877675 9
17.400961 28.02969 1.4566634 9
17.482466 -21.708431 2.5655541 10
17.429607 28.088442 2.618593 10
17.474161 -21.693144 3.5491061 11
17.453207 28.139219 3.7904403 11
17.216623 28.665609 3.8238783 11
17.452095 -21.660778 4.5366669 12
17.47262 28.183403 4.9744172 12
17.232586 28.705303 5.0185385 12
17.433668 -21.632858 5.5339317 13
17.503046 28.245474 6.1781173 13
17.26631 28.774651 6.2351518 13
17.428791 -21.621681 6.5478859 14
17.408897 -21.591824 7.5712938 15
17.531054 28.303885 7.4014034 14
17.284328 28.818171 7.4663353 14
17.856678 8.1253796 -1.0925074 6
17.813942 26.917124 -0.82342052 7
17.810137 -11.253074 -0.29203141 7
17.845016 26.976204 0.30481544 8
17.605221 27.460585 0.30369303 8
17.892653 -21.586626 0.61372173 8
17.874641 -21.559921 1.5932275 9
17.860029 27.011156 1.4371489 9
17.633615 27.517227 1.4467282 9
17.859783 -21.53701 2.5748403 10
17.891266 27.07062 2.5779505 10
17.649523 27.554544 2.5958846 10
17.844337 -21.513363 3.5607581 11
17.919254 27.125307 3.729116 11
17.683125 27.619484 3.7579825 11
17.823252 -21.482899 4.5520692 12
17.941238 27.171085 4.8922024 12
17.712847 27.678547 4.9334626 12
17.824076 -21.478746 5.5589452 13
17.965815 27.220947 6.0719857 13
17.736904 27.728971 6.1240239 13
17.79936 -21.44381 6.5703039 14
17.781429 -21.416958 7.598309 15
17.981525 27.257633 7.2675452 14
17.760048 27.778194 7.3337111 14
18.088741 24.188524 -1.8137734 6
18.262224 25.947199 -0.80216819 7
18.044176 26.434118 -0.81282377 7
18.291592 26.000721 0.30693153 8
18.072744 26.48794 0.30587754 8
18.263966 -21.402349 0.61532271 8
18.245344 -21.37549 1.5982429 9
18.089628 26.524759 1.4286383 9
18.118238 26.578777 2.5593424 10
18.217201 -21.332386 3.5731936 11
18.36824 26.1455 3.6729009 11
18.145838 26.631428 3.7004037 11
18.206528 -21.31476 4.5708385 12
18.380745 26.175493 4.8135448 12
18.167055 26.674885 4.853106 12
18.187382 -21.287176 5.5758705 13
18.188778 26.719261 6.0215263 13
18.18713 -21.281609 6.5994496 14
18.211973 26.765995 7.2092977 14
18.693579 25.005665 -0.7820363 7
18.484697 25.479589 -0.79216975 7
18.722414 25.055719 0.30933008 8
18.516506 25.535055 0.30822325 8
18.661293 -21.243237 0.61779398 8
18.747675 25.101067 1.4051921 9
18.527723 25.562296 1.4122473 9
18.63728 -21.210806 1.6051804 9
18.626146 -21.19301 2.5954702 10
18.766315 25.137653 2.5072126 10
18.564325 25.624496 2.5251746 10
18.796541 25.189796 3.620466 11
18.582788 25.661858 3.6458135 11
18.584248 -21.135023 4.5884795 12
18.607759 25.708302 4.7800527 12
18.412041 26.232306 5.9745646 13
18.559469 -21.096287 6.6234083 14
18.652308 25.794304 7.096642 14
18.540993 -21.069897 7.6599889 15
18.837774 10.259062 -1.2080191 6
19.114607 24.096645 -0.76315582 7
19.135588 24.134327 0.31194216 8
19.035408 -21.052382 0.61948854 8
19.167065 24.185242 1.3915389 9
18.951307 24.629824 1.3975934 9
19.026217 -21.037037 1.6118989 9
19.011744 -21.015835 2.6063004 10
19.184355 24.218393 2.4768765 10
18.986778 24.687317 2.4929497 10
19.007648 24.726004 3.5964055 11
18.992943 -20.989845 3.6045015 11
18.968513 -20.957611 4.6080041 12
18.827614 25.243206 4.7471337 12
18.959074 -20.941862 5.6245904 13
19.051014 24.805906 5.8426504 13
18.842653 25.275379 5.8850636 13
18.946249 -20.922312 6.6529331 14
19.089262 24.867622 6.9973474 14
18.87607 25.3323 7.0472345 14
18.930588 -20.899553 7.6955323 15
19.369909 22.362331 -1.7589828 6
19.519815 23.208782 -0.74518055 7
19.322319 23.654087 -0.75418383 7
19.548662 23.254 0.31502822 8
19.344587 23.692436 0.31346822 8
19.426365 -20.874985 0.62172592 8
19.370878 23.735731 1.3852334 9
19.407219 -20.849176 1.6180036 9
19.405043 -20.841562 2.6182899 10
19.393847 23.775049 2.4634802 10
19.428064 23.828201 3.5529966 11
19.372936 -20.801823 3.6189358 11
19.431629 23.844021 4.6484456 12
19.238371 24.30946 4.6810517 12
19.349352 -20.765785 5.650691 13
19.468712 23.90097 5.7664475 13
19.265995 24.356005 5.8050566 13
19.327219 -20.736597 6.680809 14
19.497856 23.948414 6.901125 14
19.294106 24.403349 6.9478006 14
19.315762 -20.718761 7.7296867 15
19.515282 23.981733 8.0527468 15
19.642826 12.599757 -1.3290622 6
19.922998 22.354525 -0.72851729 7
19.721525 22.777636 -0.73668903 7
19.932894 22.376377 0.31809276 8
19.745501 22.816143 0.31658214 8
19.827909 -20.702955 0.62428349 8
19.966978 22.425314 1.3687345 9
19.769678 22.854925 1.3737723 9
19.789543 -20.652279 2.6292067 10
19.996744 22.4695 2.4263494 10
19.7962 22.896473 2.437772 10
19.824331 22.939976 3.5114799 11
19.622631 23.375145 3.530834 11
19.779802 -20.636749 3.6385281 11
19.75964 -20.610325 4.6531396 12
19.841944 22.97147 4.5950828 12
19.643814 23.411619 4.6224365 12
19.743502 -20.588043 5.678184 13
19.876234 23.022362 5.6974664 13
19.677649 23.46327 5.7322364 13
19.726505 -20.564795 6.715344 14
19.905567 23.067719 6.8169756 14
19.7017 -20.533346 7.7646003 15
19.921535 23.097868 7.9525933 15
19.731688 23.550987 8.006319 15
20.127924 20.12389 -1.6748211 6
20.195971 15.099093 -1.4521353 6
20.376898 17.643705 -1.5692414 6
20.305758 21.50939 -0.71238768 7
20.32799 21.543404 0.32174453 8
20.135946 21.962215 0.31995741 8
20.35577 21.583315 1.3598292 9
20.163582 22.002937 1.3641776 9
20.207172 -20.496672 1.6334962 9
20.184654 -20.468447 2.641649 10
20.374512 21.613741 2.4035451 10
20.186689 22.038815 2.4146059 10
20.212381 22.077587 3.47437 11
20.026741 22.51404 3.4936814 11
20.167898 -20.446028 3.6548114 11
20.153576 -20.426043 4.6756248 12
20.24197 22.120718 4.5468597 12
20.043661 22.544052 4.5704575 12
20.129314 -20.395939 5.7035847 13
20.065302 22.579504 5.6623917 13
20.290066 22.195417 6.7363191 14
20.094854 22.624006 6.7742653 14
20.104832 -20.359856 7.8066492 15
20.325403 22.245369 7.8646216 15
20.122087 22.666124 7.9065018 15
20.673447 20.677601 -0.69692719 7
20.49147 21.091932 -0.70457631 7
20.703276 20.717644 0.32547894 8
20.623867 -20.333082 0.62911594 8
20.540085 21.162687 1.3554564 9
20.604662 -20.308699 1.6410925 9
20.570269 21.204193 2.3943093 10
20.590122 -20.288895 2.6555288 10
20.602024 21.247398 3.442883 11
20.406996 21.658785 3.4579527 11
20.563997 -20.257668 3.6727207 11
20.558041 -20.24625 4.7007408 12
20.439529 21.704002 4.5248289 12
20.657438 21.325888 5.5774827 13
20.532581 -20.215588 5.7342062 13
20.458427 21.734945 5.6032414 13
20.510881 -20.18856 6.7805634 14
20.674946 21.354891 6.6663733 14
20.490231 21.779732 6.7026048 14
20.506353 -20.178331 7.8483834 15
20.703224 21.395178 7.7788324 15
20.514406 21.816647 7.8202672 15
21.062754 19.891878 -0.68326229 7
20.852177 20.266649 -0.68944651 7
21.073605 19.912197 0.32950976 8
20.891575 20.31502 0.32749775 8
21.023985 -20.141142 0.63156843 8
21.102905 19.949923 1.3457876 9
20.92124 20.354006 1.3489456 9
21.008816 -20.121084 1.6492524 9
21.126123 19.981983 2.3679838 10
20.945885 20.388189 2.3765187 10
21.00128 -20.108311 2.670202 10
21.154737 20.019215 3.3996012 11
20.975962 20.427729 3.4137342 11
20.972418 -20.075119 3.6929624 11
20.956242 -20.054016 4.7246184 12
21.172882 20.046682 4.4407287 12
20.98761 20.449499 4.4589744 12
20.806091 20.862038 4.4795504 12
21.198116 20.080982 5.4970803 13
21.025288 20.496689 5.5238628 13
20.838198 20.904831 5.5488391 13
20.858675 20.936172 6.6323099 14
20.922703 -20.010508 6.8201261 14
20.907068 -19.989716 7.8901629 15
20.895802 20.984373 7.7416468 15
21.576654 18.688486 -0.66237265 7
21.407429 19.086077 -0.66915578 7
21.232515 19.483809 -0.67600107 7
21.429926 19.115969 0.33367938 8
21.2582 19.517303 0.33165109 8
21.437515 -19.955547 0.63440406 8
21.408871 -54.039707 1.2758641 8
21.475948 19.166826 1.3413593 9
21.28125 19.548429 1.3428528 9
21.419044 -19.932755 1.6579196 9
21.48843 19.187916 2.3534317 10
21.319263 19.593309 2.3616569 10
21.396139 -53.999405 3.3064322 9
21.514532 19.221201 3.3750625 11
21.348394 19.630156 3.3889642 11
21.381332 -19.886404 3.7134142 11
21.357944 -19.858969 4.7495122 12
21.539087 19.253222 4.4076815 12
21.368774 19.659096 4.4261389 12
21.374718 -53.937187 5.3399696 10
21.568832 19.290009 5.4554615 13
21.389645 19.68862 5.4769745 13
21.347172 -19.843195 5.7983489 13
21.598564 19.326952 6.5204186 14
21.413673 19.721205 6.5451846 14
21.236521 20.12789 6.574439 14
21.328981 -19.820457 6.8581419 14
21.360909 -53.8941 7.3846326 11
21.446751 19.762293 7.6363306 15
21.265421 20.166023 7.6696706 15
21.771307 18.317142 -0.65658581 7
21.788467 18.341263 0.33822468 8
21.617373 18.733456 0.33603582 8
21.861778 -19.772821 0.63752532 8
21.927631 -43.915119 1.0797917 8
21.996912 17.993652 1.3353224 9
21.819513 18.377062 1.3367143 9
21.637215 18.760433 1.338186 9
21.837536 -19.745228 1.6672443 9
21.753519 18.60001 2.3437967 10
21.912785 -43.877934 2.7944896 9
21.814573 -19.718771 2.6986442 10
21.875357 18.44363 3.3548865 11
21.705677 18.83947 3.3661277 11
21.802036 -19.701708 3.7360168 11
21.897907 18.472549 4.3786216 12
21.714724 18.857363 4.3917232 12
21.899992 -43.844837 4.5136523 10
21.77877 -19.674921 4.7788205 12
21.918684 18.500113 5.4154291 13
21.741611 18.890818 5.4340687 13
21.764738 -19.656404 5.8335295 13
21.876192 -43.789703 6.2382908 11
21.95595 18.541708 6.4732223 14
21.770151 18.925873 6.4937115 14
21.734015 -19.62277 6.8960748 14
21.980749 18.573008 7.5474257 15
21.815937 18.976067 7.5792704 15
21.62365 19.359941 7.6039195 15
22.284121 17.16708 -0.63834578 7
22.110899 17.544762 -0.64415318 7
22.31036 17.196701 0.34541559 8
22.14275 17.579508 0.34303647 8
22.278311 -19.575975 0.64039034 8
22.166632 -53.692635 1.2756922 8
22.353321 17.239206 1.3337325 9
22.247377 -19.543049 1.6759341 9
22.377134 17.267067 2.3275256 10
22.193344 17.638765 2.3307507 10
22.23765 -19.528719 2.7150137 10
22.148977 -53.641609 3.3042951 9
22.397985 17.292723 3.3291235 11
22.221684 17.670912 3.3364534 11
22.252329 17.705004 4.3538542 12
22.1311 -53.590031 5.337153 10
22.291159 17.745714 5.3873429 13
22.183958 -19.464008 5.869348 13
22.127001 18.149366 6.450315 14
22.164568 -19.441004 6.9423323 14
22.119492 -53.553566 7.3813844 11
22.1644 18.190279 7.524313 15
22.043196 -44.115921 8.043664 12
22.55146 16.612514 -0.63022757 7
22.790741 -3.0473161 -0.37078053 7
22.658831 16.451105 0.35061449 8
22.491364 16.827463 0.34808093 8
22.702084 -19.378393 0.64343476 8
22.573299 -43.632301 1.080856 8
22.682297 16.47744 1.3319286 9
22.516424 16.855576 1.3325731 9
22.693031 -19.364813 1.6873239 9
22.716335 16.51148 2.3199928 10
22.543987 16.885614 2.3231671 10
22.549429 -43.578636 2.7959182 9
22.665127 -19.335152 2.7319727 10
22.752552 16.547182 3.3174195 11
22.575365 16.918579 3.3228505 11
22.63975 -19.307623 3.7809112 11
22.77203 16.570862 4.323451 12
22.592445 16.940969 4.3312049 12
22.418116 17.317924 4.3411031 12
22.533039 -43.539394 4.5152116 10
22.625643 -19.289652 4.8389854 12
22.794746 16.597013 5.3431697 13
22.624138 16.974409 5.355772 13
22.451288 17.353302 5.3692865 13
22.606173 -19.267057 5.9061646 13
22.509626 -43.486584 6.2406783 11
22.663506 17.013752 6.3993402 14
22.475325 17.381794 6.4119167 14
22.581055 -19.23958 6.9844208 14
22.679211 17.035576 7.4556255 15
22.516792 17.423927 7.4794664 15
22.495779 -43.452164 7.9809036 12
22.478983 -43.411983 9.737174 13
23.135204 15.312492 -0.61167765 7
22.976624 15.686201 -0.61697072 7
22.800388 16.050306 -0.62196428 7
22.832462 -12.227579 -0.36614797 7
23.163252 15.34011 0.35870269 8
22.996258 15.708745 0.35594794 8
22.825493 16.077175 0.35321039 8
23.115887 -19.165323 0.64617068 8
23.149908 -3.7688761 0.44668943 8
22.979982 -3.4032743 0.44023019 8
22.815981 -3.0448685 0.43400398 8
22.997612 -2.7337019 0.43442017 8
23.183155 -3.7684066 1.2699561 9
23.017761 -3.4030106 1.2559081 9
22.854267 -3.0441418 1.2422824 9
22.960238 -2.7233529 1.2435395 9
23.196882 15.371449 1.3329792 9
23.021254 15.734972 1.3320689 9
22.854208 16.106607 1.3319746 9
23.114559 -19.158279 1.6969227 9
23.032333 -3.3992763 2.0751865 10
22.878365 -3.0414836 2.0549793 10
22.937458 -2.7147326 2.054322 10
23.043957 15.759684 2.3137002 10
22.882034 16.135473 2.3167384 10
23.190529 -43.285992 2.7983093 9
23.0928 -19.134306 2.7490125 10
23.078249 -3.4001236 2.9044814 11
22.923697 -3.0415995 2.8770456 11
22.897635 -2.7040708 2.8663616 11
23.08272 15.795427 3.3056128 11
22.90579 16.161558 3.3093805 11
23.077055 -19.115282 3.8065953 11
23.126209 -3.4011972 3.7445304 12
22.954601 -3.0397277 3.7070999 12
22.861923 -2.6938629 3.6832688 12
23.097862 15.815162 4.3050122 12
22.934065 16.190924 4.3135028 12
23.181353 -43.261192 4.5205059 10
23.157686 -3.399754 4.594089 13
22.985092 -3.0377173 4.5485196 13
22.833391 -2.6844544 4.5081778 13
23.054472 -19.090559 4.8704433 12
23.194839 -3.399045 5.458858 14
23.02059 -3.0362697 5.4048042 14
22.858768 -2.6813166 5.3549738 14
22.984154 16.235775 5.3363228 13
23.040457 -19.072866 5.9463115 13
23.159876 -43.213425 6.2486577 11
23.067881 -3.0362589 6.2807622 15
23.157711 15.875211 6.3519735 14
22.994267 16.252642 6.3664389 14
22.820696 16.625664 6.3797517 14
23.002161 -19.035023 7.0282311 14
23.192884 15.909082 7.4047356 15
23.024296 16.28371 7.4206262 15
22.863409 16.666679 7.4409356 15
23.14035 -43.169247 7.9892583 12
23.123436 -43.129852 9.7474909 13
23.311537 14.952631 -0.60701656 7
23.50239 14.612282 0.3645153 8
23.33897 14.979224 0.36166725 8
23.582117 -18.98769 0.65033108 8
23.32077 -4.1412296 0.45329162 8
23.211678 -43.333111 1.0816828 8
23.342236 -4.1391344 1.2839859 9
23.561914 -2.4523671 1.2717159 9
23.524246 14.634833 1.3343705 9
23.356539 14.999533 1.3332893 9
23.554806 -18.959692 1.7079085 9
23.396048 -4.1427398 2.122206 10
23.213791 -3.7674739 2.0983877 10
23.533247 -2.443285 2.1019063 10
23.396229 15.034058 2.3121588 10
23.224718 15.399018 2.3131166 10
23.524225 -18.929062 2.7665615 10
23.426052 -4.1420689 2.9664083 11
23.26169 -3.7692914 2.9362719 11
23.479687 -2.4315951 2.9320884 11
23.588825 14.693067 3.2956095 11
23.413162 15.054087 3.2971756 11
23.256454 15.429245 3.3021955 11
23.516726 -18.916954 3.8327441 11
23.472559 -4.1442485 3.8227272 12
23.299208 -3.7693496 3.7831187 12
23.446438 -2.4219851 3.7689285 12
23.278782 15.453349 4.3007712 12
23.318504 -3.7663753 4.6384621 13
23.411636 -2.4121628 4.6124501 13
23.487213 -18.887114 4.9028792 12
23.550106 -4.145586 5.5726767 14
23.359474 -2.4004853 5.4610181 14
23.487049 15.120125 5.3086381 13
23.298061 15.475565 5.3116908 13
23.469942 -18.867054 5.9854126 13
23.222904 -3.396883 6.3378792 15
23.332661 -2.3913383 6.3265748 15
23.498295 15.13687 6.3315558 14
23.331949 15.507596 6.3420596 14
23.590668 -4.1463957 6.4726119 15
23.41024 -3.768693 6.4053707 15
23.451246 -18.845774 7.0807896 14
23.364719 15.539075 7.3917394 15
23.991245 13.520672 0.37347606 8
23.674866 14.252597 0.3675777 8
23.602922 -2.4627328 0.44280568 8
23.856726 13.90849 1.3372738 9
23.693405 14.272672 1.335837 9
23.996576 -18.754339 1.7190048 9
23.891874 13.937851 2.3106658 10
23.726549 14.30157 2.310622 10
23.986259 -18.74015 2.7877312 10
23.921379 13.964008 3.2921388 11
23.951477 -18.706837 3.8581889 11
23.948544 13.988906 4.2840848 12
23.784964 14.354889 4.2874517 12
23.62158 14.72262 4.2918506 12
23.927977 -18.682287 4.93713 12
23.976997 -2.1164963 5.5949464 14
23.894638 14.197608 5.2919936 13
23.625425 14.734327 5.2954607 13
23.908537 -18.660849 6.0270348 13
23.760452 14.59243 6.3221974 14
23.953693 -2.1078517 6.4832492 15
23.894527 -18.643566 7.1317601 14
23.784609 14.616783 7.3642483 15
24.150656 13.148729 -0.58489335 7
24.235495 12.979136 0.3782092 8
24.022049 -18.78035 0.65371597 8
24.227587 -2.1769938 0.4514685 8
24.17622 -2.1661038 1.3005986 9
24.275583 13.009308 1.3427633 9
24.134335 -2.1560662 2.1501026 10
24.380535 12.849864 2.3131704 10
24.138399 13.393985 2.3116202 10
24.104452 -2.1470861 3.0033879 11
24.243645 13.234507 3.2902355 11
24.100601 13.608809 3.2932851 11
24.393566 -18.494587 3.8849308 11
24.046722 -2.1355846 3.8574848 12
24.279457 13.262973 4.2809129 12
24.113001 13.624821 4.2818451 12
24.027962 -2.1275058 4.7246866 13
24.37994 -18.477962 4.9738159 12
24.308428 13.287837 5.2840319 13
24.152256 13.65608 5.288312 13
24.360319 -18.456736 6.0721545 13
24.348843 13.319085 6.3061824 14
24.013752 14.045431 6.313396 14
24.339581 -18.434586 7.1834812 14
24.378248 13.344509 7.3449268 15
24.208834 13.706709 7.3483968 15
24.034422 14.066984 7.3519659 15
24.658722 12.08817 0.38668883 8
24.486847 12.442947 0.38319826 8
24.683876 12.109094 1.3493705 9
24.523312 12.470099 1.3466547 9
24.718756 12.134824 2.3184907 10
24.42346 -18.523489 2.8060553 10
24.740181 12.154048 3.2945225 11
24.573309 12.512959 3.2922158 11
24.420584 12.879741 3.2925031 11
24.774973 12.179911 4.282979 12
24.618561 12.544805 4.2829013 12
24.640047 12.564703 5.2831287 13
24.669514 12.5888 6.3008003 14
24.502928 12.950195 6.3011994 14
24.542734 12.980499 7.3415818 15
24.971655 11.356073 -0.56580931 7
25.156864 11.015773 0.39732239 8
24.828022 11.732224 0.39021206 8
25.166996 11.028696 1.3592433 9
25.009306 11.390217 1.3558626 9
24.844709 11.748672 1.3523778 9
25.052986 11.418635 2.3253403 10
24.875032 11.771592 2.3206711 10
25.079611 11.439382 3.3019178 11
25.107058 11.460596 4.2891374 12
24.949114 11.824026 4.2870073 12
25.130287 11.480008 5.28861 13
24.971031 11.84327 5.2865644 13
24.809715 12.205872 5.2851834 13
25.169178 11.506693 6.3074961 14
