# .PCD v0.7 - Point Cloud Data file format
VERSION 0.7
FIELDS x y z intensity
SIZE 4 4 4 4
TYPE F F F F
COUNT 1 1 1 1
WIDTH 199
HEIGHT 1
VIEWPOINT 0 0 0 1 0 0 0
POINTS 199
DATA ascii
-29.810976 3.8941474 0.52427459 8
-29.798006 3.8924208 1.5745157 9
-29.602329 5.6202388 2.6357565 10
-29.74733 3.8857396 3.6833408 11
-29.683702 3.8773701 5.8189359 13
-29.535414 6.944489 0.5289104 8
-29.506834 6.9377103 1.5880026 9
-29.494576 6.4869504 3.7077601 11
-29.548033 5.6098394 4.7634177 12
-29.450993 6.0329571 6.9406037 14
-29.470598 5.5949926 8.0379066 15
-29.316479 8.7056618 2.6751032 10
-29.202768 9.5972939 3.773993 11
-29.26709 8.6908388 4.8353286 12
-29.396023 6.9114218 5.8697968 13
-29.176413 10.531281 0.54071146 8
-29.11104 10.984982 1.6300627 9
-29.08341 10.025117 7.1021991 14
-29.041527 10.010593 8.2311649 15
-28.858665 13.848499 0.55814981 8
-28.839077 13.838954 1.6759069 9
-28.952271 12.381632 2.7544577 10
-28.834461 13.328065 3.9000075 11
-28.960947 11.893721 4.9584837 12
-28.933983 11.882528 6.0798812 13
-28.799789 12.810585 7.2770176 14
-28.732409 13.280339 8.4814329 15
-14.282876 28.840807 6.2550249 13
-13.749636 28.799959 8.5479832 15
-13.217833 28.750347 1.6622579 9
-13.211536 28.735126 3.884727 11
-13.215962 28.743906 5.0109725 12
-13.213549 28.737049 7.2999954 14
-12.183862 28.652332 0.54889923 8
-12.18243 28.647322 2.7263181 10
-11.177718 28.541405 5.9568958 13
-10.207699 28.456163 4.7882743 12
-10.209838 28.460133 6.977644 14
-10.205297 28.446537 8.0934954 15
-9.6031361 -20.019985 0.39367959 8
-9.6052742 -20.024616 1.9447805 10
-9.6007566 -20.015461 4.310226 13
-9.6068392 -20.028328 5.9427953 15
-9.5995474 -20.012585 1.1671442 9
-9.5992985 -20.012329 3.5127909 12
-9.5980997 -20.010004 5.1166224 14
-9.2643251 -20.047258 2.7111199 11
-9.2604208 28.36441 3.665185 11
-8.7989807 28.331036 1.5595435 9
-8.34237 28.295572 0.52152056 8
-7.8858695 28.239529 2.5684683 10
-7.4858203 -4.0076656 0.14878619 8
-7.5116944 -4.0214376 0.4462868 9
-7.4916844 -4.0107446 0.74237573 10
-7.4813786 -4.0052257 1.0400444 11
-7.4732957 -4.0008917 1.3398588 12
-7.4705606 -3.999409 1.6435457 13
-7.4575357 -3.9924395 1.9484745 14
-7.4503031 -3.9885576 2.2590818 15
-7.4372077 28.190437 6.7273197 14
-7.4355245 28.182825 7.804564 15
-7.2138777 -1.0529697 0.38197032 9
-7.3594279 -3.1555736 2.1414115 15
-7.15379 -0.10378391 0.1248803 8
-7.140914 -0.10359707 0.37426078 9
-7.1406407 -0.10359191 0.62475741 10
-7.1249924 -0.10336518 0.87488234 11
-7.1344271 -0.10349991 1.1300368 12
-7.1192002 -0.1032792 1.3838978 13
-7.1268773 -0.10338856 1.6454464 14
-7.1131959 -0.1031901 1.9060636 15
-6.576262 5.9970403 0.15565039 8
-6.5783057 5.998795 0.46659893 9
-6.5866785 6.0062675 0.77962315 10
-6.5731311 5.9939327 1.0917246 11
-6.4268246 6.9698615 1.163236 11
-6.5747242 5.9952784 1.4084616 12
-6.5728679 5.9935055 1.7279648 13
-6.4113374 6.9529815 1.8366593 13
-6.5713778 5.9920621 2.051769 14
-6.5765753 5.9966612 2.3831067 15
-6.5536661 28.102707 5.6071439 13
-6.2995677 8.3890018 0.18392467 8
-6.3131828 8.1599607 0.54080862 9
-6.3658037 7.5323277 0.86234993 10
-6.2592025 8.5894833 1.3037134 11
-6.3614058 7.5268998 1.5593404 12
-6.2419868 8.5657415 2.0575137 13
-6.3022342 7.9077063 2.3315661 14
-6.3379283 7.4989648 2.6276708 15
-6.1161876 28.04961 4.5467701 12
-4.4184022 27.90078 3.4701872 11
-4.418962 27.896538 7.5614543 15
-4.0013566 27.864784 0.49950054 8
-4.0020237 27.867342 1.4814341 9
-3.586132 27.80085 6.4667463 14
-3.1781259 27.795267 2.451602 10
-3.1768398 27.776594 5.4317603 13
-2.3626628 27.705317 4.4035196 12
-1.1568372 27.57769 7.3879781 15
-0.88656813 27.112169 1.4002261 9
-0.49108836 27.096209 2.3573978 10
-0.48933986 27.079264 4.2918453 12
-0.48805231 27.100006 6.2755384 14
-0.093238868 27.073465 7.2804451 15
0.036030553 27.470497 0.48927426 8
0.035237618 27.46903 3.3747385 11
0.034701705 27.460793 5.3346276 13
1.082086 26.995378 3.3114483 11
1.4732957 26.977747 1.3938583 9
1.8665941 26.959415 2.3502269 10
2.2605567 26.931326 5.2635946 13
2.6544747 26.907917 7.2716103 15
3.4369833 26.859596 0.44166833 8
3.4404666 26.873049 3.320298 11
3.4399416 26.864662 4.2916694 12
3.8366468 26.847845 6.2796674 14
4.2273602 26.807434 2.3596926 10
4.6239958 26.787157 1.4015573 9
4.6264663 26.78928 5.2944255 13
5.4837055 -42.632198 0.76526791 8
5.821753 26.715168 0.44539899 8
5.827693 26.726973 7.3561659 15
6.0736384 -42.392395 2.2566268 9
6.0750456 -42.398483 3.7569456 10
6.2300863 26.706705 4.3448467 12
7.0422931 26.654989 6.3826799 14
7.448019 26.621557 3.3868964 11
7.451107 26.62962 5.3843565 13
8.2746811 26.575567 0.45308167 8
8.6867142 26.532064 1.4386462 9
9.1130505 26.522423 2.4372716 10
9.1169968 26.528946 7.5417295 15
9.9795809 -25.646671 0.48803145 8
9.9682159 26.478785 3.4655907 11
9.9950132 -25.680849 4.3629498 12
10.014012 -25.7279 5.362443 13
10.39836 26.44808 4.5008268 12
10.828452 26.41077 0.46456149 8
10.834349 26.421299 6.608799 14
11.7818 -25.784565 1.4909023 9
11.712393 26.356268 1.4858586 9
11.781096 -25.781813 2.4829195 10
11.775651 -25.76877 3.4794486 11
11.779209 -25.772713 6.5361457 14
11.777367 -25.767424 7.5831671 15
12.166054 26.336233 7.7968135 15
12.616286 26.302485 2.5344083 10
12.620618 26.310339 5.6789069 13
13.078741 26.280218 3.5944824 11
13.532252 26.230188 0.48052627 8
13.541292 26.24658 4.675766 12
13.515269 18.294662 6.1247358 15
13.553463 26.269579 6.8387175 14
13.913877 18.272156 2.8181839 11
14.298471 18.221458 1.1962723 9
14.712029 18.197769 0.38287836 8
14.711361 18.197277 2.0371888 10
14.727075 18.217119 3.7155695 12
14.720854 18.209572 4.5646243 13
14.718331 18.206621 5.4258757 14
19.577089 -4.1793175 0.34311312 8
19.528898 -5.0582366 1.0530994 9
19.621469 -4.4819622 3.1884198 12
19.605711 -5.0750303 3.9384601 13
19.624941 -5.0792131 4.6834607 14
19.644203 -5.0833955 5.4419498 15
26.940866 0.60359776 0.45652676 8
26.949615 0.60459024 1.4020852 9
26.983259 0.60628629 2.3538535 10
27.079605 2.9655223 0.45949122 8
27.168535 3.3751788 2.3864377 10
27.086731 1.7855465 3.3284714 11
27.109934 1.7879604 4.3019538 12
27.055101 0.61060029 5.2622924 13
27.065805 0.61168534 6.2553558 14
27.360842 7.0956445 0.47332254 8
27.245996 4.9977083 1.4379461 9
27.361092 6.2580724 2.4452562 10
27.31064 5.4207506 3.4131091 11
27.260113 3.7900865 5.3523951 13
27.308916 4.201097 6.3855181 14
27.550072 9.7657356 0.48737204 8
27.417549 7.5365167 1.4743955 9
27.530678 8.8713951 2.5186107 10
27.575233 9.3295794 3.5670624 11
27.438318 6.6967778 4.4717093 12
27.48473 7.1320229 5.5222297 13
27.595461 8.4564533 6.6708703 14
27.634808 9.7990103 4.64147 12
27.684046 9.8174343 5.7121286 13
30.708691 -49.013893 3.0432701 9
31.446518 -48.620583 5.0757976 10
31.461721 -48.641762 7.1209426 11
36.536915 -45.667351 3.0743506 9
37.290054 -45.255928 5.1377654 10
37.307774 -45.275211 7.2092519 11
55.090919 -34.909821 5.7039933 10
55.112286 -34.921165 8.0087557 11
