# .PCD v0.7 - Point Cloud Data file format
VERSION 0.7
FIELDS x y z intensity
SIZE 4 4 4 4
TYPE F F F F
COUNT 1 1 1 1
WIDTH 1360
HEIGHT 1
VIEWPOINT 0 0 0 1 0 0 0
POINTS 1360
DATA ascii
1.1516104 -1.6411524 -0.37511599 0
1.2629758 -1.6693915 -0.3775669 0
1.3511829 -1.6351997 -0.37931815 0
1.4543891 -1.6370823 -0.38148981 0
1.5588498 -1.6566334 -0.38334951 0
1.6538448 -1.6520015 -0.38588443 0
1.7617241 -1.6551377 -0.38776386 0
1.8443558 -1.6325526 -0.39053911 0
1.9529183 -1.6492505 -0.39250454 0
2.0594797 -1.6648846 -0.39469251 0
2.1443925 -1.6507331 -0.39586043 0
2.2582912 -1.6537781 -0.39841712 0
2.316082 -1.6128327 -0.3987568 0
-2.5183427 -1.522872 -0.30023953 0
-2.4428182 -1.5415063 -0.30131924 0
-2.3414185 -1.5410064 -0.30346426 0
-2.2393446 -1.5513825 -0.30588686 0
-2.1416967 -1.5452819 -0.30802456 0
-2.0325465 -1.5443952 -0.31102434 0
-1.9771181 -1.5475792 -0.31046778 0
-1.8773632 -1.5400234 -0.31225201 0
-1.7622093 -1.5543591 -0.31534746 0
-1.6636584 -1.554363 -0.31765723 0
-1.5621806 -1.5454812 -0.3195039 0
-1.4459271 -1.5589982 -0.32259017 0
-1.3425993 -1.5356419 -0.3237403 0
-1.2636464 -1.5647962 -0.32631299 0
-1.1541672 -1.5486457 -0.32770625 0
-1.0433414 -1.5520486 -0.32919669 0
-0.95167607 -1.561049 -0.33188349 0
-0.84333473 -1.5355326 -0.33527571 0
-0.74423677 -1.5514147 -0.33649373 0
-0.65183187 -1.5541407 -0.33801728 0
-0.55971915 -1.5475096 -0.34014931 0
-0.45208368 -1.5568088 -0.34312388 0
-0.35777524 -1.5451539 -0.34439448 0
-0.25204533 -1.5517745 -0.34627092 0
-0.1408941 -1.5355034 -0.34842145 0
-0.04787102 -1.5346643 -0.35019368 0
0.050748147 -1.533178 -0.35162064 0
0.15159677 -1.5300906 -0.35216624 0
0.2463724 -1.531799 -0.35639033 0
0.36058602 -1.5422136 -0.35915205 0
0.45467499 -1.5651531 -0.35996518 0
0.54652208 -1.5452967 -0.3623279 0
0.64553738 -1.5525025 -0.36474982 0
0.74721366 -1.5575484 -0.36646074 0
0.85326803 -1.5554874 -0.36851853 0
0.95882553 -1.5477251 -0.37054956 0
1.0615346 -1.5741975 -0.37265664 0
1.151166 -1.5382358 -0.37445423 0
1.237119 -1.5568753 -0.37676522 0
1.3473841 -1.5387018 -0.37907058 0
1.4448087 -1.5354332 -0.3804327 0
1.5519817 -1.5574518 -0.38325348 0
1.6684428 -1.5587486 -0.38580546 0
1.7490095 -1.55767 -0.38755548 0
1.8624158 -1.5651568 -0.39051095 0
1.9279596 -1.5358487 -0.39093366 0
2.0348971 -1.5508515 -0.39296457 0
2.1502934 -1.5435915 -0.39488325 0
2.2602944 -1.5499992 -0.39740002 0
2.3816371 -1.5349882 -0.39962518 0
-2.4643805 -1.4424398 -0.30102491 0
-2.3545911 -1.446963 -0.3026025 0
-2.2537057 -1.452556 -0.30469945 0
-2.1619155 -1.437559 -0.30653229 0
-2.0500586 -1.4495456 -0.3092643 0
-1.933832 -1.452104 -0.31184104 0
-1.8412809 -1.4455984 -0.31323949 0
-1.7391516 -1.4476573 -0.31519955 0
-1.6285496 -1.457194 -0.31764457 0
-1.5405192 -1.439322 -0.3196286 0
-1.4342099 -1.4393702 -0.32073289 0
-1.3691611 -1.4690233 -0.32360244 0
-1.2540901 -1.4362075 -0.325427 0
-1.1481106 -1.4519228 -0.32777032 0
-1.0565898 -1.4435897 -0.32888001 0
-0.93921345 -1.4531702 -0.33117464 0
-0.85635036 -1.4510734 -0.33202821 0
-0.7517131 -1.4474449 -0.33590034 0
-0.63890743 -1.4640976 -0.33800471 0
-0.54628688 -1.4457089 -0.33983889 0
-0.44459435 -1.4322959 -0.34312454 0
-0.35005489 -1.4451048 -0.34391901 0
-0.24878556 -1.4656382 -0.3457303 0
-0.15543883 -1.4648888 -0.34697765 0
-0.056578618 -1.438609 -0.34948808 0
0.046816036 -1.4545246 -0.35104549 0
0.15001595 -1.4395274 -0.35190314 0
0.25554264 -1.4415048 -0.3559804 0
0.35951364 -1.4675952 -0.35733336 0
0.451704 -1.4685403 -0.359377 0
0.55104065 -1.4574939 -0.3614597 0
0.64946133 -1.4298251 -0.3627519 0
0.72995567 -1.4415164 -0.36501935 0
0.85070515 -1.4483204 -0.36695936 0
0.94489312 -1.4547068 -0.37011671 0
1.0427716 -1.454959 -0.37118128 0
1.145776 -1.4444778 -0.37392706 0
1.2606299 -1.460528 -0.37653756 0
1.3362302 -1.4269382 -0.37821457 0
1.4344482 -1.4395013 -0.38033968 0
1.547417 -1.4456489 -0.38256618 0
1.6509249 -1.4560312 -0.38462096 0
1.7571903 -1.4626222 -0.38696051 0
1.854502 -1.4557039 -0.38881406 0
1.9630952 -1.4668194 -0.39064768 0
2.0332491 -1.4407071 -0.39124718 0
2.1379056 -1.4215975 -0.39432114 0
2.2213347 -1.454288 -0.39595512 0
2.3407416 -1.4384075 -0.3983213 0
-2.5018082 -1.3697978 -0.30025145 0
-2.4164414 -1.3456479 -0.30199593 0
-2.3506598 -1.3536975 -0.30228522 0
-2.2638178 -1.3541509 -0.30359113 0
-2.1251128 -1.3411068 -0.30681023 0
-2.0585544 -1.3548198 -0.30794862 0
-1.9434835 -1.3534168 -0.31086797 0
-1.8518273 -1.3494909 -0.3123557 0
-1.7649736 -1.3516613 -0.31443524 0
-1.6693718 -1.3693972 -0.31658578 0
-1.5397881 -1.3448237 -0.31908742 0
-1.461279 -1.3653073 -0.32062364 0
-1.3477993 -1.3526758 -0.32307601 0
-1.2479248 -1.3455052 -0.32503945 0
-1.1457872 -1.3471155 -0.3277705 0
-1.0384865 -1.3347863 -0.32983813 0
-0.96307737 -1.3725168 -0.32960641 0
-0.84787273 -1.3470703 -0.33259442 0
-0.74513501 -1.344644 -0.3348681 0
-0.63530666 -1.34115 -0.33776459 0
-0.54347169 -1.3569646 -0.33901283 0
-0.46075821 -1.3460557 -0.34036145 0
-0.34426913 -1.3448966 -0.34308395 0
-0.25463024 -1.352088 -0.34431821 0
-0.15067275 -1.3528516 -0.34682152 0
-0.053045854 -1.3486271 -0.35033509 0
0.048842311 -1.3446704 -0.35155994 0
0.14515431 -1.3475583 -0.35199225 0
0.24448659 -1.3517272 -0.35677722 0
0.35145864 -1.353465 -0.35696375 0
0.46652293 -1.3407863 -0.35819358 0
0.5440833 -1.3510071 -0.36087179 0
0.6578517 -1.3428839 -0.36252952 0
0.75346011 -1.3645085 -0.36335167 0
0.85242724 -1.3371843 -0.36749688 0
0.95813167 -1.3654356 -0.36885038 0
1.0533062 -1.3517276 -0.37126374 0
1.1572207 -1.3447447 -0.37364912 0
1.2496105 -1.3472909 -0.37556571 0
1.3614113 -1.3662362 -0.37811565 0
1.4290993 -1.3351483 -0.37890428 0
1.5358838 -1.3351796 -0.38121906 0
1.6401366 -1.3453553 -0.38353091 0
1.7476931 -1.3517822 -0.38578773 0
1.853667 -1.3509424 -0.38739777 0
1.9593945 -1.3437153 -0.38945374 0
2.0620561 -1.3583534 -0.39182168 0
2.1479769 -1.330742 -0.39406002 0
2.2536483 -1.3556608 -0.39606449 0
2.3470085 -1.3513148 -0.39827579 0
2.4145117 -1.3219762 -0.39908609 0
-2.3486233 -1.2426666 -0.30152714 0
-2.2451091 -1.2712493 -0.30440643 0
-2.1448798 -1.2554556 -0.30608669 0
-2.0488849 -1.2389957 -0.30690131 0
-1.9486208 -1.2559286 -0.30964518 0
-1.8556688 -1.2532388 -0.31172591 0
-1.7556282 -1.2603233 -0.31374541 0
-1.6562784 -1.2623405 -0.31557217 0
-1.5494539 -1.2575904 -0.31799501 0
-1.4501839 -1.2463522 -0.32051003 0
-1.3415127 -1.2497281 -0.32166761 0
-1.2471907 -1.2516969 -0.32461172 0
-1.1261203 -1.2476299 -0.32769969 0
-1.0586495 -1.2587385 -0.32907963 0
-0.94600332 -1.2532166 -0.33074459 0
-0.85160482 -1.2513777 -0.33206651 0
-0.75407118 -1.2381276 -0.33491826 0
-0.66014361 -1.262441 -0.33520114 0
-0.54657304 -1.2526487 -0.33749861 0
-0.44737068 -1.2488371 -0.34024605 0
-0.35383216 -1.2477193 -0.34182274 0
-0.25069696 -1.2575161 -0.34365097 0
-0.15231617 -1.2840403 -0.34657288 0
-0.050759431 -1.2919919 -0.34659672 0
0.041642185 -1.2926114 -0.3465333 0
0.16329055 -1.2964628 -0.35021088 0
0.25841084 -1.2956874 -0.35409683 0
0.34356761 -1.2852871 -0.35655576 0
0.4449515 -1.2581441 -0.35768691 0
0.55589461 -1.2493439 -0.3598147 0
0.6457293 -1.241609 -0.36174837 0
0.75692284 -1.2420275 -0.36370975 0
0.86140507 -1.2520741 -0.36652967 0
0.9581145 -1.2664146 -0.36828956 0
1.0428702 -1.2330539 -0.37056643 0
1.1448213 -1.2343247 -0.37249225 0
1.2416908 -1.246105 -0.37414446 0
1.3452601 -1.2566054 -0.37672365 0
1.4599955 -1.2584076 -0.37899336 0
1.5284994 -1.23559 -0.38001782 0
1.6454285 -1.2540616 -0.38370815 0
1.7250985 -1.2383785 -0.38374326 0
1.8358608 -1.2550379 -0.38621044 0
1.9422259 -1.2322032 -0.38889483 0
2.0285714 -1.2466453 -0.39045402 0
2.1420996 -1.2414465 -0.39293417 0
2.2482612 -1.2519518 -0.39531219 0
2.3578851 -1.2473561 -0.39790303 0
2.445951 -1.2717357 -0.3996968 0
-2.389452 -1.1356964 -0.30003461 0
-2.2405732 -1.1446735 -0.30289873 0
-2.1591983 -1.1651775 -0.30509034 0
-2.0508764 -1.1423335 -0.30830133 0
-1.9587084 -1.1538923 -0.30838338 0
-1.8379185 -1.1477162 -0.31093538 0
-1.7404146 -1.1572959 -0.31304383 0
-1.6340268 -1.1510963 -0.31545416 0
-1.565643 -1.162564 -0.31682929 0
-1.4406595 -1.1474576 -0.31886443 0
-1.3497138 -1.1466923 -0.32169837 0
-1.229965 -1.1423982 -0.32318863 0
-1.1668549 -1.1679618 -0.32526934 0
-1.0562131 -1.1361055 -0.328237 0
-0.93474066 -1.137936 -0.33147413 0
-0.84579152 -1.1531868 -0.33220962 0
-0.74627298 -1.1512196 -0.33369571 0
-0.65416354 -1.1459547 -0.33551279 0
-0.55960733 -1.1454167 -0.33642 0
-0.45493841 -1.1780922 -0.33845714 0
0.66756159 -1.1691259 -0.36081037 0
0.76228446 -1.1372952 -0.36412361 0
0.84768265 -1.1546665 -0.36599717 0
0.94000936 -1.1543278 -0.3679907 0
1.0646451 -1.1643296 -0.37075156 0
1.1393871 -1.129555 -0.37007353 0
1.2516077 -1.1360652 -0.37404412 0
1.342541 -1.1504122 -0.37564015 0
1.452606 -1.1402073 -0.37801608 0
1.5697159 -1.1553763 -0.38094318 0
1.6724114 -1.1647087 -0.38173303 0
1.7521728 -1.1591781 -0.38431966 0
1.8548956 -1.1470731 -0.38626304 0
1.9637846 -1.143294 -0.38862452 0
2.067816 -1.1515061 -0.39096314 0
2.1715665 -1.1530663 -0.39321449 0
2.2302241 -1.1394776 -0.39511323 0
2.3411086 -1.1470388 -0.39648268 0
2.4471211 -1.1634252 -0.39848244 0
-2.3202872 -1.0624471 -0.30097491 0
-2.2215581 -1.055945 -0.30203873 0
-2.1400731 -1.0549974 -0.30452749 0
-2.0490689 -1.0468131 -0.30583683 0
-1.9543411 -1.051913 -0.30845162 0
-1.8622609 -1.0545528 -0.31027219 0
-1.7473021 -1.0341808 -0.31206623 0
-1.6638979 -1.0557135 -0.31372181 0
-1.5470266 -1.0416541 -0.31689951 0
-1.448959 -1.0558475 -0.31895965 0
-1.3601431 -1.0520589 -0.31853417 0
-1.2650425 -1.047971 -0.3218312 0
-1.1542109 -1.0478492 -0.32497951 0
-1.0613631 -1.05018 -0.32729656 0
-0.96012628 -1.0519769 -0.33110911 0
-0.84578168 -1.0453056 -0.33198985 0
-0.74513078 -1.0549232 -0.33578292 0
-0.6498307 -1.0661212 -0.33464932 0
0.85251617 -1.0622545 -0.3651073 0
0.95211065 -1.0521202 -0.36770314 0
1.0477414 -1.0514984 -0.36802077 0
1.1596229 -1.0639788 -0.37190241 0
1.241227 -1.0353299 -0.37262821 0
1.3413336 -1.0375779 -0.37531117 0
1.4245374 -1.0538442 -0.37687021 0
1.5455197 -1.059885 -0.37826395 0
1.6502841 -1.0469302 -0.38120249 0
1.7611322 -1.0477676 -0.38388115 0
1.8558137 -1.0508621 -0.38564301 0
1.9535707 -1.0515471 -0.38784131 0
2.05164 -1.048061 -0.39007348 0
2.1530011 -1.0422614 -0.39230195 0
2.2506959 -1.0500209 -0.39382255 0
2.3526146 -1.0568733 -0.39624795 0
2.4524581 -1.0597749 -0.39852333 0
2.5617518 -1.0210605 -0.39959195 0
-2.2555871 -0.96112454 -0.30128518 0
-2.1697621 -0.95609188 -0.30261183 0
-2.0506349 -0.94597435 -0.3052831 0
-1.9341754 -0.95349008 -0.30846465 0
-1.8343112 -0.95720613 -0.31021389 0
-1.723634 -0.93919432 -0.31157631 0
-1.6482601 -0.94877297 -0.31327653 0
-1.5395191 -0.94925511 -0.31592691 0
-1.4347656 -0.95411932 -0.31873515 0
-1.3437334 -0.95005918 -0.32137603 0
-1.2469734 -0.95034367 -0.32099339 0
-1.1443976 -0.95064449 -0.32391334 0
-1.0509759 -0.94956237 -0.32726094 0
-0.9603346 -0.95818615 -0.32797724 0
-0.84613365 -0.94442898 -0.32981873 0
-0.77865642 -0.9703877 -0.33341652 0
0.96565831 -0.96912795 -0.36662838 0
1.039862 -0.95194399 -0.36783484 0
1.1450547 -0.95309716 -0.37057355 0
1.2558506 -0.95406979 -0.37230387 0
1.3309785 -0.93980366 -0.37360811 0
1.4432228 -0.95086414 -0.37626258 0
1.5485574 -0.9516601 -0.37874469 0
1.6492727 -0.94981432 -0.38147634 0
1.7215059 -0.94259769 -0.3824122 0
1.838344 -0.95577228 -0.38477293 0
1.942268 -0.9490869 -0.38764572 0
2.0362818 -0.94999975 -0.38927847 0
2.1494558 -0.94724131 -0.39133686 0
2.2722538 -0.9564262 -0.39413223 0
2.3369973 -0.95094794 -0.39549398 0
2.4606485 -0.95380503 -0.39751324 0
2.5567107 -0.9142254 -0.39948371 0
-2.2620082 -0.87383658 -0.30066216 0
-2.1491246 -0.86724722 -0.30298701 0
-2.0295861 -0.85986209 -0.30533502 0
-1.9411459 -0.85534257 -0.30681226 0
-1.8542784 -0.84913665 -0.30852091 0
-1.7585417 -0.85140842 -0.31147054 0
-1.6465623 -0.8561244 -0.31319505 0
-1.5695732 -0.84482217 -0.31431791 0
-1.4392397 -0.83685571 -0.31719792 0
-1.3689718 -0.86039531 -0.31944618 0
-1.2574753 -0.85476577 -0.3231439 0
-1.1471997 -0.83405328 -0.32490489 0
-1.0588412 -0.86381167 -0.32443723 0
-0.95059448 -0.85074282 -0.3263599 0
-0.87264585 -0.8634041 -0.3290295 0
1.0711416 -0.86593723 -0.36914465 0
1.1564292 -0.85543489 -0.37070021 0
1.2524403 -0.8457759 -0.37236476 0
1.3613502 -0.85394776 -0.37461495 0
1.4466908 -0.84982044 -0.37749368 0
1.5458597 -0.84646839 -0.37933531 0
1.6571383 -0.84653288 -0.38060665 0
1.761681 -0.85895616 -0.38321069 0
1.8483973 -0.84114879 -0.38507342 0
1.9645362 -0.84898931 -0.38708282 0
2.0513611 -0.85181719 -0.38856438 0
2.1455023 -0.85513371 -0.39087507 0
2.2335398 -0.85342139 -0.39263654 0
2.3344727 -0.85392284 -0.39434761 0
2.4396296 -0.85295892 -0.39699903 0
2.5350316 -0.84571415 -0.39860186 0
-2.2322495 -0.76258063 -0.30067301 0
-2.1461191 -0.75034654 -0.30134809 0
-2.0577211 -0.75266731 -0.30338717 0
-1.9713943 -0.75332826 -0.30515817 0
-1.854769 -0.74586642 -0.30830479 0
-1.7738901 -0.78169298 -0.30825111 0
-1.6463171 -0.75381559 -0.3118113 0
-1.534788 -0.75669748 -0.31416133 0
-1.4369029 -0.74360925 -0.31576785 0
-1.3538287 -0.76288211 -0.31835562 0
-1.2409861 -0.74386013 -0.32150501 0
-1.1602296 -0.74927682 -0.32446215 0
-1.0443575 -0.76110882 -0.32588956 0
-0.95864004 -0.75238478 -0.32670754 0
1.1563952 -0.75695091 -0.37048587 0
1.2430786 -0.75161552 -0.37194932 0
1.3366667 -0.75954342 -0.37436193 0
1.4364814 -0.75060374 -0.37639517 0
1.5437725 -0.76378417 -0.37821376 0
1.6465291 -0.75397944 -0.38026825 0
1.7483959 -0.74977362 -0.38148779 0
1.823509 -0.74024099 -0.38321003 0
1.9294806 -0.75640738 -0.38554472 0
2.0399184 -0.75294393 -0.38795042 0
2.14942 -0.74473631 -0.3901417 0
2.2691023 -0.75710392 -0.39264262 0
2.3723357 -0.75400633 -0.39519346 0
2.4725606 -0.74703509 -0.39685082 0
2.5623736 -0.75416839 -0.3985534 0
2.658458 -0.7208339 -0.39950019 0
-2.2424958 -0.69507313 -0.30067226 0
-2.1694775 -0.6554445 -0.30130607 0
-2.053906 -0.64295107 -0.30301037 0
-1.9360242 -0.66137624 -0.30571619 0
-1.8327653 -0.64078039 -0.3075507 0
-1.5511214 -0.68352634 -0.31308183 0
-1.4635341 -0.68023288 -0.31471094 0
-1.3345187 -0.66463131 -0.3187876 0
-1.2354374 -0.65559787 -0.32158342 0
-1.1497372 -0.64370733 -0.32279223 0
-1.0423295 -0.65769148 -0.32439291 0
1.1883739 -0.68421876 -0.36743075 0
1.246505 -0.64809954 -0.3700695 0
1.3533895 -0.65184629 -0.37315843 0
1.4635884 -0.65560943 -0.37514523 0
1.5430951 -0.63516408 -0.37638727 0
1.6576521 -0.64703596 -0.3787418 0
1.7417789 -0.65124351 -0.38097122 0
1.8458067 -0.65119004 -0.38303834 0
1.9509526 -0.65096903 -0.38533473 0
2.0395591 -0.64817947 -0.3872126 0
2.1443372 -0.65649152 -0.38923508 0
2.2509193 -0.65213907 -0.3914656 0
2.3832276 -0.65678078 -0.39418298 0
2.4406505 -0.63709837 -0.39543816 0
2.5460436 -0.65167034 -0.39781389 0
2.6021678 -0.62620199 -0.3992745 0
-2.1376216 -0.55245686 -0.30121219 0
-2.038399 -0.55594218 -0.30260915 0
-1.9351873 -0.55460542 -0.30446467 0
-1.8505821 -0.53325164 -0.30552405 0
-1.2379531 -0.58839387 -0.32062903 0
-1.1468165 -0.57345021 -0.32209331 0
-1.071045 -0.5569095 -0.32355928 0
1.2605866 -0.54486692 -0.36805004 0
1.3439509 -0.55804521 -0.3701514 0
1.4510896 -0.54775494 -0.37347451 0
1.5322376 -0.54479688 -0.37532547 0
1.6485577 -0.5554235 -0.37889653 0
1.754729 -0.54661661 -0.38114804 0
1.8712742 -0.56010336 -0.38316506 0
1.9543569 -0.54214597 -0.3856681 0
2.0567279 -0.54499078 -0.38744146 0
2.1574728 -0.55206114 -0.38925192 0
2.2424414 -0.53956431 -0.3909024 0
2.3240948 -0.55921596 -0.39286485 0
2.427001 -0.54745352 -0.39498994 0
2.5239885 -0.55035877 -0.39674076 0
2.6118858 -0.55002409 -0.39807293 0
2.7007315 -0.52842373 -0.39920378 0
-2.1301327 -0.48051655 -0.30099359 0
-2.0470743 -0.44648206 -0.30227181 0
-1.9655627 -0.45818391 -0.30471203 0
-1.8724037 -0.4505876 -0.30644074 0
-1.7641926 -0.44876346 -0.30829135 0
-1.6554626 -0.4413949 -0.31001681 0
-1.542686 -0.41832256 -0.31233528 0
-1.4617177 -0.40759659 -0.31484613 0
1.2947134 -0.4841328 -0.37038672 0
1.346065 -0.44928154 -0.37160659 0
1.4478743 -0.4465878 -0.37514782 0
1.5613921 -0.45098111 -0.37755683 0
1.6525246 -0.44820142 -0.37893334 0
1.7406523 -0.46138969 -0.38037276 0
1.8443714 -0.44388261 -0.38136187 0
1.926187 -0.45063627 -0.38296825 0
2.0577345 -0.43933982 -0.38592291 0
2.1735647 -0.45771727 -0.38844511 0
2.2623565 -0.44258234 -0.39022699 0
2.3446157 -0.45867911 -0.39204681 0
2.4441571 -0.44197065 -0.39413211 0
2.5375512 -0.45884109 -0.39613557 0
2.6323767 -0.4566071 -0.39842999 0
2.7222071 -0.41220403 -0.39950716 0
-2.1427145 -0.37167835 -0.30044287 0
-2.0580127 -0.35695434 -0.30148411 0
-1.9488188 -0.3383911 -0.30356959 0
-1.8815771 -0.35418186 -0.30427954 0
-1.7549396 -0.35619971 -0.30735561 0
-1.6416876 -0.34568098 -0.30984277 0
-1.5568933 -0.35119462 -0.31183884 0
-1.4460986 -0.33709219 -0.31420159 0
-1.3513211 -0.35287046 -0.31659976 0
1.3533132 -0.35163075 -0.36843592 0
1.4531864 -0.34972921 -0.37134457 0
1.5693539 -0.35397312 -0.37512681 0
1.6462499 -0.33034381 -0.37691668 0
1.7453194 -0.35441494 -0.37892979 0
1.8426489 -0.35533929 -0.38073486 0
1.9284564 -0.34875783 -0.38282299 0
2.0226221 -0.35088497 -0.38460487 0
2.1494918 -0.35708579 -0.3874495 0
2.2569356 -0.33370066 -0.38917273 0
2.3586648 -0.35713935 -0.39147279 0
2.4525521 -0.35344243 -0.39302063 0
2.5410762 -0.34775874 -0.39407226 0
2.6300306 -0.35992852 -0.39612016 0
2.7173741 -0.35204548 -0.39749855 0
2.8001347 -0.34234405 -0.398592 0
-1.9735597 -0.28441542 -0.30129483 0
-1.8650476 -0.27541423 -0.30379418 0
-1.7236111 -0.28625691 -0.30755055 0
-1.6478024 -0.27366304 -0.30865395 0
-1.5660769 -0.27826905 -0.31022361 0
-1.444517 -0.26757008 -0.31401974 0
-1.3376653 -0.25841755 -0.31726348 0
-1.2499952 -0.23062181 -0.31805432 0
-1.1735038 -0.22103161 -0.31998968 0
1.3556106 -0.24518843 -0.36920315 0
1.4443419 -0.2581009 -0.37131146 0
1.5446428 -0.24683842 -0.3745653 0
1.6346256 -0.25124952 -0.37641403 0
1.7640584 -0.25422049 -0.37877625 0
1.8420948 -0.25201455 -0.38025784 0
1.9363886 -0.25090399 -0.38114414 0
2.0288436 -0.24816024 -0.38282546 0
2.1440623 -0.25585946 -0.38500047 0
2.2613208 -0.23570204 -0.38753158 0
2.3631182 -0.25464079 -0.38955319 0
2.4553716 -0.26010206 -0.39174917 0
2.5576475 -0.23863752 -0.39456418 0
2.6468978 -0.24696456 -0.39644837 0
2.7361481 -0.25529158 -0.39833251 0
2.8201365 -0.26312006 -0.39891514 0
1.3653114 -0.1471854 -0.36802864 0
1.4366587 -0.15487029 -0.37024078 0
1.5473849 -0.14924628 -0.37352607 0
1.6343402 -0.15444955 -0.37629071 0
1.7544454 -0.14275789 -0.37900981 0
1.8544998 -0.15954331 -0.38032562 0
1.9558569 -0.15417661 -0.3832145 0
2.0490403 -0.14683047 -0.38480034 0
2.1325159 -0.15281193 -0.38650563 0
2.2501073 -0.14510326 -0.38921165 0
2.3691823 -0.15278733 -0.39190772 0
2.4786143 -0.15977766 -0.39415681 0
2.5780971 -0.14769638 -0.3965044 0
2.6674314 -0.15281661 -0.3981716 0
2.74722 -0.17718299 -0.39870191 0
2.8297842 -0.10129633 -0.39936346 0
1.3684767 -0.048974 -0.36699131 0
1.4403245 -0.051555682 -0.36934614 0
1.5447582 -0.050277699 -0.37256205 0
1.6365627 -0.046888582 -0.37484023 0
1.7532548 -0.050219093 -0.37785232 0
1.8542625 -0.053119916 -0.37963384 0
1.9532504 -0.055963296 -0.3817445 0
2.047863 -0.044017304 -0.38354743 0
2.1313825 -0.045808539 -0.38515139 0
2.2474225 -0.041707631 -0.38731027 0
2.3621702 -0.058995247 -0.38967067 0
2.4701281 -0.053029209 -0.39166629 0
2.5620589 -0.054981884 -0.39360201 0
2.6516564 -0.0569067 -0.39548823 0
2.7412536 -0.058831524 -0.39737439 0
2.8313839 -0.040486347 -0.39920917 0
1.3681786 0.048994962 -0.36691174 0
1.4400396 0.051567119 -0.36927885 0
1.5443399 0.050266549 -0.37287569 0
1.6413949 0.042216975 -0.37586349 0
1.7569751 0.058529396 -0.37778392 0
1.8566909 0.05323026 -0.3785696 0
1.9461941 0.05566572 -0.37966803 0
2.0401778 0.043746639 -0.38221288 0
2.1238632 0.04554477 -0.38400936 0
2.2493913 0.048241958 -0.38670406 0
2.3749192 0.050939154 -0.38939872 0
2.4668055 0.052940581 -0.39137796 0
2.5604703 0.054964945 -0.39332804 0
2.6500349 0.05688766 -0.39518663 0
2.7395992 0.058810372 -0.39704525 0
2.8281918 0.040427778 -0.398875 0
1.3662856 0.14724228 -0.36828977 0
1.436134 0.15476988 -0.36936268 0
1.5613202 0.15969294 -0.37086904 0
1.6378024 0.13398483 -0.37293062 0
1.7587476 0.15132309 -0.37516069 0
1.8356442 0.15794247 -0.37676665 0
1.9350711 0.15256654 -0.37900603 0
2.0273938 0.1453023 -0.38076055 0
2.1385982 0.14803328 -0.38328317 0
2.2624426 0.14592539 -0.38626292 0
2.3648741 0.1525299 -0.38841128 0
2.4568651 0.15834247 -0.39059168 0
2.5574603 0.1464791 -0.39328665 0
2.646769 0.15159816 -0.39500651 0
2.7360778 0.15671721 -0.39672634 0
2.8211303 0.14132503 -0.39789742 0
2.9004989 0.18706876 -0.39868015 0
-1.9467807 0.26639709 -0.30349824 0
-1.7556303 0.27871305 -0.30324167 0
-1.6529649 0.27866432 -0.30424428 0
-1.5520862 0.27578807 -0.30727389 0
-1.4412445 0.2671172 -0.31001028 0
-1.3325462 0.26180181 -0.31168815 0
-1.2470075 0.25816688 -0.31436175 0
-1.1557647 0.24327467 -0.31656644 0
1.338729 0.2520808 -0.36512342 0
1.4425006 0.25610131 -0.36781061 0
1.5705734 0.25272524 -0.37184793 0
1.6491661 0.23376799 -0.37375149 0
1.7482741 0.25195652 -0.37535417 0
1.8429099 0.25904694 -0.37727603 0
1.9249167 0.24560156 -0.37858573 0
2.0481343 0.2565023 -0.38093138 0
2.1660564 0.2460759 -0.38329589 0
2.2669554 0.24430232 -0.38556466 0
2.3501625 0.25326669 -0.38741615 0
2.4412572 0.26304039 -0.38945535 0
2.5361879 0.23661868 -0.39112163 0
2.6253123 0.24493347 -0.39295745 0
2.7144372 0.25324824 -0.39479324 0
2.8365765 0.23727469 -0.39753714 0
2.9021444 0.27077141 -0.39907902 0
-1.8618162 0.35052952 -0.30102766 0
-1.7610085 0.34205359 -0.30337247 0
-1.6474252 0.3592101 -0.30538467 0
-1.5332214 0.35029539 -0.3072848 0
-1.4525939 0.34959814 -0.30925906 0
-1.3450309 0.32969883 -0.31260544 0
-1.2436987 0.32126907 -0.31432322 0
-1.1396893 0.30028829 -0.31580067 0
1.3493181 0.35877201 -0.36636382 0
1.4549989 0.3500866 -0.36850715 0
1.5554017 0.350795 -0.36995009 0
1.6479203 0.34694499 -0.37260002 0
1.7508827 0.35559428 -0.37468401 0
1.8713747 0.3490285 -0.3772032 0
1.9338932 0.34423187 -0.37901503 0
2.0488865 0.34029248 -0.38156638 0
2.1720057 0.36074278 -0.38364848 0
2.2586174 0.34202537 -0.38521174 0
2.3409815 0.35449541 -0.38669178 0
2.426919 0.34618354 -0.38848799 0
2.5398004 0.35693273 -0.39082974 0
2.6425526 0.34883508 -0.39334568 0
2.7710094 0.33879679 -0.39577854 0
2.8812571 0.35228005 -0.39799574 0
2.9724746 0.34186453 -0.39967933 0
-1.9482532 0.42481726 -0.30081338 0
-1.8586897 0.40528789 -0.30289447 0
-1.7515868 0.44811714 -0.30141884 0
-1.6559854 0.44248074 -0.30398968 0
-1.540946 0.41188353 -0.30597734 0
1.2703261 0.46453685 -0.36250135 0
1.3483576 0.44633588 -0.36610368 0
1.442741 0.46241689 -0.36799422 0
1.5270826 0.44949308 -0.36935517 0
1.6465721 0.45359883 -0.37129158 0
1.765118 0.43551406 -0.37439013 0
1.8732061 0.45638233 -0.37677345 0
1.9513662 0.42862788 -0.37948173 0
2.0593469 0.44903198 -0.38045567 0
2.1454661 0.45178556 -0.3823278 0
2.2363062 0.43756208 -0.38422874 0
2.3364244 0.45714694 -0.38652781 0
2.4243505 0.43846494 -0.38845333 0
2.544872 0.45070243 -0.39063847 0
2.6795645 0.44505742 -0.39306846 0
2.7677667 0.45970666 -0.39483881 0
2.8597739 0.45398584 -0.39679548 0
2.9481132 0.46800923 -0.39859638 0
-1.8148475 0.56250447 -0.30095398 0
-1.2376523 0.58806014 -0.31343231 0
-1.1447704 0.56426722 -0.31449687 0
-1.0518832 0.55872989 -0.31520206 0
1.2460349 0.55978948 -0.36318469 0
1.3497573 0.54922825 -0.36443502 0
1.4723586 0.55608052 -0.36767289 0
1.5516951 0.53711247 -0.36985928 0
1.6681464 0.54330784 -0.37147132 0
1.7468518 0.54143816 -0.37248015 0
1.842044 0.54597324 -0.37439182 0
1.9414188 0.54122937 -0.37714517 0
2.0294511 0.55023271 -0.37917328 0
2.1370997 0.55513024 -0.38144439 0
2.2404332 0.54609287 -0.38368586 0
2.3672814 0.5339641 -0.38594237 0
2.4631727 0.5555951 -0.38750431 0
2.5666907 0.54038 -0.39037696 0
2.6539936 0.55876303 -0.39196524 0
2.7456307 0.55753881 -0.39375788 0
2.8381987 0.55523807 -0.39567849 0
2.9370282 0.55289966 -0.39782 0
3.0271184 0.54746658 -0.39949596 0
-1.7933792 0.62700653 -0.30091044 0
-1.5146379 0.6804173 -0.30621383 0
-1.4259304 0.67269999 -0.30750716 0
-1.339143 0.66007155 -0.30919227 0
-1.259174 0.6544891 -0.31026348 0
-1.1623118 0.64842248 -0.31157172 0
-1.0493138 0.65264452 -0.31494623 0
-0.97749668 0.66009611 -0.31614062 0
1.1745363 0.66503423 -0.36170834 0
1.2567515 0.64194608 -0.36446878 0
1.3466902 0.65198249 -0.36425847 0
1.440328 0.64701581 -0.36613685 0
1.533 0.64947712 -0.36813959 0
1.6389323 0.65721035 -0.3702741 0
1.7527497 0.65352631 -0.37139916 0
1.8318344 0.63784957 -0.37353668 0
1.9688351 0.63824117 -0.37644488 0
2.0754535 0.64322829 -0.37892255 0
2.160938 0.65282875 -0.38053814 0
2.2545855 0.6460343 -0.38261566 0
2.3428032 0.63511509 -0.38448241 0
2.4289141 0.65846366 -0.38614073 0
2.5310438 0.64753503 -0.38881996 0
2.6239824 0.65137398 -0.39084467 0
2.7382848 0.65893883 -0.39297396 0
2.8527975 0.665241 -0.39499971 0
2.9485958 0.64297891 -0.39709672 0
3.0803628 0.69479406 -0.39907017 0
-1.7344357 0.76428205 -0.30066064 0
-1.6399887 0.76510721 -0.30239362 0
-1.566473 0.74452972 -0.30422369 0
-1.4554182 0.74350071 -0.30604085 0
-1.376604 0.75383604 -0.30743894 0
-1.2671854 0.74512726 -0.3100968 0
-1.1399083 0.74341655 -0.31179535 0
-1.0520712 0.74700212 -0.31445527 0
-0.95405728 0.75498009 -0.31780759 0
-0.8906045 0.78548241 -0.31819761 0
1.0853981 0.77915114 -0.35803112 0
1.1488627 0.74556738 -0.35948244 0
1.2526879 0.74525064 -0.36196104 0
1.3702195 0.75387901 -0.36375111 0
1.4418414 0.73118794 -0.36406475 0
1.5495406 0.74558783 -0.36707032 0
1.6502841 0.75554645 -0.36965299 0
1.7554315 0.74937063 -0.3724246 0
1.8503699 0.75292438 -0.3738324 0
1.9456812 0.74340582 -0.37589583 0
2.0340455 0.74394917 -0.37764677 0
2.1265786 0.74351615 -0.37989819 0
2.2511168 0.7632165 -0.38275889 0
2.3305571 0.74083173 -0.38499564 0
2.470896 0.74656773 -0.38689476 0
2.5801756 0.75950068 -0.3885279 0
2.6524725 0.73290104 -0.38999668 0
2.7733576 0.75185776 -0.39277408 0
2.8721776 0.75672817 -0.3953464 0
2.9632339 0.75810355 -0.39698926 0
3.0572309 0.75892007 -0.39925331 0
-1.7063133 0.84114915 -0.3013064 0
-1.6739746 0.84914178 -0.30136767 0
-1.5448531 0.85408002 -0.3032867 0
-1.4420934 0.86085683 -0.3067922 0
-1.3412772 0.84937656 -0.30861664 0
-1.2516892 0.85460824 -0.31043404 0
-1.1447041 0.84561276 -0.31320074 0
-1.052158 0.8481912 -0.31452161 0
-0.9523384 0.85450828 -0.31693232 0
-0.84977883 0.85551625 -0.31913078 0
-0.78427815 0.88281977 -0.3164137 0
0.97777748 0.88755792 -0.35385934 0
1.044922 0.84838134 -0.35578176 0
1.1479695 0.84916556 -0.35872027 0
1.2624454 0.8659029 -0.36033028 0
1.3368958 0.83994132 -0.36305973 0
1.4486768 0.85801566 -0.36494866 0
1.5617599 0.85510564 -0.3671222 0
1.6665009 0.85363781 -0.36860338 0
1.7379432 0.84137392 -0.37043762 0
1.849043 0.84684038 -0.37319016 0
1.9400265 0.84513724 -0.37601382 0
2.0576761 0.83726472 -0.37839901 0
2.173764 0.84845173 -0.38081199 0
2.2562594 0.86208183 -0.38286325 0
2.3540881 0.8611024 -0.38431382 0
2.4523516 0.85731286 -0.38617983 0
2.5529873 0.85174608 -0.3883414 0
2.6546209 0.84366971 -0.39049187 0
2.7450447 0.85080808 -0.39215305 0
2.8314323 0.85550618 -0.39330408 0
2.922368 0.86021686 -0.39505392 0
3.0438926 0.85669422 -0.39710447 0
3.1259611 0.86363512 -0.39884344 0
-1.6446623 0.94699305 -0.3013058 0
-1.5459791 0.94998688 -0.3038435 0
-1.4565321 0.95363176 -0.30550653 0
-1.3669069 0.95175642 -0.30742866 0
-1.2633767 0.95399487 -0.309461 0
-1.1525317 0.94538301 -0.31199884 0
-1.0416728 0.94570082 -0.31441808 0
-0.95061421 0.95398152 -0.31469876 0
-0.84856498 0.95116228 -0.31777787 0
-0.75979424 0.94672966 -0.32066268 0
-0.67610711 0.9782654 -0.31867707 0
0.87863332 0.97480422 -0.35166427 0
0.947523 0.95683658 -0.35351557 0
1.0481877 0.95150995 -0.35523254 0
1.1532593 0.9520517 -0.35870448 0
1.2392001 0.94439119 -0.36094299 0
1.3417488 0.96321744 -0.36224583 0
1.4330037 0.95271474 -0.36434287 0
1.5409377 0.95903844 -0.36607146 0
1.6372434 0.94250655 -0.36774734 0
1.7340337 0.94935328 -0.36952859 0
1.8523712 0.94973642 -0.3722479 0
1.9367085 0.93759531 -0.37404191 0
2.046092 0.95454562 -0.3761532 0
2.1626067 0.96239674 -0.38007218 0
2.230495 0.94887239 -0.38141274 0
2.3391342 0.95843524 -0.3832489 0
2.4416134 0.95981079 -0.38584122 0
2.556489 0.95593345 -0.38739389 0
2.6502891 0.94827396 -0.38922012 0
2.738445 0.94290191 -0.39147493 0
2.8546033 0.95242357 -0.39329827 0
2.958971 0.95613223 -0.39525679 0
3.0670104 0.9507916 -0.39783004 0
3.1112273 0.93998194 -0.39906436 0
-1.7106652 1.0345752 -0.3012805 0
-1.6234722 1.0137452 -0.30499852 0
-1.5669756 1.0564704 -0.30189836 0
-1.4480003 1.0460955 -0.30511683 0
-1.3414696 1.0438836 -0.30725387 0
-1.2378348 1.0453503 -0.30941904 0
-1.1624426 1.0618912 -0.31114316 0
-1.0500591 1.0537891 -0.31128484 0
-0.94202727 1.045243 -0.31440073 0
-0.85363024 1.0482517 -0.31586292 0
-0.74892443 1.0515244 -0.31908086 0
-0.64896041 1.0590637 -0.32075191 0
-0.55759525 1.0635622 -0.32190222 0
-0.49461317 1.0905579 -0.32086334 0
0.68088031 1.0990639 -0.34643459 0
0.74587131 1.0631771 -0.34809399 0
0.84134179 1.0515895 -0.35037524 0
0.95535177 1.0511057 -0.35304365 0
1.0539843 1.0580336 -0.35732853 0
1.1360126 1.0462629 -0.3576628 0
1.2361755 1.040146 -0.3605029 0
1.3564509 1.0491285 -0.36237964 0
1.4552696 1.044706 -0.36406511 0
1.5589182 1.0526682 -0.36659187 0
1.6626561 1.0547487 -0.36801225 0
1.762313 1.0485412 -0.36957386 0
1.8524048 1.0454717 -0.37186918 0
1.9717046 1.043134 -0.37405455 0
2.062135 1.0534495 -0.37628752 0
2.1368961 1.0533651 -0.37738517 0
2.2468798 1.0482038 -0.38004097 0
2.3475873 1.0544904 -0.38235512 0
2.4525023 1.0598078 -0.38491249 0
2.5522788 1.0598273 -0.38695502 0
2.6554601 1.0583262 -0.38851443 0
2.754981 1.052637 -0.39061764 0
2.8549032 1.0442692 -0.3924295 0
2.9438767 1.0529437 -0.39460689 0
3.0519574 1.0507345 -0.39697596 0
-1.6239212 1.1656785 -0.30162656 0
-1.5345929 1.1332211 -0.30260128 0
-1.4640474 1.1613787 -0.30334726 0
-1.3455592 1.1529684 -0.30605462 0
-1.2384218 1.1535425 -0.30918312 0
-1.1324387 1.1401955 -0.30935845 0
-1.0650369 1.1649035 -0.31043828 0
-0.95191807 1.1543539 -0.31317115 0
-0.83915102 1.1430181 -0.31690067 0
-0.74685585 1.153318 -0.31893286 0
-0.65593719 1.171808 -0.31797987 0
-0.55701679 1.1404836 -0.3222042 0
-0.44997838 1.1518723 -0.32320607 0
-0.34853396 1.1687351 -0.32688686 0
-0.24705619 1.1942014 -0.32685813 0
0.45320508 1.1856688 -0.34019202 0
0.54355139 1.1541873 -0.34194398 0
0.64535117 1.1599625 -0.3458918 0
0.75292873 1.1410517 -0.34878445 0
0.8494131 1.1569097 -0.34977868 0
0.95473313 1.1579036 -0.35224187 0
1.0502131 1.1368155 -0.35540172 0
1.1559871 1.1435748 -0.35871476 0
1.2577621 1.141806 -0.35899159 0
1.3464464 1.1481687 -0.36097249 0
1.4597645 1.1571848 -0.36369073 0
1.5384811 1.1380664 -0.36453041 0
1.6633431 1.1583321 -0.36767405 0
1.7523791 1.1475314 -0.36986816 0
1.8452237 1.1522321 -0.37124419 0
1.9500924 1.1414802 -0.37397063 0
2.0643227 1.1495317 -0.37522978 0
2.1649292 1.165192 -0.37683263 0
2.2567284 1.1462399 -0.37959084 0
2.3675787 1.1461632 -0.38170904 0
2.4744205 1.1761075 -0.38345152 0
2.5575333 1.1637067 -0.38570824 0
2.6567144 1.1480823 -0.38936943 0
2.7563138 1.1445913 -0.38862556 0
2.8489914 1.1595631 -0.39134386 0
2.9589722 1.1598682 -0.39397639 0
3.0203538 1.1047604 -0.39521575 0
-1.5471388 1.2692149 -0.30202702 0
-1.4381931 1.2555672 -0.30316988 0
-1.3363097 1.2484416 -0.30632916 0
-1.2500304 1.2403095 -0.30696738 0
-1.1517988 1.2524014 -0.3082009 0
-1.0416881 1.2382896 -0.31160405 0
-0.96101177 1.264987 -0.31187537 0
-0.84644347 1.2500447 -0.31615824 0
-0.7528612 1.2479697 -0.31652531 0
-0.64591485 1.2442142 -0.32015952 0
-0.55273992 1.2577454 -0.32220313 0
-0.45429939 1.2620505 -0.32186344 0
-0.35641354 1.2517087 -0.32580808 0
-0.2429626 1.2661389 -0.32755181 0
-0.14626427 1.2494179 -0.32999197 0
-0.047113411 1.2570556 -0.33032146 0
0.045492928 1.253199 -0.33366695 0
0.14744785 1.2421632 -0.33524156 0
0.24731576 1.2523704 -0.33773285 0
0.34443879 1.253284 -0.33941302 0
0.43988365 1.2508008 -0.34178811 0
0.55684793 1.2514882 -0.34314978 0
0.64099991 1.2504929 -0.34510848 0
0.7585839 1.266547 -0.34797925 0
0.84914148 1.2486615 -0.35052058 0
0.94746685 1.2280436 -0.35264102 0
1.0462608 1.2479111 -0.35371223 0
1.1578506 1.2481449 -0.35706949 0
1.2550044 1.2415321 -0.36014506 0
1.3655589 1.2539771 -0.36085653 0
1.43929 1.2436222 -0.36137962 0
1.5572288 1.2405276 -0.36439127 0
1.6504415 1.245653 -0.36699024 0
1.7452705 1.2527379 -0.36876914 0
1.8503227 1.2495122 -0.37058678 0
1.9665788 1.2590915 -0.37358269 0
2.0405135 1.2380002 -0.37547028 0
2.1266143 1.2447455 -0.37739879 0
2.243093 1.2490788 -0.37822503 0
2.3359208 1.2358637 -0.38068473 0
2.4449668 1.2711906 -0.38254097 0
2.5400298 1.2521245 -0.38466397 0
2.6492584 1.2359354 -0.3869884 0
2.7529266 1.2365791 -0.38953725 0
2.8504431 1.2560704 -0.39202231 0
2.9458559 1.2564783 -0.39363471 0
-1.5497742 1.347288 -0.30085999 0
-1.444918 1.3562335 -0.30407217 0
-1.3532022 1.3503315 -0.30438966 0
-1.2513164 1.3451235 -0.30596685 0
-1.1482711 1.3458465 -0.30781648 0
-1.0480884 1.3450223 -0.31010231 0
-0.9358145 1.3392847 -0.31367496 0
-0.85268718 1.3620445 -0.3142215 0
-0.75549525 1.3388538 -0.31536022 0
-0.64674342 1.3483278 -0.31837314 0
-0.54672211 1.3573484 -0.32043558 0
-0.45255014 1.3351468 -0.32261011 0
-0.34820592 1.35188 -0.32615301 0
-0.25493121 1.3748463 -0.3271296 0
-0.1537613 1.3534096 -0.32925877 0
-0.055725966 1.3480213 -0.33012387 0
0.050976433 1.3457408 -0.33332247 0
0.1493057 1.34218 -0.33517221 0
0.24592832 1.3474575 -0.3375715 0
0.35143957 1.3535944 -0.33892331 0
0.45368472 1.365154 -0.33996749 0
0.54263341 1.3723917 -0.34329677 0
0.6455186 1.3456262 -0.34566709 0
0.72962546 1.3413956 -0.34787792 0
0.8462733 1.3444055 -0.34994751 0
0.93985099 1.354207 -0.35182792 0
1.0451299 1.3491628 -0.35428411 0
1.1550223 1.3577542 -0.35504144 0
1.2507821 1.3514189 -0.3583827 0
1.3479694 1.3446363 -0.36157098 0
1.4614334 1.36535 -0.36229193 0
1.5575283 1.3424947 -0.36374801 0
1.6438857 1.3289136 -0.36557737 0
1.7396858 1.3456026 -0.36771062 0
1.8635654 1.3649217 -0.37085488 0
1.9333035 1.3462528 -0.37133488 0
2.0446911 1.3385345 -0.37434056 0
2.1559672 1.3461534 -0.37701678 0
2.2670777 1.3487953 -0.37929109 0
2.3603652 1.3590856 -0.3803533 0
2.4665866 1.3504155 -0.38252151 0
2.5713801 1.3604362 -0.38498795 0
2.6517835 1.3468823 -0.38574854 0
2.7556725 1.3504215 -0.38839057 0
2.8494167 1.3461561 -0.39006981 0
2.9116359 1.3080111 -0.39192104 0
-1.6154138 1.4454855 -0.30004057 0
-1.5281882 1.4277616 -0.30148655 0
-1.4568763 1.4621066 -0.30100286 0
-1.3499128 1.4485482 -0.30384156 0
-1.2519352 1.4505506 -0.30441454 0
-1.1472647 1.4295827 -0.30746436 0
-1.0441459 1.4506927 -0.30946922 0
-0.94593936 1.442861 -0.31228906 0
-0.85040551 1.4649405 -0.31325895 0
-0.74562597 1.4286305 -0.31456569 0
-0.65061235 1.4742202 -0.31647968 0
-0.55642033 1.4408232 -0.31949183 0
-0.44406044 1.4510739 -0.32224989 0
-0.35224539 1.4415718 -0.32529566 0
-0.24899805 1.4664125 -0.32629728 0
-0.15317723 1.4407185 -0.32878163 0
-0.051753394 1.4390972 -0.32864004 0
0.044374239 1.4355687 -0.33181298 0
0.14712201 1.4437983 -0.33523381 0
0.25453025 1.436926 -0.3372578 0
0.35243002 1.4418206 -0.33862004 0
0.43806916 1.4344472 -0.34053957 0
0.55176347 1.4596907 -0.34341663 0
0.6580717 1.4508799 -0.34515619 0
0.74776798 1.4506681 -0.34789363 0
0.85669136 1.4440264 -0.34856728 0
0.94816333 1.4595402 -0.35154739 0
1.0607846 1.4592854 -0.35302281 0
1.1485864 1.4366264 -0.35579917 0
1.248168 1.4460449 -0.35632169 0
1.3498166 1.4551303 -0.35942972 0
1.4534166 1.4585242 -0.36217085 0
1.5339855 1.4331399 -0.36285517 0
1.6392456 1.4457346 -0.36477521 0
1.766396 1.4560789 -0.3669841 0
1.8383353 1.4431012 -0.36839029 0
1.9531814 1.4448233 -0.37191868 0
2.0680826 1.4401002 -0.37365761 0
2.1676867 1.4637769 -0.37604916 0
2.2598341 1.4490184 -0.37833664 0
2.3557706 1.4476779 -0.38045925 0
2.4532707 1.4439822 -0.38224092 0
2.5479062 1.4510742 -0.38330618 0
2.6416571 1.4546424 -0.38557443 0
2.728353 1.4434844 -0.38785675 0
2.8172197 1.4392745 -0.38844812 0
-1.5838659 1.5010651 -0.30031529 0
-1.446154 1.5514418 -0.30135536 0
-1.3514786 1.5658953 -0.30199254 0
-1.242463 1.5433966 -0.30514824 0
-1.1452492 1.5509511 -0.30713078 0
-1.0509429 1.5442615 -0.30923429 0
-0.94769239 1.5544904 -0.31084409 0
-0.85689187 1.5519137 -0.31256035 0
-0.75751007 1.5426331 -0.31402424 0
-0.64045221 1.5511583 -0.31671658 0
-0.54515928 1.5414842 -0.31943995 0
-0.45123082 1.5690743 -0.32053405 0
-0.35455301 1.5462698 -0.32458311 0
-0.24985212 1.5382464 -0.32551411 0
-0.15129945 1.5615885 -0.32757446 0
-0.056645043 1.5560439 -0.32903868 0
0.049778633 1.5449494 -0.33149701 0
0.15034695 1.5518328 -0.33408976 0
0.24566868 1.5442988 -0.3364161 0
0.3478848 1.5533186 -0.33890733 0
0.45048356 1.5509977 -0.33927166 0
0.55414104 1.5317799 -0.34249085 0
0.64562225 1.5616455 -0.34439912 0
0.75556815 1.5466013 -0.34695467 0
0.85339206 1.5646087 -0.34867632 0
0.94939947 1.5323894 -0.35044548 0
1.0359255 1.5458233 -0.35247296 0
1.1523894 1.5460691 -0.35448527 0
1.2569406 1.5436387 -0.35674936 0
1.3489774 1.5584646 -0.35839561 0
1.4573605 1.5623053 -0.36087385 0
1.5503378 1.5337328 -0.36318007 0
1.6570903 1.570502 -0.36434993 0
1.7300298 1.525864 -0.36634201 0
1.8401079 1.5538809 -0.36860758 0
1.9562593 1.5583661 -0.37061116 0
2.0415523 1.5562328 -0.37257168 0
2.1353018 1.5481334 -0.37473571 0
2.2459984 1.5483313 -0.37702313 0
2.3409793 1.5325078 -0.37941739 0
2.4431584 1.5499495 -0.38155648 0
2.5440109 1.563282 -0.38349411 0
2.6611114 1.5576048 -0.38527286 0
2.7578595 1.5355712 -0.38760075 0
-1.4221406 1.6477311 -0.30013558 0
-1.3472174 1.6540082 -0.30181816 0
-1.2420018 1.656683 -0.30472425 0
-1.1484089 1.6619151 -0.30563253 0
-1.0452875 1.6348618 -0.30812067 0
-0.95452452 1.6675472 -0.31019503 0
-0.84776831 1.6448575 -0.3124817 0
-0.75436538 1.6503942 -0.31479159 0
-0.65018117 1.6554447 -0.3167538 0
-0.55760926 1.6382751 -0.31798604 0
-0.44650924 1.654892 -0.32250038 0
-0.34640166 1.6268349 -0.32411021 0
-0.24673876 1.6393489 -0.32547772 0
-0.14879772 1.6597581 -0.3264406 0
-0.053928241 1.672977 -0.32847616 0
0.034777861 1.6790426 -0.33011928 0
0.14878407 1.6583233 -0.33316886 0
0.25387469 1.6766955 -0.33465439 0
0.36058858 1.6627678 -0.33830175 0
0.44398355 1.6614945 -0.33865377 0
0.54049289 1.6531605 -0.34210697 0
0.64943445 1.6464045 -0.34409636 0
0.75778872 1.6344508 -0.34606522 0
0.84482789 1.6682732 -0.34791896 0
0.95510197 1.6451632 -0.34958819 0
1.0507413 1.6481669 -0.35235316 0
1.1596491 1.6526539 -0.35383794 0
1.2599486 1.6407942 -0.35625747 0
1.3701488 1.6581702 -0.35848889 0
1.4706076 1.6632723 -0.36007079 0
1.5545712 1.6601384 -0.36221769 0
1.6367222 1.6377947 -0.36415979 0
1.7480506 1.6330124 -0.36586037 0
1.8526115 1.657614 -0.36777246 0
1.9717369 1.6651772 -0.37008423 0
2.0694234 1.6565756 -0.37306607 0
2.1550081 1.6180836 -0.37518585 0
2.2370713 1.6548289 -0.37624881 0
2.358489 1.6423216 -0.37868592 0
2.4610922 1.661921 -0.38112381 0
2.5790498 1.662202 -0.3836081 0
2.6483927 1.6450624 -0.38524553 0
2.7026844 1.6080357 -0.38614234 0
-1.408731 1.781395 -0.30128571 0
-1.3334123 1.7366995 -0.30278257 0
-1.2499856 1.7633528 -0.30367681 0
-1.1490334 1.7689629 -0.30541286 0
-1.0583886 1.7362702 -0.30751574 0
-0.94413668 1.7304137 -0.31013194 0
-0.85760254 1.755706 -0.31254563 0
-0.74557799 1.7423332 -0.31369764 0
-0.65005147 1.7577693 -0.31565785 0
-0.54691273 1.7425045 -0.31834635 0
-0.44383028 1.7609593 -0.32084155 0
-0.35497528 1.7438242 -0.32267526 0
-0.25614876 1.7338631 -0.32467455 0
-0.15687649 1.75021 -0.32595912 0
-0.056961622 1.7675852 -0.32817051 0
0.056372136 1.7574016 -0.33129147 0
0.1430341 1.7338886 -0.33291608 0
0.25338519 1.7343888 -0.33552429 0
0.34785461 1.7444222 -0.33789876 0
0.4487569 1.7450086 -0.33986852 0
0.55105692 1.7554957 -0.34193099 0
0.63963813 1.7294984 -0.34279877 0
0.73922759 1.7690403 -0.34448156 0
0.85448074 1.7489197 -0.34716249 0
0.95183629 1.7532904 -0.34885097 0
1.0506968 1.7514329 -0.35141191 0
1.1528716 1.7472572 -0.35333458 0
1.2544911 1.7344559 -0.35483861 0
1.3559608 1.7725953 -0.35658628 0
1.4391093 1.7416003 -0.35979047 0
1.5337193 1.7515246 -0.36084461 0
1.6580521 1.7370157 -0.36400622 0
1.7596351 1.7408543 -0.36598194 0
1.8474118 1.7760468 -0.36702132 0
1.9370788 1.7418095 -0.36905518 0
2.0426319 1.7502475 -0.37119114 0
2.1486318 1.7369919 -0.3738344 0
2.257122 1.7457902 -0.37576115 0
2.3491623 1.7553043 -0.3783038 0
2.4393716 1.751056 -0.37900746 0
2.5452256 1.7454624 -0.38251734 0
2.6157906 1.712496 -0.38388538 0
-1.3494641 1.843626 -0.30138344 0
-1.2421303 1.8535514 -0.30325615 0
-1.1582702 1.8698684 -0.30455399 0
-1.0530804 1.8443882 -0.30685684 0
-0.94866121 1.8341217 -0.30958861 0
-0.8384881 1.848731 -0.31274247 0
-0.74495488 1.8270613 -0.31350988 0
-0.6579197 1.8604603 -0.31445059 0
-0.54972571 1.8520721 -0.31822616 0
-0.45979232 1.851758 -0.31955469 0
-0.3481411 1.8553814 -0.32108644 0
-0.24797185 1.8476667 -0.3242633 0
-0.15922943 1.8482211 -0.32528701 0
-0.059501082 1.8465018 -0.32788515 0
0.046633229 1.857759 -0.32966697 0
0.15383083 1.8647504 -0.33191556 0
0.24638128 1.8498671 -0.33451504 0
0.34337628 1.8600991 -0.33643365 0
0.45121959 1.8461505 -0.33819309 0
0.53745562 1.8512708 -0.34018034 0
0.65062648 1.8395605 -0.34278333 0
0.75091088 1.8644831 -0.34344265 0
0.84754425 1.8336235 -0.34638247 0
0.94171095 1.8596282 -0.34782806 0
1.049368 1.8377768 -0.35040858 0
1.1525528 1.8646557 -0.35300499 0
1.245381 1.8469555 -0.35403478 0
1.330785 1.8342278 -0.35630482 0
1.4418513 1.8501374 -0.35832477 0
1.54892 1.8561498 -0.36088657 0
1.6582727 1.8398006 -0.36272889 0
1.7663976 1.8505176 -0.36568895 0
1.8705127 1.8772539 -0.36741054 0
1.9424644 1.8499179 -0.36858001 0
2.0350759 1.8472921 -0.37019864 0
2.1600444 1.8508471 -0.37315202 0
2.2600567 1.845044 -0.3762463 0
2.3403344 1.8371739 -0.37724242 0
2.4561975 1.8442464 -0.37974942 0
2.5153697 1.8056098 -0.38018197 0
-1.428853 1.9755603 -0.30023184 0
-1.3424356 1.942553 -0.30051115 0
-1.24979 1.9539986 -0.30280274 0
-1.1374693 1.9593544 -0.30370098 0
-1.0410038 1.9508338 -0.30618951 0
-0.93886966 1.9219598 -0.30924365 0
-0.83541089 1.9598252 -0.31130493 0
-0.74326152 1.9246689 -0.31249022 0
-0.64295101 1.9401808 -0.31514508 0
-0.54794014 1.93804 -0.31813067 0
-0.44676277 1.9485431 -0.318737 0
-0.35719451 1.966897 -0.31905013 0
-0.24635884 1.9570322 -0.32460392 0
-0.14723875 1.95342 -0.32550105 0
-0.048216671 1.9249549 -0.32754689 0
0.048608195 1.9365482 -0.32918662 0
0.14639135 1.9442663 -0.33133641 0
0.2446523 1.9426415 -0.33246815 0
0.34338394 1.938043 -0.33589208 0
0.44343203 1.9332852 -0.33787164 0
0.56581098 1.9486064 -0.34022161 0
0.64523417 1.9572141 -0.34167248 0
0.75267446 1.9488542 -0.34265262 0
0.84816962 1.9605528 -0.34505656 0
0.94200444 1.9727905 -0.34653875 0
1.0413873 1.9380558 -0.34917894 0
1.1370094 1.9265959 -0.3523744 0
1.2497184 1.9541966 -0.35404205 0
1.3467922 1.929286 -0.35515925 0
1.4487873 1.9438312 -0.35771245 0
1.5551106 1.957009 -0.36048648 0
1.6436468 1.9320909 -0.36207965 0
1.7289649 1.9745053 -0.36298871 0
1.8331666 1.9388033 -0.36607525 0
1.932507 1.9394679 -0.36823899 0
2.0376697 1.9589626 -0.36993304 0
2.1492569 1.9509639 -0.37166828 0
2.261076 1.9564155 -0.37446746 0
2.3417706 1.9492314 -0.37661162 0
2.4149103 1.9238031 -0.3791095 0
-1.3362893 2.0507329 -0.30098823 0
-1.2685782 2.0607548 -0.30187368 0
-1.162253 2.0698473 -0.30252358 0
-1.0534946 2.0441928 -0.30547535 0
-0.95769209 2.0337632 -0.30795217 0
-0.84774804 2.0624385 -0.31010559 0
-0.75332063 2.0369706 -0.31165695 0
-0.64188421 2.0553043 -0.31518894 0
-0.54172027 2.0266383 -0.31776848 0
-0.45368338 2.045753 -0.31772387 0
-0.33518198 2.0438411 -0.31961113 0
-0.25558069 2.0309362 -0.32422742 0
-0.14879262 2.0414722 -0.32526177 0
-0.051193841 2.0447745 -0.32725134 0
0.051553171 2.0535176 -0.32851127 0
0.15520561 2.0608127 -0.33049509 0
0.24967547 2.054538 -0.33146757 0
0.35589403 2.0601134 -0.3346265 0
0.45545042 2.0533872 -0.33676264 0
0.54698235 2.0604289 -0.33925927 0
0.64463216 2.0536101 -0.34093085 0
0.74792141 2.0273428 -0.34233746 0
0.86753237 2.0395739 -0.34534588 0
0.95493555 2.0660002 -0.34690937 0
1.0461842 2.0296533 -0.34831789 0
1.1411874 2.0529332 -0.35065043 0
1.2503618 2.0510352 -0.35331872 0
1.3513991 2.0480464 -0.3553865 0
1.4534506 2.039988 -0.35731599 0
1.5402079 2.0565584 -0.35892057 0
1.6369435 2.0396779 -0.36126328 0
1.7570244 2.0653701 -0.36332104 0
1.8494921 2.0325763 -0.36530185 0
1.9609935 2.0543852 -0.3679353 0
2.0564954 2.0638962 -0.36989588 0
2.1549685 2.0518916 -0.37169743 0
2.245574 2.0383263 -0.37294957 0
-1.3420007 2.1663954 -0.30022988 0
-1.2314938 2.1213162 -0.30124995 0
-1.1499727 2.162401 -0.30218333 0
-1.0483538 2.146081 -0.30440319 0
-0.95667601 2.1500289 -0.30705851 0
-0.84978873 2.1544189 -0.30928183 0
-0.74500573 2.1555548 -0.31105793 0
-0.64506578 2.1631675 -0.31443331 0
-0.54969758 2.1426542 -0.31577694 0
-0.45729408 2.1339269 -0.31724957 0
-0.35101444 2.1621454 -0.31864256 0
-0.25608131 2.1321912 -0.32295591 0
-0.1452383 2.1339505 -0.32444057 0
-0.053816441 2.1499283 -0.32643259 0
0.038704213 2.156805 -0.32766792 0
0.14743599 2.1637449 -0.32959601 0
0.25655434 2.162071 -0.33106598 0
0.3477025 2.1403835 -0.33521074 0
0.44758153 2.1639137 -0.33626905 0
0.54296881 2.1539481 -0.33804488 0
0.63888663 2.1421196 -0.34036979 0
0.74926323 2.1184449 -0.34236884 0
0.85557175 2.1691198 -0.34279028 0
0.95925003 2.1559389 -0.34638581 0
1.0630598 2.137099 -0.34801453 0
1.1599461 2.1735983 -0.35024548 0
1.2629039 2.1399128 -0.35289785 0
1.3474857 2.1639283 -0.35425901 0
1.438107 2.1459725 -0.35623515 0
1.5426788 2.1652722 -0.35860592 0
1.6568136 2.126004 -0.36087966 0
1.7463832 2.176049 -0.36246458 0
1.8440881 2.1471379 -0.3644006 0
1.9388739 2.1510937 -0.36624381 0
2.0692749 2.1678357 -0.36937803 0
2.1378789 2.1270504 -0.37118718 0
-1.21398 2.2362001 -0.30004823 0
-1.1694586 2.26894 -0.30110526 0
-1.053342 2.2368147 -0.30359551 0
-0.96616447 2.2802911 -0.30639407 0
-0.8488428 2.2458632 -0.30850309 0
-0.74223614 2.250627 -0.31128478 0
-0.65377849 2.2508876 -0.31371555 0
-0.54436797 2.2611127 -0.31469434 0
-0.44341072 2.2238429 -0.31663096 0
-0.34900939 2.2512615 -0.31826329 0
-0.24495816 2.2565985 -0.32244864 0
-0.15975346 2.2496374 -0.32288167 0
-0.055939127 2.234673 -0.32564786 0
0.040225998 2.241894 -0.32713354 0
0.13682103 2.246021 -0.32852891 0
0.25058955 2.2495868 -0.33087742 0
0.36565936 2.2507088 -0.33367416 0
0.46497247 2.2480011 -0.33613074 0
0.56395072 2.237205 -0.33784199 0
0.66349167 2.2246239 -0.34030604 0
0.76610988 2.2376492 -0.34192175 0
0.85610443 2.2650917 -0.34320179 0
0.95945305 2.2418568 -0.34555969 0
1.0619301 2.2549255 -0.3475903 0
1.1479504 2.2668433 -0.34909537 0
1.2357246 2.2377312 -0.35141942 0
1.3482145 2.259558 -0.35302475 0
1.4544004 2.2388513 -0.35601163 0
1.5668805 2.2673435 -0.35789517 0
1.6409422 2.2349098 -0.36033514 0
1.7438816 2.2712257 -0.36149007 0
1.8563523 2.262759 -0.36429611 0
1.9610622 2.2395012 -0.36586466 0
2.0425096 2.2020512 -0.36895299 0
-1.2303677 2.3458483 -0.30049157 0
-1.1394259 2.3612132 -0.30148694 0
-1.0609875 2.3396113 -0.30316985 0
-0.93401337 2.3378196 -0.30667078 0
-0.84483886 2.3535175 -0.30777213 0
-0.75401294 2.3427851 -0.31078824 0
-0.64371127 2.3411591 -0.3126291 0
-0.54365116 2.3710482 -0.31405017 0
-0.45081127 2.3501105 -0.31545264 0
-0.36195585 2.334734 -0.31744805 0
-0.26427892 2.3728292 -0.32105002 0
-0.15292257 2.3686399 -0.32203874 0
-0.058534063 2.3378568 -0.3245607 0
0.033458319 2.3451831 -0.32608917 0
0.14200558 2.3311222 -0.32808891 0
0.24313325 2.3347571 -0.33030999 0
0.34545866 2.3368473 -0.33272421 0
0.4479053 2.3330529 -0.33525455 0
0.54998231 2.3217523 -0.33671188 0
0.65991312 2.3342597 -0.33946785 0
0.74158502 2.362536 -0.34080374 0
0.85327429 2.3587992 -0.34321699 0
0.96328241 2.3430133 -0.3446539 0
1.0646093 2.361984 -0.34625736 0
1.1516325 2.3574724 -0.34868258 0
1.2418107 2.3270004 -0.35112157 0
1.3470392 2.3589132 -0.35276332 0
1.464973 2.3275321 -0.35536468 0
1.5588751 2.3505564 -0.35772702 0
1.6563621 2.3248036 -0.36012957 0
1.7510955 2.3706417 -0.36195552 0
