# .PCD v0.7 - Point Cloud Data file format
VERSION 0.7
FIELDS x y z intensity
SIZE 4 4 4 4
TYPE F F F F
COUNT 1 1 1 1
WIDTH 206
HEIGHT 1
VIEWPOINT 0 0 0 1 0 0 0
POINTS 206
DATA ascii
-46.376339 14.414396 5.961453 11
-44.03447 -5.0760756 2.3211954 9
-44.189491 -3.8133273 3.8791039 10
-44.03233 -5.0762258 5.4402695 11
-43.957909 -5.7070808 0.77168065 8
-43.890121 -6.3406882 7.0208254 12
-43.95768 -5.7081714 8.6136389 13
-41.676735 -24.457903 0.82416296 8
-41.67667 -24.458776 2.5128589 9
-41.680222 -24.461782 4.2080898 10
-41.667439 -24.455198 5.9116683 11
-41.66806 -24.456491 7.6313167 12
-22.087591 4.4973235 0.39323965 8
-22.088863 4.4977717 1.1813229 9
-22.08663 4.4975061 1.9720759 10
-22.081875 4.4967299 2.7672024 11
-22.094225 4.4994373 3.5716043 12
-22.081959 4.4971347 4.3809576 13
-21.834848 2.5173144 1.9232488 10
-21.616299 0.62039906 0.37753826 8
-21.627201 0.62073797 1.13399 9
-21.620317 0.62056667 1.8924228 10
-21.633923 0.62098318 2.6575372 11
-21.626804 0.62080532 3.4269137 12
-21.626434 0.62082154 4.2056599 13
-21.780895 1.8799692 5.0477571 14
-21.780535 1.8800201 5.8583932 15
-20.857615 -5.5070863 0.37387353 8
-20.881203 -5.5135283 1.1289805 9
-20.881716 -5.5138769 1.8864754 10
-20.84984 -5.8267255 2.6545994 11
-20.8874 -5.5158067 3.4181795 12
-20.876524 -5.5131512 4.1934199 13
-20.633448 -7.3956189 0.37831631 8
-20.634417 -7.3962469 1.1442595 9
-20.638287 -7.3984871 3.46717 12
-20.713724 -6.762373 5.0253372 14
-20.72374 -6.7659168 5.835866 15
-20.407522 -9.3637333 0.38564083 8
-20.409464 -9.3649778 1.1702766 9
-20.400038 -9.3610029 1.9568425 10
-20.413891 -9.3677216 2.7506354 11
-20.408791 -9.3657389 3.5490305 12
-20.224646 22.87945 2.6535096 10
-20.397978 -9.3611374 4.3546872 13
-19.70933 22.955194 4.7740941 12
-19.732018 22.984243 6.9761271 14
-19.736341 22.990623 8.101634 15
-19.192112 23.012259 3.6605151 11
-18.825006 -25.347864 1.6241179 9
-18.701691 23.093287 5.757618 13
-18.769835 -25.277987 7.2351637 14
-18.774845 -25.285679 8.4041948 15
-18.396542 -25.528147 2.7213175 10
-18.39633 -25.528749 3.8314455 11
-18.388355 -25.518564 4.9489908 12
-18.39892 -25.534161 6.0841169 13
-18.166664 23.096823 0.49199426 8
-18.178156 23.112747 1.5205691 9
-16.305412 23.386719 6.5610251 14
-15.828399 23.406652 2.4495368 10
-15.40207 23.50407 7.5077233 15
-15.3738 23.450716 0.46552613 8
-15.380755 23.46563 3.4222701 11
-14.934956 23.512606 1.4358349 9
-14.507297 23.585615 4.3622112 12
-13.644638 23.683464 5.2886448 13
-13.218586 23.720844 2.3501301 10
-12.806632 23.780279 3.290484 11
-12.819829 23.809608 6.2177243 14
-12.819291 23.81028 7.2205997 15
-12.380603 23.797354 0.44072333 8
-11.178496 23.956409 1.3567845 9
-11.184278 23.97389 4.1621661 12
-10.395691 24.063164 3.1893852 11
-9.9987268 24.083788 0.42447522 8
-9.6192884 24.147299 2.2435617 10
-9.6314192 24.185179 5.9801078 14
-9.6342993 24.19433 6.9479189 15
-9.2428865 24.214039 5.0074258 13
-4.2686286 16.762001 0.27688074 8
-4.2714467 16.774593 0.88248378 9
-4.2734971 16.784185 1.4908844 10
-4.2733426 16.785191 2.1025639 11
-4.2755122 16.795277 2.7209878 12
-4.2764368 16.800528 3.3459883 13
-4.2779799 16.808222 3.9804187 14
-4.2761149 16.802631 4.6219945 15
-2.5446532 16.981808 0.27185014 8
-2.5428972 16.972422 0.87184674 9
-2.5429523 16.974991 1.4743489 10
-2.5443039 16.986124 2.0817049 11
-2.5465131 17.002945 2.6959128 12
-2.5463412 17.004076 3.3150146 13
-2.54774 17.015608 3.9449949 14
-2.5481687 17.020773 4.5842457 15
-1.2262164 25.187719 5.7766628 14
-0.5045945 25.216425 0.39444309 8
-0.504107 25.240213 3.0539742 11
-0.50371283 25.2862 6.7294192 15
-0.3017976 25.323334 4.1525445 12
0.063832149 25.368977 2.3601377 10
0.42630827 25.427725 6.0163689 14
0.79669964 25.466095 1.4763246 9
0.7945056 25.480925 5.0994034 13
1.1659495 25.515623 0.58723718 8
1.3620665 -7.7099261 1.5103768 13
1.4742934 -7.6981888 1.2297018 12
1.5353321 25.572273 3.2880738 11
1.5336713 25.580807 7.0155249 15
2.719739 -7.5209808 1.544215 13
2.6611006 25.717607 2.4047911 10
2.6614125 25.726629 4.2412343 12
2.9688158 -11.0546 1.3865932 11
3.0429139 25.789707 6.1441565 14
3.8105273 25.869053 0.59921741 8
3.8114719 25.879166 5.2323723 13
3.8111057 25.878349 7.1611643 15
4.5183716 -7.3969917 1.3630717 12
4.5933919 25.978754 3.3846478 11
5.3025908 -7.2014923 1.4076142 12
5.388082 26.075699 1.5395068 9
5.394907 26.104013 6.3058891 14
5.9874525 -3.0859675 0.82984531 11
5.9859452 -3.0860038 1.0713477 12
6.0187478 -3.0987992 -0.12310259 7
6.0018792 -3.0909605 0.1148541 8
6.0147166 -3.0983295 0.35350591 9
6.1590862 -3.0614238 0.60280567 10
6.1258774 -4.1125722 1.169752 12
6.0168834 -3.1026781 1.32248 13
6.0019383 -3.0958486 1.567647 14
6.1221571 -4.1127601 1.9825208 15
6.0022125 -3.0968342 1.8201942 15
6.2486444 -5.0232592 0.13177593 8
6.2451315 -5.0213675 0.41342694 9
6.250464 -5.0265436 0.69678396 10
6.2501626 -5.0272241 0.98149335 11
6.2503304 -5.0282893 1.2687359 12
6.2593689 -5.0374107 1.8562233 14
6.2472644 -5.0287013 2.1517305 15
6.6228065 26.264477 7.4142075 15
7.0324221 26.295439 2.527539 10
7.0333858 26.297255 3.4898994 11
7.0343537 26.299076 4.4610453 12
7.4554415 26.355545 0.6227991 8
7.8877583 26.415642 5.5110321 13
7.8965812 26.442673 6.5262733 14
10.112639 26.703117 0.64451921 8
10.113416 26.702456 1.6435182 9
10.119182 26.712103 3.6574728 11
10.583063 26.769531 2.6672196 10
10.586573 26.772635 4.7125449 12
10.590584 26.776859 6.8060493 14
11.148118 11.338352 0.34172416 8
11.176455 11.043384 0.88795835 9
11.126998 11.312927 1.4561528 10
11.061588 11.909819 2.0687842 11
11.065994 11.91238 2.6505263 12
11.136449 11.31613 3.161067 13
11.1439 11.321478 3.7452064 14
11.325549 9.9661121 2.4552763 12
11.25662 10.488418 4.1991606 15
11.419318 9.2137775 0.30945718 8
11.416827 9.2098522 0.82409543 9
11.512231 8.4919367 1.305593 10
11.449103 8.9633007 1.8439575 11
11.415177 9.2006702 2.9146957 13
11.417253 9.2003069 3.4527421 14
11.514867 8.484086 3.8995948 15
11.546939 26.904505 5.8472476 13
11.548236 26.901175 8.0069714 15
11.742342 6.7324657 0.27738294 8
11.742741 6.7308979 0.75268108 9
11.666936 7.3708801 1.7455424 11
11.771736 6.5186248 2.1809089 12
11.603044 7.804985 2.2704504 12
11.71903 6.9360986 2.7012975 13
11.749709 6.7237821 3.6864243 15
11.933046 5.3214493 1.1822798 10
12.183068 3.4438472 0.24697934 8
12.006378 4.7462983 0.25716135 8
12.031181 4.5444584 3.4952569 15
12.347276 2.3606148 0.24078634 8
12.343225 2.3582196 0.68233448 9
12.34833 2.3575466 1.1260628 10
12.347073 2.3556621 1.5720924 11
12.355196 2.3538525 2.4787552 13
12.289193 2.7093236 2.9435351 14
12.31404 2.5272934 3.4085829 15
12.432879 1.8167058 2.0191247 12
13.033632 27.089603 1.7244915 9
13.555961 27.163387 2.8070261 10
13.552734 27.153564 3.8792527 11
13.564657 27.173851 4.9658623 12
13.569065 27.175627 7.1741471 14
14.075289 27.222748 0.68328679 8
14.974607 -16.021666 4.2357898 13
19.61611 -51.282879 2.7740252 9
21.480171 -49.637264 0.84226471 8
26.212482 -45.445114 0.82022721 8
26.208693 -45.444351 2.6546116 9
35.563419 -5.6456451 0.63463002 8
35.643848 -6.1893005 1.9024966 9
35.625282 -6.2041473 7.0447488 13
35.636063 -6.2106729 8.3692684 14
