# .PCD v0.7 - Point Cloud Data file format
VERSION 0.7
FIELDS x y z intensity
SIZE 4 4 4 4
TYPE F F F F
COUNT 1 1 1 1
WIDTH 1403
HEIGHT 1
VIEWPOINT 0 0 0 1 0 0 0
POINTS 1403
DATA ascii
-30.028097 21.29826 4.5204763 11
-30.044096 21.30982 5.8343959 12
-30.045048 21.310709 7.1607323 13
-30.046665 21.312075 8.505477 14
-29.246582 21.380749 0.63191545 8
-29.256741 21.388388 1.8990691 9
-29.263428 21.393482 3.1713808 10
-29.281332 21.406784 4.4537849 11
-29.276865 21.403734 5.7444096 12
-29.286547 21.41103 7.0524149 13
-29.301222 21.42198 8.380578 14
-28.518812 21.483448 0.62270719 8
-28.53351 21.494734 1.8718785 9
-28.536263 21.497025 3.1256189 10
-28.548546 21.506489 4.3887563 11
-28.563839 21.518229 5.6644578 12
-28.562178 21.5172 6.9515758 13
-28.583164 21.53323 8.2626925 14
-27.820496 21.590136 0.61407828 8
-27.816116 21.586958 1.8448721 9
-27.835878 21.60251 3.0824726 10
-27.842068 21.607533 4.3273091 11
-27.851023 21.614708 5.5839801 12
-27.856289 21.619019 6.8545265 13
-27.865305 21.626244 8.1440105 14
-27.87192 21.631607 9.4544554 15
-27.124279 21.680647 0.60543132 8
-27.138062 21.691887 1.8202814 9
-27.142731 21.695839 3.0398085 10
-27.144497 21.697474 4.2667809 11
-27.160809 21.710741 5.5074363 12
-27.17836 21.724995 6.7636762 13
-27.176439 21.723694 8.0329199 14
-27.194416 21.738295 9.3294592 15
-26.462349 21.781269 0.5974853 8
-26.47942 21.795542 1.7968174 9
-26.471525 21.789274 2.999275 10
-26.481712 21.79789 4.2112689 11
-26.489079 21.804184 5.4340572 12
-26.509953 21.82159 6.6745248 13
-26.41576 -0.37901261 7.0786672 15
-26.503515 21.81653 7.9256945 14
-26.514507 21.825819 9.202672 15
-26.045578 -0.37369362 0.45459613 8
-26.10331 -0.37452304 1.368071 9
-26.159508 -0.37533039 2.2888017 10
-26.181902 -0.37565282 3.2149606 11
-26.275896 -0.37700248 4.1620083 12
-26.322718 -0.37767541 5.117022 13
-26.3666 -0.37830612 6.0877042 14
-25.733116 -6.4017291 0.46184742 8
-25.811392 21.87438 0.58972633 8
-25.665503 -6.3849401 1.3849407 9
-25.823881 21.885189 1.7733817 9
-25.621935 -6.3741331 2.3087091 10
-25.833757 21.893793 2.9622321 10
-25.846008 21.904402 4.1596656 11
-25.836367 21.896467 5.3640037 12
-25.858257 21.915253 6.5888929 13
-25.852228 21.910391 7.8241043 14
-25.862865 21.919645 9.0847006 15
-25.581034 -6.3639913 3.2353294 11
-25.469501 -6.3362746 4.1554465 12
-25.417189 -6.3232942 5.0895844 13
-25.210592 21.995565 5.2990084 12
-25.361126 -6.3093791 6.031806 14
-25.216866 22.001282 6.5051861 13
-25.303474 -6.2950706 6.9848342 15
-25.220842 22.004997 7.7277408 14
-25.233494 22.016279 8.9736357 15
-25.170963 21.960056 0.58214432 8
-25.186005 21.97341 1.7509683 9
-25.182323 21.970436 2.92331 10
-25.199793 21.98591 4.1059494 11
-24.550434 22.047169 0.5749594 8
-24.567089 22.062359 1.7296876 9
-24.56473 22.060488 2.8879902 10
-24.581659 22.075922 4.0563622 11
-24.596754 22.089716 5.2360096 12
-24.600132 22.092995 6.4271541 13
-24.604059 22.096775 7.6350784 14
-24.60512 22.097979 8.8619871 15
-24.035734 2.7706077 0.42254007 8
-24.078241 3.1261299 0.42405471 8
-24.144354 3.4876149 0.4260771 8
-24.032253 2.7702267 1.2680838 9
-24.08692 3.1272788 1.2732331 9
-24.135811 3.4864051 1.2783566 9
-24.034292 2.7704813 2.1169701 10
-24.088102 3.127455 2.1254778 10
-24.131907 3.485867 2.133569 10
-24.030022 2.7700095 2.9704237 11
-24.083229 3.1268454 2.9822803 11
-24.118685 3.4839828 2.9925909 11
-24.013313 2.7681036 3.828943 12
-24.069422 3.1250749 3.8446901 12
-24.127035 3.4852138 3.8615274 12
-24.02598 2.7695842 4.701581 13
-24.063826 3.1243718 4.7173276 13
-24.183331 3.8483298 4.7605457 13
-24.01956 2.7688646 5.5826058 14
-24.081476 3.1266863 5.6069064 14
-24.115919 3.4836607 5.6260428 14
-24.186138 3.8488052 5.654779 14
-24.018364 2.768748 6.4789085 15
-24.072832 3.1255877 6.505096 15
-24.122749 3.4846737 6.5314879 15
-24.168402 3.8460121 6.5581756 15
-24.003511 22.188286 8.7590418 15
-23.66494 0.16994016 0.41308084 8
-23.727161 0.68095928 0.41436985 8
-23.779156 1.0240051 0.41552511 8
-23.822014 1.3684484 0.41660604 8
-23.928116 2.0646517 0.41938335 8
-23.962563 2.4143965 0.42057732 8
-23.961639 22.147846 0.56846195 8
-23.635927 6.5607674e-05 1.2386732 9
-23.726971 0.68095905 1.2440417 9
-23.777935 1.0239604 1.2473958 9
-23.832352 1.3690522 1.2511902 9
-23.881723 1.7159185 1.2549818 9
-23.942112 2.0658746 1.2596174 9
-23.983612 2.4165342 1.2635274 9
-23.957735 22.144482 1.7088971 9
-23.682823 0.33980799 2.072207 10
-23.726093 0.68093944 2.0766828 10
-23.775455 1.0238612 2.0821211 10
-23.836584 1.3693051 2.0890248 10
-23.880465 1.7158407 2.0948546 10
-23.929081 2.064765 2.1015429 10
-23.980513 2.4162395 2.1089263 10
-23.684944 0.33984163 2.9084651 11
-23.734524 0.68118685 2.9155095 11
-23.782639 1.0241783 2.922977 11
-23.824593 1.3686267 2.9302964 11
-23.873903 1.7153817 2.9391356 11
-23.922455 2.064208 2.9485016 11
-23.981419 2.4163475 2.9597828 11
-23.97481 22.1605 2.855649 10
-23.681238 0.33979177 3.7511518 12
-23.727356 0.68098658 3.7596798 12
-23.778219 1.0239958 3.7697392 12
-23.83444 1.3692024 3.7814357 12
-23.882 1.715976 3.7925529 12
-23.931873 2.0650358 3.8048403 12
-23.965996 2.4148116 3.815433 12
-23.972942 22.159023 4.0079026 11
-23.665541 7.0171875e-05 4.6000767 13
-23.723269 0.68087506 4.6133361 13
-23.780449 1.0240997 4.626904 13
-23.818218 1.3682811 4.637661 13
-23.885447 1.7162365 4.655129 13
-23.923843 2.0643585 4.6679645 13
-23.973522 2.4155879 4.6839972 13
-23.970804 22.157299 5.1698508 12
-23.687775 0.16999312 5.4690323 14
-23.71393 0.68061274 5.47716 14
-23.770994 1.0237007 5.4932404 14
-23.866669 1.7149004 5.5245919 14
-23.942783 2.0660076 5.5485678 14
-23.984138 2.4166753 5.56568 14
-23.994921 -41.524895 5.8769927 11
-23.714987 0.16994035 6.3547382 15
-23.740482 0.68138051 6.3639894 15
-23.776934 1.0239646 6.3771243 15
-23.977333 22.16358 6.3468242 13
-23.874683 1.7154893 6.4140639 15
-23.910259 2.0632176 6.4309859 15
-23.964201 2.4146852 6.4542208 15
-23.987268 -41.5116 7.5814934 12
-23.991159 22.176615 7.5428128 14
-23.361567 22.223389 0.56163931 8
-23.357798 22.220055 1.6885868 9
-23.268475 -26.277021 3.0638883 10
-23.371601 22.233427 2.8214326 10
-23.378187 22.239943 3.9613433 11
-23.253685 -26.260365 4.2996435 11
-23.385099 22.246767 5.1117887 12
-23.243912 -26.249371 5.5456595 12
-23.572351 -42.178329 5.9208965 11
-23.390661 22.252312 6.2753496 13
-23.242418 -26.247732 6.8069143 13
-23.391081 22.252972 7.4537268 14
-23.57592 -42.184673 7.6417651 12
-23.23657 -26.241179 8.0837183 14
-23.424082 22.284616 8.6633539 15
-23.219423 -26.221859 9.3760796 15
-22.814285 22.335997 3.9196241 11
-22.811174 22.333208 5.0557995 12
-22.81834 22.340477 6.2071133 13
-22.831356 22.353487 7.3767691 14
-22.825512 22.348034 8.55966 15
-22.429623 -8.4052 0.41662976 8
-22.487202 -8.0609941 0.41558182 8
-22.52446 -7.7117057 0.41425529 8
-22.581049 -7.3710709 0.41337949 8
-22.636127 -7.0315208 0.41256818 8
-22.687906 -6.6924348 0.41178775 8
-22.721292 -6.3495774 0.41076493 8
-22.78755 22.309067 0.55538243 8
-22.430325 -8.4055052 1.2537189 9
-22.475254 -8.0567503 1.249722 9
-22.529016 -7.7133021 1.2465094 9
-22.58079 -7.3710227 1.2434738 9
-22.619143 -7.026279 1.2399844 9
-22.680147 -6.6901803 1.2380153 9
-22.72155 -6.3496819 1.23525 9
-22.796349 22.317932 1.6708896 9
-22.439623 -8.409029 2.0947299 10
-22.476673 -8.0572977 2.0872715 10
-22.521755 -7.7108545 2.081059 10
-22.57789 -7.3701119 2.0763483 10
-22.640915 -7.0330772 2.0727365 10
-22.678173 -6.6896315 2.0672321 10
-22.719599 -6.3491688 2.0625746 10
-22.799585 22.321352 2.7906771 10
-22.502998 -26.158531 3.0120289 10
-22.437927 -8.4084339 2.9401476 11
-22.495182 -8.0639734 2.9322858 11
-22.531225 -7.7141333 2.9223528 11
-22.576262 -7.3696175 2.9142754 11
-22.626308 -7.0285749 2.9075127 11
-22.69125 -6.6935234 2.9033108 11
-22.720541 -6.3494649 2.895195 11
-22.42934 -8.4052572 3.7915516 12
-22.485582 -8.0605698 3.7812264 12
-22.531326 -7.7142062 3.7700238 12
-22.58205 -7.3715429 3.7605314 12
-22.621374 -7.0270772 3.7500069 12
-22.673933 -6.6884484 3.742527 12
-22.7348 -6.3534827 3.7372422 12
-22.499403 -26.154398 4.2289238 11
-22.426319 -8.4041653 4.6529346 13
-22.479965 -8.0585976 4.6397147 13
-22.529819 -7.7137289 4.6267996 13
-22.567793 -7.3669276 4.6125302 13
-22.629417 -7.0296125 4.6041484 13
-22.683064 -6.6911764 4.5951672 13
-22.713535 -6.3475714 4.5825243 13
-22.490334 -26.143898 5.4545717 12
-22.431755 -8.4062424 5.5279441 14
-22.477425 -8.0577259 5.5102663 14
-22.532391 -7.7146482 5.4961643 14
-22.629894 -7.0297956 5.4687233 14
-22.683214 -6.691256 5.4579659 14
-22.749317 -6.1822448 5.440918 14
-22.464638 -8.0531826 6.3918633 15
-22.525356 -7.7122788 6.3771324 15
-22.630356 -7.0299759 6.3473835 15
-22.665932 -6.686193 6.3299317 15
-22.73476 -6.1783447 6.3109179 15
-22.484665 -26.13735 6.6938748 13
-22.418415 -8.4012861 6.4122148 15
-22.463181 -26.112413 7.9438963 14
-22.463003 -26.112259 9.2206535 15
-22.283426 -9.4621677 0.42086405 8
-22.327044 -9.105093 0.41925442 8
-22.380518 -8.7547779 0.41793284 8
-22.219063 22.386059 0.5492025 8
-22.278727 -9.4602118 1.2665902 9
-22.333393 -9.1077251 1.2622246 9
-22.370466 -8.7508831 1.2571782 9
-22.222681 22.389961 1.652131 9
-22.27685 -9.4594612 2.1153259 10
-22.325453 -9.1045284 2.1074133 10
-22.376743 -8.7533817 2.1002765 10
-22.221994 22.389526 2.7589386 10
-22.27887 -9.4603615 2.9696369 11
-22.327921 -9.1055794 2.9585588 11
-22.377831 -8.7538481 2.9483271 11
-22.268484 -9.4559956 3.8293219 12
-22.345816 -9.1129217 3.8198552 12
-22.378918 -8.7543154 3.8037603 12
-22.23781 22.405716 3.8753467 11
-22.271782 -9.4574404 4.700664 13
-22.325436 -9.1046524 4.6840558 13
-22.382074 -8.7555952 4.6692214 13
-22.233438 22.401577 4.9984179 12
-22.274023 -9.4584379 5.5838981 14
-22.31744 -9.1014328 5.5616031 14
-22.370716 -8.7511911 5.5431471 14
-22.222118 -9.8148136 5.6054802 14
-22.260958 22.429558 6.1423512 13
-22.218861 -9.8134212 6.5051126 15
-22.277073 -9.4597788 6.481894 15
-22.32333 -9.1038818 6.4568224 15
-22.36377 -8.7485189 6.4316888 15
-22.260538 22.429403 7.2955256 14
-22.272287 22.441509 8.4720392 15
-21.669289 22.468149 0.54342806 8
-21.669357 22.468479 1.6347046 9
-21.679756 22.479521 2.7313008 10
-21.77594 -26.059687 2.9642808 10
-21.689533 22.48992 3.8355672 11
-21.763445 -26.044769 4.1602035 11
-21.680031 22.480341 4.9459462 12
-21.757236 -26.037376 5.3665967 12
-21.701479 22.50284 6.0763879 13
-21.751526 -26.030586 6.5858669 13
-21.704493 22.506239 7.2183356 14
-21.741095 -26.018143 7.8194618 14
-21.707552 22.509687 8.3791809 15
-21.735126 -26.01104 9.0738153 15
-21.126125 22.543766 0.53776377 8
-21.130152 22.54833 1.6181777 9
-21.146631 22.56617 2.7045674 10
-21.074051 -25.967175 2.9189806 10
-21.151325 22.571451 3.797199 11
-21.060101 -25.950018 4.0963068 11
-21.144909 22.564878 4.897161 12
-21.040834 -25.9263 5.2808714 12
-21.156309 22.577309 6.0137711 13
-21.045958 -25.932653 6.4839678 13
-21.158398 22.579824 7.1436868 14
-21.040447 -25.925907 7.7001724 14
-21.164015 22.5861 8.2935772 15
-21.025547 -25.907578 8.931529 15
-20.592918 22.61684 0.53229606 8
-20.598803 22.623573 1.6020887 9
-20.600334 22.62553 2.6758611 10
-20.61178 22.638369 3.7581911 11
-20.617157 22.644833 5.9522071 13
-20.623306 22.651867 7.0719857 14
-20.637451 22.667683 8.2138014 15
-20.076303 22.695738 1.5865219 9
-20.089012 22.710379 2.6514122 10
-20.370298 -25.848469 2.8724065 10
-20.368555 -25.846285 4.0333133 11
-20.091652 22.713932 4.8021102 12
-20.360315 -25.835855 5.2023478 12
-20.355431 -25.829691 6.3844876 13
-20.349394 -25.822063 7.5817876 14
-20.342604 -25.813477 8.7975235 15
-19.674643 -27.303619 4.1244678 11
-19.785603 -26.643669 4.0673122 11
-19.680929 -27.31237 5.3238692 12
-19.783298 -26.640587 5.2477713 12
-19.687881 -27.322042 6.537571 13
-19.777117 -26.632288 6.4398131 13
-19.215078 4.2001014 -0.34314466 7
-19.372223 5.7164521 -0.35238856 7
-19.441828 7.2888589 -0.36230209 7
-19.426519 8.9197111 -0.37309957 7
-19.271381 10.582873 -0.3838858 7
-19.562056 22.764366 0.52211988 8
-19.576918 22.782509 3.6870618 11
-19.362059 -29.463284 4.320519 11
-19.476702 -28.731451 4.2538147 11
-19.576838 -28.005966 4.1876307 11
-19.574888 22.780436 4.7561636 12
-19.368664 -29.473345 5.5771446 12
-19.479132 -28.735044 5.489821 12
-19.583969 -28.016191 5.4056726 12
-19.584335 22.791718 5.8403711 13
-19.4869 -28.746527 6.7417116 13
-19.582079 -28.013496 6.6350594 13
-19.360905 -29.461536 6.8434944 13
-19.592983 22.802069 6.940145 14
-19.596514 22.806475 8.0566397 15
-18.946215 2.7368448 -0.33399862 7
-19.004072 12.28703 -0.39533228 7
-19.065657 22.841976 0.51746064 8
-19.061451 22.837236 1.5572932 9
-19.074165 22.852749 2.6027982 10
-19.07415 22.85302 3.6536748 11
-19.080856 22.861347 4.7152739 12
-19.088293 22.87055 5.7896476 13
-19.084377 22.866163 6.8754468 14
-19.091185 22.874626 7.9829621 15
-18.600338 14.014236 -0.40708992 7
-18.568741 1.3342015 -0.32488057 7
-18.569946 22.908669 0.51276958 8
-18.575886 22.91629 1.5442308 9
-18.578485 22.91979 2.5796814 10
-18.591499 22.936136 3.6238093 11
-18.577782 22.919523 4.6716719 12
-18.59388 22.939676 5.7388692 13
-18.595732 22.94227 6.8172464 14
-18.597891 22.945244 7.9134994 15
-18.046246 15.74669 -0.41896093 7
-18.163603 4.7535006e-05 -0.31707057 7
-18.080774 22.971586 0.50820446 8
-18.083904 22.975861 1.5304821 9
-18.096159 22.991722 2.5581629 10
-18.103615 23.001492 3.592591 11
-18.109856 23.009722 4.6364746 12
-18.099119 22.996408 5.6873593 13
-18.101723 23.000031 6.7563772 14
-18.119398 23.022789 7.8496056 15
-17.666416 -1.2692449 -0.30931011 7
-17.603035 23.037498 0.50390756 8
-17.603893 23.038925 1.5175796 9
-17.615322 23.054184 2.5366015 10
-17.628384 23.071577 3.563529 11
-17.630926 23.075535 5.6436329 13
-17.640537 23.088425 6.7071404 14
-17.646549 23.096619 7.7874784 15
-17.345955 17.478693 -0.43112063 7
-17.123804 -2.4731071 -0.30229044 7
-17.143044 23.115885 0.50007403 8
-17.140438 23.112688 1.5059606 9
-17.146191 23.120756 2.5164678 10
-17.156485 23.134943 3.5347931 11
-17.166698 23.149029 4.5630918 12
-17.148363 23.124645 5.5947361 13
-17.16433 23.146488 6.651618 14
-17.170626 23.155302 7.7232313 15
-16.482677 19.182941 -0.44321001 7
-16.532923 -3.6127503 -0.29584917 7
-16.688478 23.192089 2.497782 10
-16.691988 23.197613 4.5248466 12
-16.69804 23.206348 5.5558124 13
-16.699841 23.209185 6.5999341 14
-16.707308 23.219896 7.6638565 15
-16.228743 23.249367 0.49244615 8
-16.22686 23.247 1.4835047 9
-16.238024 23.263641 3.4815338 11
-16.23959 23.26622 4.4921679 12
-16.232977 23.25709 5.5114737 13
-16.248669 23.279898 6.5529051 14
-16.244894 23.274845 7.6041031 15
-15.898962 -4.6896462 -0.28997421 7
-15.777981 23.309505 0.4887546 8
-15.774219 23.304289 1.4724387 9
-15.786242 23.322376 2.4617341 10
-15.787486 23.324553 3.4562509 11
-15.787138 23.324381 4.459053 12
-15.791594 23.331303 5.4746451 13
-15.799642 23.343893 7.5516434 15
-15.466951 20.857298 -0.45550856 7
-15.334883 23.37071 0.48525339 8
-15.331728 23.366249 1.4621757 9
-15.338478 23.376873 2.4438694 10
-15.338306 23.376959 3.4309087 11
-15.352436 23.398825 4.4305654 12
-15.355948 23.404882 6.4610248 14
-15.193238 -5.6930809 -0.28403187 7
-14.898902 23.432827 0.48193324 8
-14.89913 23.433542 1.452731 9
-14.906833 23.445997 2.4283497 10
-14.90793 23.448078 3.4094579 11
-14.913294 23.456861 4.4004326 12
-14.913165 23.457022 5.4011588 13
-14.915425 23.460943 6.4165897 14
-14.923904 23.47464 7.4519424 15
-14.480442 -6.6444497 -0.27912307 7
-14.466495 23.490822 0.47868481 8
-14.47269 23.501236 1.4437755 9
-14.472651 23.501539 2.4122083 10
-14.475872 23.507124 3.3873491 11
-14.47462 23.505461 4.3699846 12
-14.487474 23.526688 5.3686209 13
-14.486932 23.526176 6.3767538 14
-14.487472 23.527443 7.4017715 15
-14.282973 22.464689 -0.46751517 7
-14.04076 23.55007 0.47561401 8
-14.048395 23.563604 2.3975041 10
-14.053127 23.571901 3.3671343 11
-14.059075 23.58263 5.3346415 13
-14.062179 23.588213 6.3380527 14
-14.060802 23.586302 7.3558769 15
-13.714282 -7.5253539 -0.27428761 7
-13.627081 23.620594 0.47291619 8
-13.626262 23.619555 1.4261669 9
-13.632608 23.631693 4.3186169 12
-13.63299 23.63275 5.3010173 13
-13.63676 23.639668 6.29848 14
-13.639505 23.644827 7.3121581 15
-13.202397 23.662848 0.46979532 8
-13.215825 23.687279 1.4185274 9
-13.21177 23.680412 2.3695495 10
-13.209331 23.676432 3.3262405 11
-13.216427 23.689529 4.2939315 12
-13.222141 23.700169 5.2728753 13
-13.226268 23.708372 7.2721863 15
-12.920876 -8.3462248 -0.26993763 7
-12.803866 23.744068 2.3571517 10
-12.803241 23.743317 3.3093371 11
-12.808452 23.753376 4.2715931 12
-12.810983 23.758888 6.2293544 14
-12.788254 23.713951 -0.47373933 7
-12.599328 23.770287 1.4067792 9
-12.400609 23.809355 5.2154946 13
-12.406465 23.821005 6.1981502 14
-12.406403 23.821321 7.1942654 15
-12.100569 -9.1070766 -0.26600477 7
-12.39269 23.792086 0.46485457 8
-12.399592 23.806149 2.3452678 10
-12.393548 23.794966 3.291261 11
-12.200253 23.83939 4.2387619 12
-12.004287 23.879351 6.1676993 14
-11.986171 23.840784 0.46227026 8
-11.987295 23.843437 1.3952644 9
-11.796485 23.889141 2.3277528 10
-11.993789 23.857187 3.2755742 11
-11.6008 23.925653 4.2083397 12
-11.996152 23.862749 5.1887822 13
-11.806165 23.911036 7.1429057 15
-11.592153 23.906096 0.46013537 8
-11.589572 23.901217 1.3886349 9
-11.201782 23.972431 2.3115439 10
-11.592639 23.908407 3.25928 11
-11.2012 23.97209 4.1876426 12
-11.402209 23.951984 5.1535397 13
-11.402741 23.953625 6.1220026 14
-11.207125 23.986153 7.0911207 15
-10.802837 24.010075 -0.46355352 7
-11.190313 23.947029 0.45765585 8
-10.804911 24.015135 0.45581743 8
-11.196198 23.960049 1.3824395 9
-10.804453 24.014582 1.3763609 9
-10.811543 24.030777 2.3018274 10
-11.193952 23.956146 3.2434037 11
-10.805528 24.017891 3.2302842 11
-10.808475 24.024899 4.1691823 12
-10.810713 24.030344 5.1187153 13
-10.816035 24.042633 6.0833659 14
-10.812442 24.035145 7.0588179 15
-10.669307 -9.2974129 -0.24876891 7
-10.413152 24.061634 0.45368624 8
-10.42024 24.078466 1.3711733 9
-10.424349 24.088419 2.2926385 10
-10.42191 24.083279 3.2184789 11
-10.424785 24.090393 4.1539984 12
-10.425591 24.092739 5.0994425 13
-10.431005 24.10573 6.0606513 14
-10.430954 24.106112 7.0347862 15
-10.061829 -10.123177 -0.2511262 7
-10.025818 24.110331 0.45171362 8
-10.033825 24.130043 1.3656311 9
-10.031092 24.123974 2.2819397 10
-10.038704 24.142746 3.2066891 11
-10.038794 24.143459 4.1377177 12
-10.036626 24.13876 5.0780029 13
-10.047393 24.165127 6.0385308 14
-10.039129 24.1458 7.0034122 15
-9.5005865 -11.037252 -0.25646347 7
-8.5942507 -11.564861 -0.25395703 7
-7.6797132 -12.048319 -0.2520301 7
-6.7462316 -12.471416 -0.25030223 7
-6.6168571 16.594669 4.122211 14
-6.0967445 -0.88051057 -0.32282284 6
-6.1950998 -0.44512504 -0.32550311 6
-6.2513852 1.6069282e-05 -0.32762906 6
-6.29356 0.45233074 -0.33071309 6
-6.3035846 0.9109183 -0.33385211 6
-6.2783222 1.3729984 -0.33691606 6
-6.2272425 1.8386453 -0.34044468 6
-6.1187963 2.2955899 -0.34272242 6
-6.0899568 16.644941 -0.31261596 7
-6.2177992 16.623222 0.30672118 8
-6.3093424 24.653589 0.43890685 8
-6.2175498 16.623072 0.92718279 9
-6.2213812 16.633543 1.5508904 10
-6.3105216 24.658922 1.3287299 9
-6.2235603 16.639584 2.1786144 11
-6.3080506 24.650036 2.2209044 10
-6.2221351 16.636253 2.8106005 12
-6.3090901 24.654829 3.1196201 11
-6.234911 16.670826 3.457216 13
-6.358674 16.637653 4.109653 14
-6.3095198 24.657251 4.0260205 12
-6.2251658 16.64567 4.7596111 15
-6.3111496 24.66436 4.9436016 13
-6.3161526 24.684631 5.8773575 14
-6.3143458 24.678371 6.820415 15
-5.7962155 -12.832795 -0.24874231 7
-5.6421986 -2.1134939 -0.31579247 6
-5.8157907 -1.7150792 -0.31778008 6
-5.994669 -1.3097965 -0.32157621 6
-5.9774976 2.7468593 -0.3450602 6
-5.8264217 3.2026715 -0.34882396 6
-5.6292748 3.6436667 -0.35190418 6
-5.8259301 16.66132 0.30488771 8
-5.9430037 24.692375 0.43789631 8
-5.8342514 16.685436 0.92325991 9
-5.8360963 16.691084 1.5439686 10
-5.9451442 24.702021 1.326172 9
-5.8325071 16.681244 2.166878 11
-5.946116 24.706831 2.2179492 10
-5.8360286 16.691675 2.7978091 12
-5.9444847 24.700851 3.1141639 11
-5.8371968 16.695406 3.4351449 13
-5.8372765 16.696041 4.0806999 14
-5.9524531 24.734657 4.0241222 12
-5.8440604 16.715799 4.7422137 15
-5.9492822 24.722319 4.9374118 13
-5.945899 24.709114 5.8620701 14
-5.9508958 24.73064 6.8103504 15
-5.2178965 24.785553 -0.4478403 7
-5.2017636 -2.8526602 -0.31101438 6
-5.4431076 -2.4964786 -0.31389713 6
-5.3929262 4.0685048 -0.35462219 6
-5.4448123 16.718079 0.30357704 8
-5.4009366 24.772018 0.43695065 8
-5.4535489 16.745184 0.91972768 9
-5.4522419 16.741621 1.537305 10
-5.5831685 24.754456 1.3244028 9
-5.2210507 24.802227 1.3226663 9
-5.4483428 16.730093 2.1573675 11
-5.5805101 24.743532 2.2136714 10
-5.2231865 24.813217 2.2128158 10
-5.4545927 16.749626 2.7870789 12
-5.5832043 24.75626 3.1105628 11
-5.2246552 24.821049 3.1087961 11
-5.4538751 16.747921 3.4208865 13
-5.4567013 16.757025 4.0658426 14
-5.5859861 24.769398 4.0161433 12
-5.2241621 24.819611 4.011539 12
-5.4577923 16.760735 4.7204299 15
-5.5864525 24.772308 4.9306908 13
-5.2254944 24.826817 4.9259195 13
-5.588131 24.780586 5.8592014 14
-5.2272663 24.836117 5.8537931 14
-5.2241464 24.822273 6.7910681 15
-5.5889139 24.78492 6.8023019 15
-4.8437681 -13.16204 -0.24790463 7
-4.9539146 -3.1976323 -0.3091532 6
-5.1295414 4.4825869 -0.35770738 6
-4.8406048 4.8860431 -0.3612715 6
-4.818697 16.823755 -0.3091068 7
-5.0740848 16.800709 0.30287191 8
-4.9993815 18.445759 0.32963327 8
-4.8586826 24.843615 0.43604818 8
-5.0710659 16.791187 0.91586226 9
-4.9907479 18.414547 0.99600041 9
-5.0715799 16.793327 1.5314579 10
-4.8586693 24.844473 1.3209171 9
-4.9915833 18.41814 1.6656854 10
-5.0733356 16.799561 2.1514969 11
-4.9797664 18.375223 2.3338156 11
-4.8595757 24.850031 2.2094944 10
-5.0718751 16.795189 2.7755682 12
-4.9811096 18.380693 3.0125008 12
-4.8606853 24.856619 3.1040277 11
-5.0740209 16.802715 3.4086664 13
-4.9727464 18.350481 3.6919389 13
-4.9507461 16.830061 4.0471067 14
-4.9741616 18.35623 4.3870497 14
-4.8634782 24.871803 4.0081038 12
-5.0796161 16.822107 4.7054467 15
-4.9684377 18.335735 5.0865812 15
-4.8646646 24.878807 4.9216886 13
-4.8642921 24.877884 5.8463831 14
-4.8653131 24.884075 6.7879643 15
-4.4045458 -3.8341725 -0.30628771 6
-4.6754308 -3.51563 -0.30676106 6
-4.5036306 5.2519326 -0.36353004 6
-4.4990439 24.896362 0.43565711 8
-4.5022449 24.915003 1.320948 9
-4.4997878 24.90246 2.2080293 10
-4.5014143 24.912441 3.1024437 11
-4.5035815 24.925406 4.0057359 12
-4.5057974 24.938644 4.9200387 13
-4.504025 24.92993 5.8426213 14
-4.5058413 24.940996 6.7849426 15
-4.1086612 -4.1284394 -0.30555934 6
-4.1442237 5.6016002 -0.36625901 6
-4.1402836 24.952204 0.43541098 8
-4.1408916 24.95693 1.319736 9
-4.1429768 24.970526 2.2084079 10
-4.1415658 24.963152 3.1008699 11
-4.1444244 24.981405 4.0045862 12
-4.1422601 24.969528 4.9137077 13
-4.1424575 24.971844 5.8377094 14
-4.1431508 24.977156 6.7776918 15
-3.8763044 -13.428994 -0.24719058 7
-3.7693634 -4.3721247 -0.30289969 6
-3.6651828 -0.66362077 -0.32593092 5
-3.7476499 -0.2692959 -0.3286587 5
-3.7836902 0.1361035 -0.33149868 5
-3.770396 0.54505962 -0.33345148 5
-3.7222302 0.95596462 -0.33671758 5
-3.6323664 1.3637139 -0.3398568 5
-3.7599654 5.9301157 -0.36921498 6
-3.7798209 24.996136 0.43504685 8
-3.7830203 25.018362 1.3198289 9
-3.7850628 25.03299 2.2087417 10
-3.7817616 25.012445 3.0997634 11
-3.7842679 25.033823 6.77742 15
-3.4196777 25.038845 -0.44747213 7
-3.4290421 -4.6054969 -0.30135 6
-3.2036128 -1.7558336 -0.31928408 5
-3.3979096 -1.4123635 -0.32185316 5
-3.5595324 -1.0494758 -0.32444146 5
-3.4829247 1.7567213 -0.34204292 5
-3.3001211 2.138469 -0.34471306 5
-3.3414338 6.2166338 -0.37125167 6
-3.420984 25.049646 0.4349393 8
-3.4210827 25.051647 1.3187095 9
-3.4215326 25.056219 2.2060719 10
-3.422693 25.065969 3.0998201 11
-3.4235408 25.07346 4.0015779 12
-3.4236555 25.075617 4.9128366 13
-3.4237678 25.077785 5.8366871 14
-3.424119 25.081709 6.7761669 15
-2.8983431 -13.638558 -0.24669269 7
-3.0862997 -4.8307714 -0.30093023 6
-2.9127405 -2.1882493 -0.31837913 5
-3.0596809 -1.9734964 -0.31819096 5
-3.1599655 2.386992 -0.3472304 5
-2.9813247 2.6092207 -0.34746069 5
-2.8091211 2.8403776 -0.35043001 5
-2.9003124 6.4717278 -0.37318999 6
-3.0625515 25.107433 0.434995 8
-3.062851 25.111303 1.3192502 9
-3.0619726 25.107021 3.0989726 11
-3.0631747 25.118273 4.0011206 12
-3.0629539 25.117943 4.9118171 13
-3.0646849 25.133543 5.838623 14
-2.7211931 -5.0162597 -0.29965192 6
-2.5400679 -2.5488942 -0.31447715 5
-2.7467301 -2.3884614 -0.31810296 5
-2.4598451 -1.0226215 -0.32676405 4
-2.5823755 -0.66150385 -0.32715982 4
-2.6657398 -0.28781086 -0.32926434 4
-2.6938803 0.24259749 -0.33283886 4
-2.6431351 0.67914015 -0.3356975 4
-2.540005 1.0604205 -0.33880317 4
-2.4365084 1.3418813 -0.34231201 4
-2.6067636 3.0459754 -0.35175687 5
-2.4447405 6.7089133 -0.37588736 6
-2.5748587 -8.1266146 1.0439985 11
-2.7026322 25.156734 1.3193138 9
-2.7019408 25.151962 2.2064421 10
-2.7031701 25.16494 3.1008427 11
-2.7037756 25.172174 4.0029306 12
-2.703063 25.167238 4.9131713 13
-2.7049911 25.186741 5.8411551 14
-2.7050519 25.189011 6.7809453 15
-2.3556607 -5.1970387 -0.29968232 6
-2.1530995 -2.8863506 -0.31474924 5
-2.3544986 -2.7267075 -0.31486121 5
-2.2136259 -1.4265347 -0.32320178 4
-2.0381787 -0.4451735 -0.32999071 3
-2.0563416 -0.29697061 -0.32877728 3
-2.0911384 0.302531 -0.33495429 3
-2.0454171 0.5257858 -0.33522958 3
-2.3281333 1.5103292 -0.34161222 4
-2.1510019 1.7526098 -0.34189451 4
-2.2771523 3.3298554 -0.35427022 5
-2.3417935 25.19569 0.43489948 8
-2.3425171 25.205248 1.3198084 9
-2.3433671 25.216166 2.2087364 10
-2.3432579 25.216854 3.1026046 11
-2.3439333 25.225937 4.0055351 12
-2.3433807 25.221928 4.9165812 13
-2.3431487 25.221367 5.8405776 14
-2.3438466 25.230768 6.7822127 15
-1.62148 25.306431 -0.44966584 7
-1.9759533 -5.3450699 -0.29936665 6
-1.8230883 -3.0830274 -0.31332624 5
-1.8416443 -1.8449847 -0.31982806 4
-1.6415215 -1.230967 -0.32388949 3
-1.7884192 -1.0202898 -0.32574689 3
-1.9958107 -0.58817297 -0.32897615 3
-1.6653394 -0.36369595 -0.33078974 2
-1.6714731 0.36625174 -0.33315986 2
-1.9975034 0.75099248 -0.33871984 3
-1.8636508 1.0277902 -0.33863372 3
-1.6657798 1.3596838 -0.34198681 3
-1.9726868 1.9981043 -0.34585696 4
-1.7532938 2.2096786 -0.34774691 4
-1.9114878 3.5681028 -0.35534495 5
-1.6577158 3.7139916 -0.35708764 5
-1.9663851 6.9010577 -0.37788692 6
-1.8011981 25.2729 0.4352625 8
-1.827886 -8.0023384 1.2971882 12
-1.7041411 -7.9848514 1.290287 12
-1.9828061 25.264189 1.3211181 9
-1.8015205 25.281502 2.2103641 10
-1.8017926 25.289104 3.1058214 11
-1.8021442 25.295958 4.0093894 12
-1.9826229 25.270611 4.9198232 13
-1.8027178 25.308302 5.850203 14
-1.8026969 25.31007 6.7913656 15
-1.5861082 -5.4618549 -0.29885241 6
-1.3586386 -3.293365 -0.31176203 5
-1.4017282 -2.1839566 -0.31841344 4
-1.2264954 -1.6378864 -0.32287899 3
-1.4451395 -1.4456849 -0.32312557 3
-1.3820177 -0.96017486 -0.3268123 2
-1.3583544 -0.67777032 -0.32910421 1.3333334
-1.299577 -0.28376505 -0.32926583 0.5
-1.3247921 0.29049039 -0.33703208 0.5
-1.4224966 0.71388656 -0.33757499 1.5
-1.4128966 0.99343061 -0.33814615 2
-1.3718159 1.393039 -0.34254813 2.5
-1.3376551 1.6897864 -0.34291223 3
-1.5045425 2.3862188 -0.34759206 4
-1.328114 2.4875846 -0.34748176 4
-1.3885159 3.8299074 -0.35771695 5
-1.4704872 7.0466771 -0.37922546 6
-1.2593688 25.35384 0.43586677 8
-1.4025815 -7.9517899 1.276256 12
-1.2593594 25.356964 1.3232316 9
-1.2592107 25.35734 2.2138119 10
-1.2600086 25.379879 4.0170817 12
-1.2597837 25.378838 4.9314265 13
-1.2600907 25.388388 5.8606229 14
-1.2600337 25.390776 6.8036575 15
-1.1895608 -5.549799 -0.29830739 6
-0.99717289 -3.4130666 -0.3110663 5
-0.90858173 -2.4356718 -0.31859019 4
-1.0749605 -2.3547304 -0.31715113 4
-0.97564447 -1.7824831 -0.32123414 3
-1.0283034 -1.3202436 -0.32426861 2
-1.0201176 -1.0055263 -0.32654771 1
-1.0326594 -0.66386008 -0.32766044 0
-1.0568447 0.66276711 -0.33651444 0
-0.98631305 1.0058413 -0.33986065 0.75
-1.0149546 1.420791 -0.34194124 2
-0.98492712 1.9350817 -0.34584597 3
-1.058826 2.6342733 -0.35005859 4
-1.1109655 3.9252324 -0.3582409 5
-0.83020514 4.0158215 -0.36013487 5
-0.96543193 7.1677966 -0.38115698 6
-0.89669883 25.404291 0.43632728 8
-1.0173712 -7.8998132 1.2589599 12
-0.89712954 25.420816 1.3256036 9
-0.89692283 25.419683 2.2177405 10
-0.89701313 25.426819 3.1162612 11
-0.89674699 25.424109 4.0214448 12
-0.89668077 25.426998 4.9375768 13
-0.89657128 25.428751 5.8661542 14
-0.7511915 -3.4747169 -0.31107828 5
-0.64358884 -2.5168953 -0.31871292 4
-0.60816032 -1.9293756 -0.32002488 3
-0.62706047 -1.4024165 -0.32354438 1.5
-0.68176538 -1.072248 -0.3265979 0.25
-0.58960897 1.1192448 -0.34191731 0
-0.53576994 1.2999053 -0.34286109 0.66666669
-0.56406116 1.6763394 -0.34567714 2
-0.548114 2.1081679 -0.34674907 3
-0.67330778 2.7737381 -0.35186526 4
-0.54155076 4.0812387 -0.361577 5
-0.44917065 7.2297149 -0.38187778 6
-0.53285539 25.450024 0.43679559 8
-0.53302044 25.465145 1.3272281 9
-0.53297108 25.470436 2.2211092 10
-0.53267586 25.464449 3.1194401 11
-0.53279871 25.477779 4.0281229 12
-0.53272921 25.482347 4.9461322 13
-0.53257924 25.49132 6.8232388 15
-0.22748241 25.53056 -0.42269799 7
-0.36225286 -1.6336218 -0.32414618 2
-0.35696718 -1.3663712 -0.32474715 1
-0.3104012 -1.1794736 -0.32521066 0
-0.18746911 1.3926678 -0.34238344 0.66666669
-0.13009778 1.758931 -0.34391722 2
-0.20070767 2.1805453 -0.34790853 3
-0.20564939 2.8531203 -0.35132316 4
-0.16746457 4.1083522 -0.3584398 5
-0.108271 7.2360129 -0.37221244 6
-0.19796206 25.516056 0.45318985 8
-0.19818091 25.523832 1.3455987 9
-0.19846211 25.540958 2.2426679 10
-0.1985679 25.533319 3.1434104 11
-0.19877902 25.539364 4.0535517 12
-0.19898821 25.546347 4.9744596 13
-0.19917947 25.549145 5.9074831 14
-0.19940044 25.556711 6.8571811 15
0.34249616 -5.6487136 -0.29763752 6
0.23193875 -3.5383036 -0.31064695 5
0.26343191 -2.5647969 -0.31699586 4
0.20261124 -2.0165536 -0.32124236 3
0.19099307 -1.6447551 -0.32241875 2
0.12283822 -1.3056586 -0.3254101 0.5
0.28819233 -1.1854066 -0.32761788 0
0.20554489 1.3401753 -0.33974114 0.5
0.24463513 1.7307988 -0.34056157 2
0.21390212 2.16383 -0.34458768 3
0.23014785 2.8501887 -0.3492277 4
0.20859107 4.1071882 -0.35596514 5
0.13899285 25.586725 0.47006908 8
0.13817143 25.602539 2.2642441 10
0.13775679 25.610476 3.1693985 11
0.13729049 25.612333 4.0819926 12
0.13641723 25.626026 5.9429731 14
0.13591895 25.626368 6.8940735 15
0.42408475 -5.6535449 -0.29819101 6
0.63814467 -3.5098453 -0.31288728 5
0.63647836 -2.5057855 -0.31816426 4
0.5977065 -1.9324176 -0.32159075 3
0.62577444 -1.4247335 -0.32524109 1.6
0.64865667 -1.0742379 -0.32700777 0.25
0.52573466 1.1137922 -0.33785951 0
0.60098404 1.3171276 -0.34022513 1
0.52320337 1.6618538 -0.34141019 2
0.62505311 2.0762794 -0.34437144 3
0.73574656 2.74631 -0.3481212 4
0.53704202 2.8036346 -0.34908214 4
0.64865667 4.0462918 -0.35537955 5
0.41316184 7.2402906 -0.37306592 6
0.71406263 -8.5549335 1.357506 12
0.63627034 -7.6534767 1.490989 13
0.50740761 25.653025 1.3687342 9
0.50714564 25.662073 2.2701087 10
0.50684893 25.669682 3.1775181 11
0.50597852 25.673002 5.0176001 13
0.50548232 25.672314 5.9550915 14
0.50507265 25.675905 6.9089851 15
0.9793545 -13.973788 -0.24798529 7
0.8280738 -5.6149673 -0.29855898 6
1.009853 -3.4206858 -0.3127754 5
0.90648371 -2.437439 -0.32010061 4
1.0777879 -2.3650384 -0.32010335 4
0.96124101 -1.7746657 -0.32160202 3
0.96068484 -1.3470588 -0.32449135 2
0.9395203 -0.96890968 -0.32784089 0.75
1.0123852 -0.64225405 -0.32949904 0
1.1722288 -0.29791656 -0.33268714 0
1.1823503 0.21589491 -0.33323076 0
1.0400823 0.61541259 -0.33557233 0
0.95064533 1.0002878 -0.33869711 0.75
1.0353991 1.3774637 -0.34121501 2
0.95315158 1.9403639 -0.34488404 3
1.0272717 2.6426454 -0.34801298 4
1.0811242 3.945828 -0.3550162 5
0.93172514 7.1838117 -0.37274656 6
0.87857884 25.711103 0.47287962 8
1.1011485 -11.176422 1.3761238 11
0.99072444 -8.5391026 1.3595502 12
0.90829438 -7.6121912 1.4883144 13
1.0704852 -7.5839062 1.487084 13
0.8780694 25.709452 1.3724307 9
0.87820172 25.725437 2.276778 10
0.877657 25.722946 3.1855567 11
0.87751424 25.731586 4.103816 12
0.87746388 25.742918 5.0334797 13
0.87687349 25.739595 5.9733081 14
0.87675738 25.749523 6.9318032 15
1.2314693 -5.5591931 -0.29954913 6
1.3716943 -3.2949293 -0.31333998 5
1.3664527 -2.2133446 -0.32126537 4
1.2096915 -1.6250591 -0.32282636 3
1.4287583 -1.4332396 -0.32361519 3
1.3226321 -0.99560034 -0.32710722 2
1.395107 -0.6322459 -0.32965368 1.5
1.3311434 -0.23749961 -0.33215547 0.75
1.3989052 0.22808689 -0.33619606 1
1.4149228 0.58935559 -0.33773553 1.4
1.3653768 1.0311884 -0.33965361 2
1.4916062 1.5446651 -0.34367713 3
1.3110211 1.6968455 -0.34290478 3
1.4754186 2.3926373 -0.34577316 4
1.3074343 2.5122917 -0.34798732 4
1.3662868 3.8646789 -0.35599381 5
1.4466504 7.1000676 -0.37297416 6
1.2513603 25.769491 0.47435489 8
1.4199264 -11.133032 1.3753312 11
1.4162103 -8.4725628 1.3587835 12
1.3973991 -7.5423565 1.4897289 13
1.2505777 25.762724 1.3762397 9
1.2502006 25.772659 3.1938136 11
1.2499737 25.776972 4.1137304 12
1.2505723 25.797638 5.0474372 13
1.2498994 25.793411 5.9896426 14
1.2494407 25.793543 6.9480982 15
1.625809 25.812912 -0.42771253 7
1.6317714 -5.4761071 -0.30062574 6
1.8372102 -3.0800896 -0.31505713 5
1.8468666 -1.8420435 -0.32276049 4
1.625188 -1.2170769 -0.3246733 3
1.782045 -1.0109866 -0.32863557 3
1.7642388 -0.58667564 -0.32958838 2.5
1.659114 -0.19542602 -0.33144835 2
1.6702603 0.2096639 -0.33444032 2
1.7947745 0.61550128 -0.33707321 2.5
1.856957 0.99332762 -0.33876747 3
1.6433275 1.3648214 -0.3425833 3
1.7202704 2.208497 -0.3450954 4
1.8935145 3.5966907 -0.35361019 5
1.6281699 3.7243583 -0.35331607 5
1.951447 6.9685125 -0.37264621 6
1.6268829 25.835922 0.47607264 8
1.8564547 -11.063301 1.3749068 11
1.6876774 -8.4189939 1.3583058 12
1.9277426 -8.3655901 1.3581914 12
1.8343197 -7.479002 1.4958816 13
1.6259613 25.82835 1.3809921 9
1.6260569 25.836382 2.2901342 10
1.6265775 25.850986 3.2062819 11
1.6258581 25.846632 4.128376 12
1.6263478 25.860901 5.0641198 13
1.625789 25.859175 6.010005 14
2.0879924 -13.929628 -0.24929203 7
2.0261858 -5.3629856 -0.30162874 6
2.1751626 -2.8887753 -0.3175934 5
2.3781729 -2.7268457 -0.31785509 5
2.2134748 -1.4124483 -0.32539818 4
2.0018885 -0.49777898 -0.33130136 3
2.0565543 -0.20245969 -0.3321892 3
2.05914 0.22050744 -0.33312997 3
2.0257423 0.52369404 -0.33652928 3
2.3066783 1.5134848 -0.34110883 4
2.1096773 1.8069415 -0.34362474 4
2.2602711 3.3522849 -0.35240635 5
2.1934748 25.912786 0.47842154 8
2.3894105 -15.921454 1.4045396 10
2.2101355 -10.988156 1.373788 11
2.1945872 -8.2924786 1.3573412 12
2.1926529 -7.4269209 1.5044721 13
2.1936345 25.918959 1.3882787 9
2.1941295 25.930515 2.3024364 10
2.0032666 25.896111 3.215308 11
2.1937549 25.93499 4.1495123 12
2.1936791 25.938759 5.0879488 13
2.3844581 25.979494 6.0519452 14
2.192755 25.938627 7.0048485 15
2.4158752 -5.227726 -0.30299056 6
2.7951899 -5.0612969 -0.30417657 6
2.5747075 -2.5558236 -0.31877258 5
2.7677448 -2.3778307 -0.32067767 5
2.4643645 -1.0048692 -0.32977283 4
2.5939455 -0.64057869 -0.33126718 4
2.6705985 -0.26032123 -0.3327902 4
2.6942811 0.28854001 -0.33605227 4
2.6391525 0.68070161 -0.33788607 4
2.521039 1.0605253 -0.33883598 4
2.4037127 1.33727 -0.34029472 4
2.6077204 3.0827897 -0.35213777 5
2.4405432 6.7888789 -0.371674 6
2.617471 -15.886412 1.4046656 10
2.6357126 -10.870443 1.3712375 11
2.5947106 -8.1660681 1.3561717 12
2.5570505 -7.3769422 1.5171566 13
2.766799 26.011459 1.3962517 9
2.7669275 26.016293 2.3149762 10
2.7674778 26.025026 3.240212 11
2.7668729 26.023159 4.1723886 12
2.7664657 26.023157 5.1152258 13
2.7661767 26.02429 6.0712752 14
2.7659986 26.026518 7.0432992 15
3.0979433 -13.824257 -0.25065252 7
3.1668763 -4.8728395 -0.30570379 6
2.9454308 -2.1827936 -0.32223281 5
3.1048119 -1.9713913 -0.32329807 5
3.0812497 2.5294476 -0.34856954 5
2.8074832 2.868573 -0.35032815 5
2.911901 6.5700631 -0.37044621 6
3.154177 26.080948 0.48353088 8
2.9543533 -15.805552 1.4029261 10
2.9083371 -10.803878 1.37164 11
3.1383195 -10.733683 1.3711216 11
2.9242718 -8.0545263 1.3563504 12
3.0903876 -7.9735842 1.3537686 12
2.9822972 -7.3083115 1.5342159 13
3.1517293 26.06419 1.4014848 9
3.1526349 26.074675 2.3241041 10
3.1514564 26.068253 3.251066 11
3.1521924 26.080618 5.1351185 13
3.1509852 26.074072 6.0930758 14
3.1537831 26.100117 7.0750279 15
3.5387645 26.105927 -0.43530622 7
3.5231841 -4.6532211 -0.30697232 6
3.2501297 -1.7487085 -0.32445347 5
3.42593 -1.3897011 -0.32523227 5
3.5912592 -1.0209417 -0.32819223 5
3.5072203 1.7797683 -0.34459648 5
3.3215017 2.1686804 -0.34698907 5
3.3655407 6.3203168 -0.36933741 6
3.5418282 26.13085 0.48543432 8
3.4032798 -15.700863 1.4018387 10
3.4435008 -10.635765 1.3708173 11
3.4628603 -7.8060956 1.3523428 12
3.2387393 -7.2587438 1.5450555 13
3.5415721 26.131706 1.4078151 9
3.5415859 26.137259 3.2658417 11
3.5413682 26.138441 4.2058406 12
3.5401292 26.135065 6.1188269 14
3.5417998 26.15008 7.1019077 15
3.8746507 -4.4189863 -0.30904022 6
3.7067847 -0.63000888 -0.33065125 5
3.7868533 -0.22706573 -0.33328387 5
3.8030927 0.26867172 -0.33476624 5
3.7970004 0.54683101 -0.33670416 5
3.754988 0.96687353 -0.34030682 5
3.6693509 1.3839529 -0.34367943 5
3.7963367 6.0359325 -0.3680374 6
3.9321218 26.178619 0.4874 8
3.7399528 -15.623926 1.4018831 10
3.9606822 -15.557714 1.4009583 10
3.781496 -10.51079 1.3699607 11
3.7529161 -7.6567183 1.3504779 12
3.9194458 -7.5794563 1.3515315 12
3.9330862 26.187326 1.4138139 9
3.9324751 26.185705 2.3433726 10
3.9314902 26.181641 3.2782631 11
3.9345839 26.204369 4.2252898 12
3.9351826 26.210754 5.181293 13
3.934509 26.208813 6.1489277 14
3.9332373 26.202993 7.1311555 15
4.1132808 -13.677419 -0.25256637 7
4.342628 -4.9482865 -0.11546959 7
4.2962112 -4.6250086 -0.11064515 7
4.2190995 -4.1874723 -0.1730372 6.6666665
4.1728878 -3.8100984 -0.098819867 7
4.1159983 -3.4222088 -0.15701467 6.6666665
4.2150254 -3.0880303 -0.18252662 6.5
4.2047324 5.7235613 -0.36683095 6
4.2918606 -4.6066041 0.1980177 8.3999996
4.236896 -4.2303066 0.20961411 8.5
4.1712046 -3.7677617 0.14762749 8.25
4.1096206 -3.3676417 0.18670583 8.5
4.2432804 -3.0853746 0.18461925 8.5
4.3415704 -4.9475837 0.5770573 10
4.2910452 -4.6200771 0.66458356 10.5
4.2296314 -4.1788902 0.62755555 10.5
4.1739411 -3.7842782 0.59513128 10.5
4.1082592 -3.367559 0.56165338 10.5
4.2083406 -3.08675 0.53280151 10.4
4.3272681 26.237009 0.489667 8
4.3409848 -4.9471712 0.92740154 11.5
4.2902999 -4.619576 1.0012397 12
4.2330499 -4.2123947 1.0567101 12.5
4.1723824 -3.7940445 1.0187308 12.6
4.1054087 -3.3647082 0.94054687 12.5
4.2350049 -3.0798736 0.89687532 12.333333
4.2889729 -15.450248 1.3994017 10
4.222497 -10.320646 1.3678516 11
4.2177472 -7.4032025 1.3500152 12
4.3355598 -4.8714976 1.3899941 13.5
4.2986217 -4.6259017 1.3462805 13.5
4.2313485 -4.1810932 1.4508604 14.333333
4.1746521 -3.7993655 1.4130425 14.5
4.1044726 -3.3445327 1.3459971 14.6
4.2372017 -3.081733 1.3132412 14.5
4.3288326 26.248474 1.4204236 9
4.3463931 -4.953887 1.7699579 15
4.2932954 -4.6231494 1.6951844 15
4.250864 -4.3205466 1.6289095 15
4.3306785 26.261635 2.3556137 10
4.3297276 26.25807 3.2954278 11
4.3285656 26.253262 4.242938 12
4.3313069 26.271835 5.2053328 13
4.3292146 26.261515 6.1754756 14
4.3294444 26.265121 7.1645083 15
4.6372409 -3.0239184 -0.16221951 6.6666665
4.57903 5.3732991 -0.36492777 6
4.5650392 -3.0366132 0.1929203 8.5
4.6282682 -3.0195286 0.61648697 10.666667
4.7283583 26.308386 0.49228206 8
4.5536242 -3.0296209 0.96963954 12.5
4.6172552 -15.344756 1.3985897 10
4.623662 -10.140974 1.3673397 11
4.4895897 -7.2235589 1.3477678 12
4.6944327 -7.0909476 1.3478398 12
4.570024 -3.0285618 1.3745567 14.5
4.7302856 26.322746 2.3670619 10
4.7292442 26.318913 3.3113892 11
4.7289944 26.319448 4.2643399 12
4.7298827 26.326265 5.2292337 13
4.7297258 26.32736 6.2065158 14
4.7318201 26.34087 7.2032146 15
5.1253219 -13.460372 -0.25452876 7
4.9688854 -2.9663994 -0.10066599 7
4.9105906 4.9845157 -0.36198679 6
4.970304 -2.9675741 0.20408483 8.5
4.9798708 -2.9735243 0.61343473 10.5
5.1313705 26.368448 0.49479493 8
4.9755569 -2.9713531 1.027725 12.5
4.9441161 -15.235701 1.3981687 10
4.8360653 -10.029872 1.3661726 11
5.0464625 -9.9154549 1.3652378 11
4.9375181 -7.0118389 1.3594295 12
4.9964118 -2.9596512 1.4914031 14.666667
5.1310029 26.368263 1.4344687 9
5.1315985 26.372974 2.378072 10
5.1345577 26.389709 3.3293667 11
5.1334639 26.385857 4.2867646 12
5.1342587 26.391632 5.2565103 13
5.1355467 26.399929 6.240582 14
5.5342841 26.407608 -0.44560799 7
5.3977742 -2.88908 -0.21315841 6.5
5.5959835 -2.4953394 -0.32141295 6
5.5111308 4.1762772 -0.35834333 6
5.2360024 4.5985041 -0.36081833 6
5.4319792 -2.9059708 0.23874706 8.6000004
5.3931923 -2.9109364 0.64834976 10.5
5.5392656 26.432642 0.49749589 8
5.3171077 -2.9124463 1.0381924 12.333333
5.3718224 -15.068285 1.3965269 10
5.3932495 -9.7187929 1.3642222 11
5.3960681 -2.9049015 1.347211 13.666667
5.5370517 26.423691 1.4417415 9
5.3401718 -2.9087832 1.6378887 15
5.5396171 26.437323 2.3909054 10
5.5401206 26.441223 3.3456888 11
5.5375352 26.43055 4.3066587 12
5.539629 26.441996 5.2820249 13
5.5428662 26.458862 6.272892 14
5.5410318 26.451801 7.2745624 15
5.7800093 -2.8543243 -0.11189137 7
5.7998085 -2.1002066 -0.32338548 6
5.9916587 -1.692917 -0.32620895 6
5.9740973 3.2950997 -0.35420582 6
5.7668777 3.7474756 -0.35673246 6
5.8441839 -2.8435152 0.19175097 8.333333
5.7356749 -2.8602376 0.67805356 10.5
5.9506679 26.4932 0.5002417 8
5.8041301 -2.8418877 1.0293838 12
5.7959385 -14.893445 1.3953259 10
5.8288207 -9.4384823 1.36191 11
5.8299484 -2.8374188 1.3469776 13.333333
5.9500828 26.491983 1.450053 9
5.800344 -2.8404717 1.7396058 15
5.9538841 26.514286 5.3131704 13
5.9566889 26.529518 7.318934 15
6.1406999 -13.196565 -0.2570042 7
6.1474218 -1.2671779 -0.32862484 6
6.2743125 -0.82779312 -0.33110508 6
6.3779941 -0.37701994 -0.33400682 6
6.3913922 1.8892604 -0.34697038 6
6.2823205 2.3619535 -0.34909192 6
6.1533132 2.8356702 -0.35207322 6
6.215559 -14.709566 1.3944031 10
6.0580263 -9.2803888 1.3607086 11
6.2478933 -9.1356316 1.3590904 11
6.3690667 26.565622 1.459006 9
6.3690672 26.566862 2.4183583 10
6.3682547 26.564739 3.3833096 11
6.3687482 26.568037 4.3573632 12
6.3731322 26.587439 5.3457851 13
6.370358 26.577251 6.3421254 14
6.3684192 26.570536 7.3549452 15
6.4725723 0.45928004 -0.33871549 6
6.4671702 0.93128318 -0.34077248 6
6.4488096 1.4096797 -0.34396869 6
6.7869105 26.614134 0.50607824 8
6.6247983 -14.503633 1.3925091 10
6.5033579 -8.9472265 1.358494 11
6.73911 -8.7335558 1.3550911 11
6.7889538 26.623196 1.4674317 9
6.7897649 26.627472 2.4325848 10
6.7880764 26.622025 3.4027786 11
6.7936954 26.645021 4.3856702 12
6.7912745 26.636749 5.3749156 13
6.7932673 26.645668 6.381258 14
6.7944169 26.651325 7.4037633 15
7.1431322 -12.85331 -0.25938433 7
7.0308189 -14.293294 1.3913016 10
7.0114527 -8.5041485 1.3542613 11
7.2174077 26.693724 0.50954038 8
7.3265238 -14.119402 1.3895128 10
7.520771 -13.999056 1.3882455 10
7.2163363 26.69182 2.4477568 10
7.2190547 26.70282 3.4261043 11
7.2195392 26.705629 4.4123831 12
7.2158279 26.694101 6.417192 14
7.2189188 26.706522 7.4473343 15
7.6433258 26.736794 -0.4591819 7
7.6497183 26.759914 0.51287258 8
7.8126593 -13.820808 1.3871146 10
7.6474543 26.75297 1.4861827 9
7.6509247 26.765945 2.4644461 10
7.6496005 26.762272 3.447566 11
7.6487589 26.760283 4.4392223 12
7.6507525 26.768156 5.44383 13
7.6566606 26.78964 6.4660902 14
7.6556249 26.787014 7.4998589 15
8.1582479 -12.48 -0.26269716 7
8.089098 26.83131 0.51643223 8
8.0992517 -13.634728 1.3857353 10
8.2884636 -13.508252 1.3849339 10
8.0825863 26.810694 1.4957244 9
8.0872927 26.827026 2.4805722 10
8.0898466 26.836287 3.4717958 11
8.0854559 26.822672 4.4684849 12
8.0935965 26.850355 5.4837518 13
8.0893888 26.837358 6.5051384 14
8.5896759 13.560347 -0.26538411 7
8.7501841 12.581557 0.28275511 8
8.7024012 12.903923 0.2871885 8
8.6238003 13.402185 0.29410747 8
8.528883 26.885494 0.51979184 8
8.7443419 12.573162 0.81918836 9
8.7028217 12.904512 0.83254337 9
8.6269979 13.407401 0.8527739 9
8.570653 -13.316962 1.3841133 10
8.7973394 12.269845 1.3385913 10
8.7452059 12.574354 1.35794 10
8.7000933 12.90046 1.3794867 10
8.6196709 13.395813 1.4121991 10
8.5277767 26.88279 1.5064574 9
8.7585402 12.593386 1.9028223 11
8.7127304 12.919063 1.9328598 11
8.6271544 13.407495 1.9775395 11
8.758008 12.592581 2.4502063 12
8.702405 12.903804 2.4860947 12
8.6260014 13.405563 2.5461895 12
8.5335598 26.901665 2.4986033 10
8.7509966 12.58251 3.0014384 13
8.7034626 12.90533 3.0481846 13
8.6305103 13.412629 3.1231196 13
8.755126 12.588371 3.5638831 14
8.5323629 26.898685 3.4954393 11
8.7088299 12.913214 3.619905 14
8.6290903 13.410291 3.7059858 14
8.7519464 12.583781 4.1325831 15
8.7083569 12.912482 4.1988297 15
8.6266174 13.40675 4.2977481 15
8.5316982 26.897369 4.5009794 12
8.5363245 26.912642 5.5210681 13
8.5373068 26.916513 6.5535178 14
8.5360212 26.913286 7.6010966 15
9.1586905 -12.029612 -0.26603034 7
9.0546007 10.573533 -0.23074599 7
8.8400364 11.963237 -0.24621023 7
9.1741676 9.8227854 0.24762456 8
9.1149435 10.191908 0.25198761 8
9.0671463 10.588014 0.25696024 8
8.9942665 10.97381 0.26162052 8
8.9371338 11.395036 0.26707083 8
8.895999 11.684164 0.27086076 8
8.8011456 12.275227 0.278653 8
9.1769857 9.825676 0.71907544 9
9.1267366 10.205007 0.7322855 9
9.0625343 10.582558 0.74522853 9
8.9814405 11.118915 0.76453435 9
8.9400425 11.398648 0.77486837 9
8.8724899 11.829741 0.79099047 9
8.9782152 26.951448 0.52351171 8
9.1685076 9.8165321 1.1911072 10
8.8031473 12.277954 0.80810708 9
9.0635204 -12.932291 1.3806249 10
9.1294289 10.060656 1.2046808 10
9.0651112 10.585456 1.2357897 10
9.0011835 10.981998 1.2591093 10
8.9434595 11.402909 1.2849561 10
8.8925438 11.679514 1.3015769 10
8.983202 26.967014 1.5182765 9
9.1737537 9.8220091 1.6676651 11
9.1002493 10.322523 1.7074579 11
9.06145 10.581102 1.7284766 11
8.9987717 10.979088 1.761308 11
8.9407263 11.399364 1.7973548 11
8.8546228 11.982629 1.8483324 11
8.8081923 12.28485 1.8751848 11
9.1758089 9.8240824 2.148145 12
9.1049767 10.327755 2.2000146 12
9.0638409 10.583786 2.2265153 12
8.9986315 10.978784 2.2681477 12
8.9378767 11.395671 2.313854 12
8.8497295 11.97598 2.3789017 12
9.1811848 9.8296957 2.6351504 13
9.1216068 10.198695 2.6805747 13
9.061182 10.580596 2.7288642 13
9.0006742 10.981209 2.7813156 13
8.8005781 12.274234 2.4127016 12
8.979084 26.955408 2.5153632 10
9.1783915 9.8266001 3.1266222 14
9.1449394 10.077222 3.1641057 14
8.9459791 11.405868 2.8392575 13
8.8959208 11.683714 2.8762045 13
8.803607 12.278381 2.958868 13
9.0641642 10.583961 3.2398231 14
9.0015192 10.982055 3.3012946 14
8.9367867 11.394129 3.3663175 14
8.8968287 11.684828 3.4139471 14
8.8023701 12.276612 3.5112057 14
9.1230021 10.200046 3.6910877 15
9.0721855 10.593178 3.7615135 15
9.0036879 10.984649 3.8304322 15
8.9478712 11.408104 3.9097328 15
8.8556728 11.983788 4.0178056 15
8.8090448 12.285817 4.0760412 15
8.9847641 26.973755 4.5349803 12
8.9833727 26.97031 5.5589123 13
8.9850273 26.976694 7.6548281 15
9.5735703 7.232625 -0.20002991 7
9.4079494 8.2334232 -0.20797959 7
9.2370138 9.3373013 -0.21807805 7
9.5420866 7.4267073 0.22214134 8
9.499176 7.7285404 0.22508559 8
9.4371786 8.1402693 0.22920403 8
9.3691425 8.5636206 0.23356375 8
9.3232431 8.8975534 0.23722275 8
9.2291603 9.4649525 0.24348462 8
9.5559626 7.3279943 0.643668 9
9.5010509 7.7299123 0.65478057 9
9.4375257 8.1403952 0.66636151 9
9.3725195 8.5665474 0.67897248 9
9.2865744 9.1210756 0.6961028 9
9.2346125 9.4703569 0.70743483 9
9.4315252 27.010956 0.52724421 8
9.5652914 7.3349309 1.0687281 10
9.5009956 7.7297692 1.0860205 10
9.4321556 8.135643 1.1045067 10
9.3672981 8.5616922 1.1253281 10
9.2848577 9.1192713 1.1540289 10
9.2325115 9.4680586 1.1726974 10
9.4589844 -12.610309 1.3783557 10
9.559454 7.3304329 1.4948843 11
9.5019817 7.7304249 1.5200801 11
9.4143105 8.2384071 1.5523992 11
9.3730392 8.5667801 1.5757744 11
9.3271208 8.9008474 1.5998467 11
9.4375134 27.028631 1.5292399 9
9.5962305 7.0344305 1.9016656 12
9.5629358 7.3329101 1.9260691 12
9.4964542 7.72576 1.9566457 12
9.4540625 8.0358944 1.9830548 12
