# .PCD v0.7 - Point Cloud Data file format
VERSION 0.7
FIELDS x y z intensity
SIZE 4 4 4 4
TYPE F F F F
COUNT 1 1 1 1
WIDTH 1394
HEIGHT 1
VIEWPOINT 0 0 0 1 0 0 0
POINTS 1394
DATA ascii
-49.469395 12.316952 6.2614789 11
-49.598297 13.107945 6.3010554 11
-49.264698 10.774199 7.9890938 12
-49.381233 11.544856 8.0341492 12
-49.480003 12.319644 8.0782671 12
-48.959522 8.5173435 0.86845547 8
-49.064037 9.2629938 0.87265605 8
-49.171917 10.016399 0.87711793 8
-48.950024 8.5157242 2.6050441 9
-49.061829 9.2626143 2.6178882 9
-49.170048 10.016056 2.6311488 9
-48.97401 8.5199299 4.3503036 10
-49.069435 9.2640848 4.3702402 10
-49.158089 10.01366 4.3905816 10
-48.971504 8.5195265 6.1046658 11
-49.067135 9.263689 6.1326408 11
-49.159634 10.014017 6.1616387 11
-48.972672 8.519763 7.8745527 12
-49.076294 9.2654533 7.9119048 12
-49.168037 10.015768 7.949172 12
-47.614517 -1.3672427 0.83119351 8
-47.621265 -1.3674377 2.4964666 9
-47.622421 -1.3674723 4.1678276 10
-47.635998 -1.3678633 5.8510385 11
-47.611542 -1.3671622 7.5436707 12
-47.620876 -1.3674318 9.2599859 13
-47.236092 -4.0777502 0.82690066 8
-47.334759 -3.4026864 0.82779276 8
-47.42445 -2.7256606 0.82869589 8
-47.521824 -2.0475004 0.8299014 8
-47.246403 -4.0786467 2.4845469 9
-47.340092 -3.4030755 2.4867649 9
-47.423973 -2.7256379 2.4889748 9
-47.52985 -2.0478497 2.4928463 9
-47.236721 -4.0778174 4.1472387 10
-47.343857 -3.4033518 4.1520557 10
-47.431599 -2.7260807 4.1560168 10
-47.531487 -2.0479228 4.1618896 10
-47.250961 -4.0790548 5.8223882 11
-47.349064 -3.4037321 5.8279939 11
-47.44265 -2.7267199 5.8342319 11
-47.526417 -2.0477073 5.8404541 11
-47.245434 -4.0785847 7.50982 12
-47.345284 -3.4034657 7.517302 12
-47.438667 -2.7264957 7.52529 12
-47.520283 -2.0474453 7.5329452 12
-47.255539 -4.0794644 9.2186852 13
-47.33609 -3.4028111 9.224081 13
-47.435101 -2.7262952 9.2349586 13
-47.551636 -2.0487998 9.2511292 13
-46.869278 -6.7731071 0.82550073 8
-46.97488 -6.1015463 0.8258422 8
-47.138332 -4.7517281 0.82619232 8
-46.8634 -6.7722664 2.4803071 9
-47.071049 -5.4283714 2.4822643 9
-47.154915 -4.7534075 2.4829516 9
-46.866325 -6.7727008 4.1415415 10
-46.981743 -6.1024585 4.1437063 10
-47.167976 -4.7547326 4.1466408 10
-46.878372 -6.7744541 5.8142958 11
-46.983635 -6.1027136 5.81603 11
-47.13916 -4.7518353 5.8162775 11
-46.885536 -6.7755003 7.5015225 12
-47.069275 -5.4281945 7.5031981 12
-47.147747 -4.7527089 7.5042124 12
-46.887398 -6.7757802 9.2069836 13
-47.077656 -5.4291716 9.2102709 13
-47.156433 -4.7535939 9.2115479 13
-46.419697 -10.149927 0.82773674 8
-46.500072 -9.4704723 0.82677418 8
-46.606983 -8.7976847 0.82645679 8
-46.693707 -8.1219444 0.82595408 8
-46.781944 -7.4473205 0.82564992 8
-46.410725 -10.147979 2.4879251 9
-46.518871 -9.4743156 2.4863009 9
-46.611828 -8.7986126 2.484386 9
-46.695915 -8.1223421 2.4825206 9
-46.79163 -7.448874 2.4817915 9
-46.413815 -10.14867 4.154635 10
-46.50922 -9.4723625 4.1507115 10
-46.605412 -8.7974148 4.1477342 10
-46.68449 -8.120368 4.1441064 10
-46.790352 -7.4486833 4.1437182 10
-46.400631 -10.145802 5.8297324 11
-46.512096 -9.4729624 5.8262019 11
-46.598511 -8.7961254 5.8207574 11
-46.693836 -8.1220064 5.8176475 11
-46.794456 -7.4493489 5.8164077 11
-46.418823 -10.149793 7.5233912 12
-46.498711 -9.4702492 7.5136919 12
-46.598045 -8.796052 7.5087271 12
-46.696514 -8.1224842 7.5051908 12
-46.784798 -7.4478211 7.5015802 12
-46.412838 -10.1485 9.2323847 13
-46.512985 -9.4731703 9.2244797 13
-46.592915 -8.7950974 9.2145157 13
-46.694111 -8.1220798 9.2106934 13
-46.784843 -7.4478416 9.2067213 13
-44.82869 -21.370436 0.86320311 8
-44.943584 -20.639147 0.85974157 8
-45.052818 -19.91165 0.85639483 8
-44.856159 -21.383541 2.6003149 9
-44.975052 -20.653606 2.589884 9
-45.054863 -19.912558 2.5778852 9
-45.15995 -19.189314 2.5680029 9
-44.861675 -21.386173 4.343791 10
-44.963024 -20.648087 4.3246026 10
-45.060173 -19.914915 4.306149 10
-45.142078 -19.18173 4.2873635 10
-44.844738 -21.378103 6.0953193 11
-44.97184 -20.652143 6.0718303 11
-45.070015 -19.919275 6.0460119 11
-45.181202 -19.198364 6.0234919 11
-44.849625 -21.38044 7.8644352 12
-44.970879 -20.651709 7.833075 12
-45.079712 -19.923571 7.8015809 12
-45.166656 -19.192194 7.7683148 12
-45.062878 -19.916134 9.5717773 13
-45.169678 -19.193485 9.5351381 13
-44.857281 -21.384092 9.6541977 13
-44.970062 -20.651339 9.6138582 13
-44.430489 -24.40163 0.88060594 8
-44.550354 -23.641933 0.87628394 8
-44.646423 -22.878096 0.87174356 8
-44.749329 -22.126047 0.86758149 8
-44.542999 -23.638033 2.6383617 9
-44.644909 -22.877319 2.6248057 9
-44.741364 -22.122112 2.6116681 9
-44.65424 -22.882103 4.3852334 10
-44.766819 -22.134706 4.364779 10
-44.437157 -24.405283 4.4306264 10
-44.552181 -23.6429 6.1878147 11
-44.657246 -22.88365 6.1563029 11
-44.762268 -22.13246 6.1265078 11
-44.552696 -23.643169 7.9830961 12
-44.653061 -22.881498 7.9415741 12
-44.756111 -22.129417 7.9027596 12
-44.436954 -24.40517 8.0241375 12
-44.666569 -22.88843 9.7502279 13
-44.762962 -22.132807 9.7010975 13
-44.103077 -26.754126 0.89577299 8
-44.21344 -25.960718 0.89047241 8
-44.112099 -26.759584 2.6989617 9
-44.216988 -25.962793 2.6824298 9
-44.330082 -25.180984 2.6672175 9
-44.108543 -26.757418 4.5082045 10
-44.229279 -25.970001 4.4821229 10
-44.328915 -25.180311 4.4552712 10
-44.115143 -26.761412 6.3296885 11
-44.224651 -25.967274 6.2914233 11
-44.335808 -25.184225 6.2553163 11
-44.00156 -27.563747 8.2173719 12
-44.115376 -26.761541 8.1662111 12
-44.219429 -25.964199 8.1158104 12
-43.651905 -30.035133 0.91967791 8
-43.763763 -29.195934 0.91322714 8
-43.879799 -28.37216 0.90717369 8
-43.990211 -27.556704 0.90130329 8
-43.650265 -30.033979 2.7712331 9
-43.76413 -29.196159 2.751699 9
-43.878517 -28.371309 2.7331302 9
-43.98045 -27.550571 2.7146945 9
-43.64883 -30.032969 4.629447 10
-43.774166 -29.202833 4.5979443 10
-43.882763 -28.374035 4.5662389 10
-43.994888 -27.559601 4.5364132 10
-43.994438 -27.559305 6.3683224 11
-43.65118 -30.034559 6.499476 11
-43.767902 -29.198631 6.4539347 11
-43.89716 -28.383333 6.4124069 11
-43.654625 -30.036905 8.3860092 12
-43.774529 -29.203024 8.3278198 12
-43.899769 -28.385002 8.2734413 12
-43.27314 -32.60445 0.94007254 8
-43.419796 -31.748707 0.93337643 8
-43.541374 -30.888784 0.92647856 8
-43.533058 -30.882853 2.7915218 9
-43.269371 -32.601566 2.8332222 9
-43.4179 -31.747288 2.8129435 9
-43.292389 -32.618874 4.7358994 10
-43.410843 -31.742094 4.6986651 10
-43.534473 -30.883827 4.6637182 10
-43.298264 -32.623264 6.6496077 11
-43.415958 -31.7458 6.5971656 11
-43.533249 -30.882931 6.5471005 11
-43.298012 -32.623028 8.5790834 12
-43.423569 -31.751331 8.5129366 12
-43.544014 -30.890539 8.4489098 12
-42.899815 -35.316887 0.96378112 8
-43.035934 -34.405041 0.95575792 8
-43.165123 -33.504642 0.94796157 8
-42.895454 -35.313244 2.9052985 9
-43.043983 -34.411419 2.8817279 9
-43.157909 -33.498989 2.8569908 9
-43.157261 -33.498436 4.7730918 10
-42.922562 -35.335499 4.8570838 10
-43.038395 -34.406906 4.8139381 10
-43.043362 -34.410828 6.7591319 11
-43.165661 -33.504917 6.7022676 11
-42.911182 -35.326077 6.8171582 11
-42.905281 -35.321156 8.7941818 12
-43.041092 -34.408958 8.7200394 12
-43.165325 -33.504616 8.6470394 12
-42.77076 -36.252563 0.97236103 8
-42.507584 -38.178375 2.987308 9
-42.643116 -37.208706 2.9591107 9
-42.771503 -36.253128 2.931726 9
-42.516911 -38.186672 4.992341 10
-42.648468 -37.213306 4.944685 10
-42.770317 -36.252056 4.8981042 10
-42.512142 -38.182312 7.0081983 11
-42.651474 -37.215866 6.9425268 11
-42.776321 -36.257088 6.877564 11
-42.521412 -38.190563 9.0439329 12
-42.64872 -37.21339 8.9566221 12
-42.782063 -36.26189 8.8745499 12
-39.43222 20.215689 0.77534485 8
-39.443794 20.221725 2.3251729 9
-39.478191 20.239475 3.8838472 10
-39.504646 20.253143 5.4536963 11
-39.519787 20.261019 7.0371428 12
-39.548393 20.275797 8.6423473 13
-38.408798 20.393099 5.3423491 11
-38.442604 20.41116 6.8968892 12
-38.458279 20.419596 8.4674244 13
-38.354218 20.363781 0.75983679 8
-38.364143 20.369164 2.2785676 9
-38.398556 20.387547 3.8060892 10
-37.317936 20.505901 0.74507779 8
-37.320156 20.507235 2.2338505 9
-37.363686 20.531265 3.7323945 10
-37.372158 20.536037 5.238698 11
-37.403286 20.553259 6.7627554 12
-37.420689 20.562939 8.3032217 13
-36.403233 20.689852 6.6350436 12
-36.420776 20.699944 8.1465578 13
-36.317684 20.640759 0.73096013 8
-36.335178 20.650822 2.1924429 9
-36.343185 20.655491 3.6597466 10
-36.368233 20.66984 5.1391025 11
-35.359856 20.773817 0.71762013 8
-35.370411 20.780138 2.1520355 9
-35.394722 20.794542 3.5939722 10
-35.426575 20.813377 5.0478067 11
-35.439518 20.8211 6.5132852 12
-35.459461 20.832945 7.9977064 13
-34.436543 20.902363 0.70490611 8
-34.448586 20.909798 2.1140199 9
-34.47863 20.928158 3.5311396 10
-34.497986 20.940029 4.95788 11
-34.504707 20.944235 6.3961625 12
-34.528339 20.958706 7.8548508 13
-34.551258 20.972746 9.3352385 14
-33.617588 21.072357 6.2872252 12
-33.63509 21.083456 7.7198029 13
-33.652748 21.094662 9.1734715 14
-33.549732 21.02931 0.69286603 8
-33.561996 21.037125 2.0779541 9
-33.593906 21.057255 3.4711733 10
-33.595573 21.058424 4.8711939 11
-32.672989 21.139393 0.68095869 8
-32.696659 21.154837 2.0429904 9
-32.711151 21.164347 3.4110425 10
-32.745647 21.186789 4.7916236 11
-32.756306 21.193823 6.1824894 12
-32.770275 21.202988 7.5904899 13
-32.780197 21.209555 9.017808 14
-31.844395 21.258274 0.66998035 8
-31.854689 21.26528 2.0092678 9
-31.897903 21.294256 3.357806 10
-31.892546 21.290821 4.7110872 11
-31.916243 21.30677 6.0811143 12
-31.934099 21.31883 7.4670258 13
-31.950665 21.330025 8.8730421 14
-31.040443 21.372408 0.65944999 8
-31.050335 21.379358 1.9777038 9
-31.079245 21.399395 3.3036616 10
-31.086006 21.404192 4.6369133 11
-31.113586 21.423317 5.9862366 12
-31.117674 21.426273 7.3473845 13
-31.138443 21.440716 8.732173 14
-30.256289 21.479559 0.64926916 8
-30.26227 21.483946 1.9469661 9
-30.284424 21.499811 3.2516799 10
-30.309832 21.517988 4.5667939 11
-30.309908 21.518188 5.8905087 12
-30.329634 21.532333 7.2336483 13
-30.339893 21.539768 8.5941763 14
-29.481232 21.57284 0.63920957 8
-29.50222 21.588339 1.9178197 9
-29.532978 21.610985 3.2040071 10
-29.542088 21.6178 4.4974637 11
-29.543901 21.619274 5.8014293 12
-29.572029 21.640001 7.1264052 13
-29.578648 21.644997 8.4657993 14
-28.804802 21.720419 4.432282 11
-28.811653 21.72574 5.7183633 12
-28.829842 21.739605 7.0221243 13
-28.840414 21.747732 8.3431168 14
-28.517288 15.671225 -0.56689548 7
-28.684908 18.5599 -0.5952279 7
-28.594183 21.561071 -0.62396979 7
-28.762085 21.687769 0.63029265 8
-28.773342 21.696405 1.8905002 9
-28.783728 21.704388 3.1562297 10
-28.467638 -0.40867078 7.6284752 15
-28.121239 12.920492 -0.53920108 7
-28.034962 21.778158 0.62113386 8
-28.048323 21.788689 1.8632312 9
-28.055866 21.794697 3.1104326 10
-28.110758 -0.40354851 3.4517887 11
-28.078308 21.812281 4.3682742 11
-28.203442 -0.40487882 4.4672999 12
-28.291533 -0.4061431 5.499722 13
-28.081224 21.814703 5.635036 12
-28.363686 -0.40717873 6.5487704 14
-28.111401 21.838293 6.9228678 13
-28.11549 21.841627 8.2233734 14
-27.831644 -0.39954233 0.48575717 8
-27.928741 -0.40093598 1.463726 9
-27.999769 -0.40195543 2.4497938 10
-27.551159 10.33566 -0.51277536 7
-27.490738 -6.4251919 0.49171844 8
-27.350262 21.883406 0.61284661 8
-27.380445 -6.3994184 1.4723928 9
-27.354923 21.887289 1.8378578 9
-27.226286 -6.363389 2.4447956 10
-27.370539 21.89994 3.0690167 10
-27.379667 21.9074 4.3081126 11
-27.398304 21.922468 5.5606394 12
-27.419853 21.939867 6.8295093 13
-27.432436 21.950094 8.1150236 14
-26.828367 7.9214807 -0.4875747 7
-27.119513 -6.3384366 3.4180381 11
-27.022282 -6.3157158 4.3935218 12
-26.913788 -6.2903628 5.3705926 13
-26.806543 -6.2653017 6.353477 14
-26.668488 21.973635 0.60455978 8
-26.676771 21.980618 1.8133125 9
-26.704744 22.003824 3.0294924 10
-26.710758 22.008934 4.2521801 11
-26.712553 22.010582 5.4850917 12
-26.720793 22.017536 6.7335129 13
-26.710958 -6.2429657 7.3477893 15
-26.72917 22.024603 7.9998016 14
-26.761509 22.051414 9.2957735 15
-26.002287 22.059431 0.59655648 8
-26.010359 22.066442 1.7893643 9
-26.034128 22.086767 2.9890985 10
-26.046701 22.097593 4.1965771 11
-26.057623 22.107023 5.4152803 12
-26.054092 22.104204 6.6448712 13
-26.075314 22.122374 7.8984494 14
-26.092802 22.137379 9.1730642 15
-25.986778 5.6836262 -0.46379304 7
-25.349188 22.13925 -0.58655065 7
-25.366806 22.154797 0.58919251 8
-25.378664 22.165318 1.7676144 9
-25.380503 22.167091 2.9503055 10
-25.244793 7.4027783e-05 3.9983428 12
-25.388882 22.17458 4.1414938 11
-25.304157 7.5366108e-05 4.9185891 13
-25.403822 22.187798 5.3451133 12
-25.566032 -41.498398 5.9765196 11
-25.377455 7.6819168e-05 5.8588037 14
-25.422291 22.204098 6.564435 13
-25.487518 7.8405559e-05 6.8293147 15
-25.20536 4.0133829 6.840167 15
-25.555021 -41.48024 7.7078948 12
-25.438063 22.21804 7.8013325 14
-25.445856 22.225025 9.0569859 15
-25.548109 -41.468723 9.4585333 13
-25.037859 3.6188593 -0.44123223 7
-24.949612 6.8440553e-05 0.43546343 8
-24.842587 1.4278914 0.43451226 8
-24.948698 2.1539679 0.43736577 8
-24.963118 2.5166895 0.43825334 8
-25.042599 2.8883839 0.44037673 8
-25.09757 3.2604256 0.44216582 8
-25.127329 3.6318035 0.44360682 8
-25.016802 6.9768452e-05 1.3110399 9
-24.838474 1.4276607 1.3040863 9
-24.878307 1.7885498 1.3074493 9
-24.933573 2.1526704 1.3119005 9
-25.004679 2.5208883 1.3174669 9
-25.048389 2.8890622 1.3218741 9
-25.093418 3.2598984 1.3266388 9
-25.147219 3.6346905 1.3321581 9
-25.121326 7.1309485e-05 2.1977947 10
-24.819756 1.4265902 2.1752803 10
-24.940584 2.1532838 2.1905243 10
-24.987396 2.5191555 2.1976528 10
-25.043173 2.8884709 2.2060435 10
-25.096327 3.260288 2.2146859 10
-25.133421 3.6327102 2.2223964 10
-25.18576 7.263985e-05 3.0923846 11
-24.843933 1.4279851 3.0557775 11
-24.883539 1.7889386 3.0635719 11
-24.95171 2.1542518 3.0755343 11
-24.986685 2.5190926 3.0840621 11
-25.033276 2.8873401 3.0946863 11
-25.096104 3.2602713 3.107995 11
-25.146973 3.6346829 3.1205094 11
-24.840521 1.4277946 3.9411795 12
-24.896765 1.7898962 3.9538627 12
-24.937843 2.1530628 3.9649765 12
-24.997066 2.520149 3.9798236 12
-25.035275 2.8875818 3.9921813 12
-25.092192 3.2597752 4.0083923 12
-25.15011 3.6351502 4.0256519 12
-24.843515 1.4279722 4.8374386 13
-24.88052 1.7887356 4.849246 13
-24.92594 2.1520433 4.8637199 13
-25.003269 2.5207837 4.8854656 13
-25.0453 2.8887491 4.9013734 13
-25.090645 3.2595873 4.9189968 13
-25.150187 3.6351752 4.940486 13
-25.186899 4.0104127 4.9585924 13
-24.863146 -41.684566 5.9513335 11
-24.882883 1.7889124 5.7600303 14
-24.962173 2.1551793 5.7850618 14
-24.996288 2.5200896 5.8008661 14
-25.052826 2.8896284 5.8231225 14
-25.113565 3.2625766 5.847631 14
-25.15048 3.635232 5.8678813 14
-25.19698 4.0120325 5.8916674 14
-24.900757 1.7902043 6.6899524 15
-24.941902 2.1534379 6.708745 15
-24.983809 2.5188408 6.7291703 15
-25.026129 2.8865602 6.7511559 15
-25.08227 3.2585247 6.7783418 15
-25.156084 3.6360562 6.81181 15
-24.862406 -41.683029 7.6784997 12
-24.807001 22.303188 7.7052999 14
-24.857508 -41.674507 9.4231596 13
-24.689425 0.35444149 0.43101755 8
-24.735228 0.71028906 0.4320012 8
-24.784977 1.0679245 0.43314308 8
-24.727552 22.230732 0.58167517 8
-24.698812 0.35457838 1.2945703 9
-24.758142 0.71095049 1.2981422 9
-24.60635 -26.251759 1.8807271 9
-24.742359 22.244211 1.7453555 9
-24.691702 0.35447839 2.1605027 10
-24.739767 0.71042597 2.1654491 10
-24.784956 1.067932 2.1705937 10
-24.579563 -26.223085 3.1391163 10
-24.730331 0.71015817 3.0378828 11
-24.77652 1.0675727 3.0452068 11
-24.765606 22.265274 2.9157002 10
-24.725861 0.71003288 3.9179535 12
-24.797812 1.0684943 3.9314733 12
-24.773207 22.272282 4.0928354 11
-24.574465 -26.21756 4.4063511 11
-24.747002 0.71064305 4.8124824 13
-24.790327 1.0681765 4.8234968 13
-24.786955 22.284813 5.2821465 12
-24.561691 -26.203842 5.6821833 12
-24.717848 0.35486245 5.7072268 14
-24.766378 0.71120304 5.7203178 14
-24.789452 1.0681429 5.728713 14
-24.705378 0.35468569 6.6205506 15
-24.741735 0.71049857 6.6324716 15
-24.791178 1.0682217 6.6492786 15
-24.78517 22.283388 6.4819355 13
-24.539137 -26.179682 6.9680991 13
-24.523335 -26.162729 8.271533 14
-24.797567 22.294899 8.9393644 15
-24.506039 -26.144178 9.5939293 15
-24.015341 1.7264994 -0.4201127 7
-24.13059 22.329178 0.57508957 8
-24.128176 22.327129 1.7244588 9
-24.156433 22.353439 2.8814809 10
-24.155161 22.352449 4.0433626 11
-24.163431 22.360279 5.2172003 12
-24.174068 22.370298 6.4055243 13
-24.185171 22.380756 7.611269 14
-24.19619 22.39114 8.8376598 15
-23.621765 -7.3413711 0.43053612 8
-23.676598 -6.9875832 0.42972407 8
-23.726833 -6.6339145 0.42892408 8
-23.783712 -6.2833872 0.42833844 8
-23.623262 -7.3418441 1.2950069 9
-23.684889 -6.990037 1.2928231 9
-23.748482 -6.639977 1.2910308 9
-23.782701 -6.2831259 1.2879263 9
-23.623541 -7.3419371 2.162642 10
-23.672127 -6.9862781 2.1577694 10
-23.729275 -6.6346135 2.1541591 10
-23.780159 -6.2824626 2.1504526 10
-23.78616 -26.117088 3.0852225 10
-23.634737 -7.3454275 3.0370169 11
-23.679996 -6.9886093 3.0297232 11
-23.737549 -6.6369338 3.0246797 11
-23.776529 -6.2815108 3.0179398 11
-23.639656 -7.3469629 3.9187002 12
-23.676582 -6.9876089 3.9078963 12
-23.728256 -6.6343422 3.9004095 12
-23.78454 -6.2836347 3.8945391 12
-23.792402 -26.123861 4.3327546 11
-23.738104 -6.6371059 4.7890639 13
-23.796103 -6.2866983 4.7821836 13
-23.627287 -7.3431258 4.8070331 13
-23.695164 -6.9931016 4.8000417 13
-23.761324 -26.089624 5.5828919 12
-23.679024 -6.9883442 5.6973848 14
-23.727247 -6.6340761 5.6856179 14
-23.778017 -6.2819276 5.6757207 14
-23.828449 -5.9308953 5.6669822 14
-23.684402 -6.9899397 6.6141367 15
-23.746384 -6.6394367 6.6042914 15
-23.786549 -6.2841902 6.5898356 15
-23.828613 -5.9309435 6.5773659 15
-23.744745 -26.071325 6.8478589 13
-23.723928 -26.048365 8.126914 14
-23.601042 22.478407 8.7373686 15
-23.718067 -26.041834 9.4305191 15
-23.319 -9.5144043 0.437985 8
-23.36574 -9.1447639 0.43641454 8
-23.446024 -8.5994577 0.43446049 8
-23.530182 -8.0600729 0.43278357 8
-23.582561 -7.7018499 0.43173066 8
-23.523035 22.40284 0.5681904 8
-23.382532 -9.1513453 1.3141202 9
-23.450317 -8.6012087 1.3073682 9
-23.537546 -8.062602 1.302318 9
-23.580973 -7.7013369 1.2985425 9
-23.523155 22.403137 1.7040228 9
-23.376076 -9.1488237 2.1941195 10
-23.45899 -8.604291 2.1841967 10
-23.541739 -8.0640459 2.1752892 10
-23.586639 -7.703196 2.1690807 10
-23.398033 -9.1574249 3.0827677 11
-23.45425 -8.6024857 3.0652885 11
-23.515799 -8.0551634 3.0500088 11
-23.570747 -7.6980124 3.0425851 11
-23.553276 22.43199 2.8476686 10
-23.385551 -9.152544 3.9748642 12
-23.455894 -8.6031532 3.9546933 12
-23.53599 -8.0620899 3.9380567 12
-23.576736 -7.6999755 3.9260814 12
-23.560558 22.43911 3.9973769 11
-23.374813 -9.1483459 4.8763032 13
-23.461237 -8.6050529 4.8548708 13
-23.542091 -8.064188 4.8345842 13
-23.590059 -7.7043357 4.8213444 13
-23.576128 22.454119 5.1595168 12
-23.346422 -9.5256281 5.8180294 14
-23.384056 -9.1519718 5.7942004 14
-23.465076 -8.606554 5.7673883 14
-23.544775 -8.065115 5.7429824 14
-23.598787 -7.7071934 5.7287111 14
-23.586519 22.464197 6.3347158 13
-23.346273 -9.5255728 6.7526751 15
-23.386173 -9.1528063 6.7256618 15
-23.465263 -8.6066408 6.693975 15
-23.531754 -8.0606594 6.6618934 15
-23.580635 -7.7012706 6.6438923 15
-23.579374 22.457588 7.5214081 14
-22.959229 6.0022874e-05 -0.4007847 7
-22.936556 22.481506 0.56173408 8
-22.944771 22.489744 1.685331 9
-22.999197 -25.991829 3.0311019 10
-22.962881 22.507671 2.8150778 10
-22.969866 22.514704 3.9516237 11
-23.002405 -25.995367 4.2562447 11
-22.984999 22.52972 5.1004639 12
-22.996998 -25.989164 5.4902043 12
-22.989431 22.534256 6.2606702 13
-22.967619 -25.955847 6.730269 13
-22.997757 22.542612 7.4384437 14
-22.970335 -25.958826 7.9953275 14
-23.016201 22.560881 8.6399908 15
-22.962139 -25.949465 9.2768116 15
-22.407917 22.604439 5.0439529 12
-22.42944 22.626335 6.1960645 13
-22.430624 22.627735 7.359417 14
-22.439814 22.637201 8.544857 15
-22.358692 22.553835 -0.55367124 7
-22.367188 22.562601 0.55563557 8
-22.381432 22.577156 1.6675792 9
-22.387157 22.58312 2.7839689 10
-22.268181 -25.904604 2.983336 10
-22.390854 22.587042 3.9074287 11
-22.256105 -25.890446 4.1863298 11
-22.249706 -25.8829 5.3997478 12
-22.22961 -25.859409 6.6218734 13
-22.221687 -25.850094 7.8628292 14
-22.216105 -25.843491 9.1240416 15
-21.845739 -1.5703198 -0.38251734 7
-21.798754 22.630453 0.54949713 8
-21.821981 22.654747 1.6499465 9
-21.825291 22.658386 2.7542741 10
-21.836977 22.670708 3.8671985 11
-21.831911 22.665655 4.9870796 12
-21.848942 22.683529 6.1251063 13
-21.864401 22.699772 7.2799048 14
-21.87491 22.710886 8.453145 15
-21.255672 22.710884 0.54393655 8
-21.263493 22.719439 1.6322004 9
-21.280615 22.737925 2.726459 10
-21.559074 -25.819323 2.9375641 10
-21.287691 22.74568 3.8273866 11
-21.540543 -25.797007 4.1208072 11
-21.296595 22.7554 4.9389596 12
-21.523703 -25.776724 5.3126144 12
-21.303816 22.763321 6.0633469 13
-21.315889 22.776426 7.2054987 14
-21.498785 -25.746658 7.7367506 14
-21.316662 22.777468 8.3630438 15
-21.489925 -25.735931 8.9763012 15
-20.83326 -27.252213 4.2059841 11
-20.940468 -26.59293 4.1501946 11
-20.836227 -27.255976 5.4274793 12
-20.930515 -26.580162 5.3521647 12
-20.842934 -27.264631 6.6640806 13
-20.929016 -26.578136 6.5690107 13
-21.033262 -25.936234 6.4842839 13
-20.845938 -27.268435 7.9169345 14
-20.932505 -26.582457 7.804162 14
-20.847778 -27.27072 9.18997 15
-20.935921 -26.586679 9.0597391 15
-20.700781 -2.991209 -0.36547866 7
-20.729301 22.796352 0.53875065 8
-20.740368 22.808928 2.6989245 10
-20.742313 22.811287 3.7878504 11
-20.536793 -29.405546 4.3976912 11
-20.639645 -28.667686 4.3311987 11
-20.740738 -27.95343 4.2678218 11
-20.76137 22.832436 4.8903985 12
-20.637495 -28.664553 5.5876994 12
-20.746161 -27.960608 5.5079417 12
-20.532116 -29.398691 5.6727924 12
-20.768503 22.840492 6.0037684 13
-20.731749 -27.941027 6.7560039 13
-20.530357 -29.396008 6.9624686 13
-20.639633 -28.667377 6.8593225 13
-20.735331 -27.945721 8.0263748 14
-20.786108 22.860281 8.2829094 15
-20.745453 -27.959244 9.3207436 15
-20.207079 22.873911 0.53362107 8
-20.205366 22.872192 1.600708 9
-20.220848 22.889915 2.6738119 10
-20.228539 22.899052 4.8418765 12
-20.24618 22.919456 7.0636711 14
-20.259359 22.934591 8.2034845 15
-19.667868 22.9188 -0.52675676 7
-19.684717 22.93886 1.5853698 9
-19.693638 22.949469 2.6473973 10
-19.714277 22.973722 3.7191153 11
-19.717384 22.977793 5.8883834 13
-19.727211 22.989468 6.9971294 14
-19.577536 -4.2801266 -0.35036087 7
-19.211187 23.050007 5.8355036 13
-19.217165 23.057411 6.9330072 14
-19.224339 23.066256 8.0495243 15
-19.169689 22.999109 0.52337444 8
-19.18046 23.012247 1.5711845 9
-19.185621 23.018665 2.6232612 10
-19.196756 23.03224 3.6835101 11
-19.195759 23.031273 4.7511253 12
-18.405996 -5.4316707 -0.33569524 7
-18.674387 23.071012 0.51879948 8
-18.687946 23.087986 1.557811 9
-18.681408 23.080151 2.59936 10
-18.698011 23.100878 3.6510944 11
-18.707348 23.112644 4.7119236 12
-18.707767 23.113398 5.7828555 13
-18.722315 23.131601 6.8736696 14
-18.724699 23.134792 7.978682 15
-18.191141 23.146364 0.5145095 8
-18.187853 23.142424 1.5436391 9
-18.192019 23.147959 2.5772398 10
-18.203772 23.163143 3.6191695 11
-18.217764 23.181171 4.6719961 12
-18.224339 23.189779 5.735806 13
-18.225021 23.190899 6.8127193 14
-18.242815 23.213779 7.9146504 15
-17.712603 23.21656 0.51030451 8
-17.707664 23.210342 1.5309849 9
-17.709295 23.212727 2.5558007 10
-17.726942 23.236076 3.5903413 11
-17.731535 23.242346 4.632442 12
-17.736109 23.248592 5.6866755 13
-17.744987 23.260477 6.7575011 14
-17.756117 23.275314 7.8477759 15
-17.220091 23.25635 -0.50499648 7
-17.262499 -6.4713655 -0.32266185 7
-17.228394 23.267801 0.50588 8
-17.233742 23.275272 1.5187197 9
-17.250778 23.29903 4.593802 12
-17.264015 23.317148 5.6421242 13
-17.283327 23.343744 7.7862463 15
-16.806944 23.395769 6.6535835 14
-16.808056 23.397594 7.722785 15
-16.762932 23.332973 0.50194925 8
-16.773872 23.348709 2.5165298 10
-16.784836 23.364216 3.5340137 11
-16.796162 23.380501 5.598413 13
-16.100697 -7.3910918 -0.31023458 7
-16.306467 23.400066 0.49823987 8
-16.300125 23.391243 1.4949765 9
-16.306536 23.400705 2.4965591 10
-16.328638 23.432657 3.5084505 11
-16.330196 23.435169 4.5260963 12
-16.336279 23.444166 5.5568066 13
-16.340643 23.450697 6.601676 14
-16.356884 23.47427 7.6696515 15
-15.851515 23.459122 1.4845399 9
-15.861543 23.474216 2.4797649 10
-15.865029 23.479654 3.4809277 11
-15.872176 23.490501 4.4922013 12
-15.878604 23.50029 5.515389 13
-15.886789 23.51268 6.5541105 14
-15.899236 23.531372 7.6128016 15
-15.40555 23.520535 0.49104697 8
-15.406902 23.522881 1.474347 9
-15.412091 23.531084 2.4620547 10
-15.422804 23.547709 3.4577341 11
-15.42335 23.548836 4.4604411 12
-15.436348 23.568947 5.4788027 13
-15.438247 23.572144 6.5080972 14
-14.954461 23.563545 -0.48734099 7
-14.975247 -8.2206421 -0.29930788 7
-14.963443 23.577967 0.4876408 8
-14.964019 23.579168 1.4641788 9
-14.971512 23.591259 2.445519 10
-14.974957 23.596975 3.4329441 11
-14.986393 23.615273 4.4317036 12
-14.997243 23.632965 6.4646416 14
-15.001529 23.640024 7.505177 15
-14.525371 23.631647 0.48431656 8
-14.530463 23.640224 1.4547845 9
-14.544311 23.663033 2.4309709 10
-14.546937 23.667601 3.4123805 11
-14.547538 23.66889 4.4020023 12
-14.553661 23.679159 5.4047809 13
-14.567906 23.70262 6.425683 14
-14.561554 23.692623 7.454587 15
-14.099439 23.695396 0.48135194 8
-14.103426 23.702402 1.4459178 9
-14.1155 23.723295 3.3907363 11
-14.123214 23.736565 4.3763094 12
-14.130288 23.748762 5.3736811 13
-14.124737 23.739771 6.3799829 14
-14.138734 23.763599 7.4121337 15
-13.844107 -8.9460421 -0.28893566 7
-13.68246 23.765295 0.47865769 8
-13.687074 23.773954 2.4008029 10
-13.696682 23.791613 5.3382015 13
-13.705689 23.80792 7.3636675 15
-13.260864 23.818214 0.47576389 8
-13.255375 23.808718 1.428419 9
-13.261014 23.819166 2.385798 10
-13.271668 23.838612 3.351141 11
-13.273741 23.842674 4.3235645 12
-13.281061 23.856146 5.3092184 13
-13.281534 23.857344 6.3061781 14
-13.294513 23.880978 7.3263159 15
-12.834244 23.851854 -0.47331256 7
-12.840695 23.864178 0.47287312 8
-12.84599 23.874348 1.4210567 9
-12.848873 23.880047 2.3730752 10
-12.864378 23.909159 3.334641 11
-12.857786 23.897289 4.299428 12
-12.869541 23.91946 5.2815094 13
-12.869562 23.919861 6.2730684 14
-12.868736 23.918701 7.2802963 15
-12.501351 -9.4119167 -0.27442399 7
-12.431014 23.920401 0.47032344 8
-12.433999 23.926504 1.4133 9
-12.446131 23.950163 2.3619411 10
-12.443495 23.945465 3.3143332 11
-12.446324 23.951271 4.2764254 12
-12.454777 23.967878 5.2520394 13
-12.450212 23.959484 6.2357912 14
-12.460862 23.980328 7.2436914 15
-12.027966 23.980928 0.46798959 8
-12.033527 23.992371 1.4067497 9
-12.035048 23.99577 2.3490541 10
-12.040874 24.00774 3.2985716 11
-12.0428 24.011953 4.2558246 12
-12.047918 24.022528 5.2254348 13
-12.048236 24.023548 6.2066541 14
-12.050023 24.027506 7.2047758 15
-11.626998 24.037409 0.46570447 8
-11.627429 24.038681 1.3994398 9
-11.635681 24.056101 2.3382611 10
-11.641111 24.067698 3.2833915 11
-11.645509 24.077169 4.237185 12
-11.644755 24.076017 5.200026 13
-11.646978 24.081005 6.1775064 14
-11.654722 24.097399 7.1746535 15
-11.222832 24.078634 0.46325043 8
-11.225547 24.084852 1.3925068 9
-11.229966 24.094725 2.3259976 10
-11.234484 24.104799 3.2659936 11
-11.24048 24.118048 4.2154136 12
-11.245267 24.128716 5.1758599 13
-11.251061 24.141541 6.1508064 14
-11.257978 24.156784 7.1433043 15
-11.160154 -9.7281904 -0.25973681 7
-10.574248 -10.642195 -0.26331711 7
-9.5104265 -11.051548 -0.25599363 7
-8.4757357 -11.407831 -0.2495933 7
-7.4642134 -11.712125 -0.24396503 7
-7.4323034 16.579802 -0.31790617 7
-7.4050932 24.595512 0.44704413 8
-7.4120836 24.619274 1.3464206 9
-7.4093466 24.610851 2.2478848 10
-7.4126582 24.622446 3.1568189 11
-7.4445992 16.609186 4.2038507 14
-7.4151549 24.63135 4.073977 12
-7.4187779 24.64399 5.0027442 13
-7.424809 24.66461 5.947051 14
-7.4228349 24.658745 6.9008021 15
-7.0344453 24.641087 -0.44897014 7
-6.826159 0.49079949 -0.35870528 6
-6.8635402 0.99229628 -0.36351383 6
-6.8616514 1.5013821 -0.36821997 6
-6.8101625 2.0120268 -0.3723062 6
-7.0271983 16.627638 0.31461093 8
-7.0385938 24.65624 0.44616738 8
-7.0301681 16.634981 0.94633865 9
-7.0311122 16.637152 1.5804507 10
-7.0426636 24.671104 1.3434761 9
-7.0354276 16.647961 2.2197518 11
-7.046957 24.686758 2.2452221 10
-7.034029 16.64497 2.863009 12
-7.0418744 24.669685 3.1494515 11
-7.0365791 16.651314 3.5151587 13
-7.0428143 16.666189 4.1788464 14
-7.0480824 24.692036 4.0667071 12
-7.0439048 16.669134 4.8509779 15
-7.0478449 24.691885 4.9912462 13
-7.0511055 24.703964 5.9313374 14
-7.057055 24.725435 6.8902059 15
-6.464973 -11.952616 -0.23873922 7
-6.5008445 -0.93902469 -0.34419149 6
-6.633749 -0.47675568 -0.34853941 6
-6.7455997 1.7318127e-05 -0.35353041 6
-6.7233214 2.5242126 -0.37656462 6
-6.6109381 3.0404375 -0.38159436 6
-6.4511709 3.5493987 -0.38618386 6
-6.6286955 16.679794 0.31271788 8
-6.6736178 24.717899 0.4454045 8
-6.6324983 16.689653 0.94096017 9
-6.6346145 16.695286 1.5718466 10
-6.6709008 24.70858 1.3400511 9
-6.6380396 16.704203 2.207454 11
-6.6734495 24.718687 2.2390556 10
-6.6377234 16.703743 2.8476052 12
-6.6745887 24.7236 3.1436367 11
-6.6375933 16.703747 3.4949355 13
-6.6422048 16.715647 4.1540661 14
-6.6760106 24.729568 4.0565314 12
-6.6518178 16.740097 4.8284278 15
-6.6781993 24.738367 4.9805784 13
-6.678472 24.740103 5.9162016 14
-6.6838002 24.760508 6.8723316 15
-6.1345153 -1.809078 -0.3351123 6
-6.3266068 -1.3824379 -0.33932886 6
-6.2457309 4.0469813 -0.39038822 6
-6.0039177 4.5349226 -0.39474082 6
-6.1095452 16.762215 -0.31243327 7
-6.2338262 16.727982 0.31094354 8
-6.3021212 24.749929 0.44420481 8
-6.2412648 16.748348 0.93638539 9
-6.2379923 16.740145 1.5629683 10
-6.3049507 24.76174 1.3377731 9
-6.2441301 16.756838 2.1960382 11
-6.3084712 24.776257 2.235708 10
-6.2437129 16.756155 2.8328667 12
-6.3099222 24.782684 3.1391659 11
-6.2454228 16.76092 3.4778581 13
-6.3772087 16.746567 4.1384254 14
-6.3120756 24.79187 4.051312 12
-6.1246128 16.806282 4.7944846 15
-6.3821263 16.759792 4.8070254 15
-6.3124576 24.794128 4.9728761 13
-6.3133698 24.798479 5.90769 14
-6.3161097 24.809986 6.8599868 15
-5.6530523 -2.5923035 -0.32583687 6
-5.9028692 -2.2109506 -0.3302604 6
-5.7024775 4.9901915 -0.39761081 6
-5.7391124 17.272715 0.31686029 8
-5.9445124 18.782509 0.3429063 8
-5.9385266 24.807337 0.44355756 8
-5.7463517 17.294807 0.95456046 9
-5.9477701 18.793217 1.032379 9
-5.7448244 17.29063 1.5938023 10
-5.938293 24.807158 1.3353679 9
-5.9481668 18.794922 1.7243351 10
-5.7491188 17.303907 2.2389066 11
-5.9412885 24.820414 2.2316368 10
-5.9496264 18.799973 2.4210835 11
-5.751853 17.312504 2.8897643 12
-5.9465699 18.790825 3.1218393 12
-5.9452438 24.837666 3.1348522 11
-5.7465553 17.297041 3.5435622 13
-5.9497747 18.801378 3.8337283 13
-5.8604841 16.829571 4.1153522 14
-5.7502446 17.308516 4.2117014 14
-5.9433913 24.83077 4.0431514 12
-5.9545517 18.816881 4.5573206 14
-5.7446513 17.292177 4.8836927 15
-5.9450345 24.838425 4.9639568 13
-5.9513631 18.807333 5.2867723 15
-5.9493041 24.857014 5.9004903 14
-5.9495158 24.858738 6.848938 15
-5.3746047 5.4337649 -0.4010964 6
-5.2071595 24.889919 -0.44597164 7
-5.4777007 -12.127727 -0.23380741 7
-5.3856349 -2.9526682 -0.32178974 6
-5.3895793 24.869637 0.44235015 8
-5.3938665 24.890129 1.3331317 9
-5.3940563 24.892006 2.2269733 10
-5.3950315 24.89716 3.1268363 11
-5.3981328 24.912706 4.0364904 12
-5.3984785 24.914955 4.9547348 13
-5.4011292 24.927776 5.8881836 14
-5.5846491 24.910162 6.8401055 15
-5.0090599 5.8521991 -0.40433496 6
-5.0969014 -3.2886307 -0.31779817 6
-4.8452601 24.943848 0.44154254 8
-4.8473125 24.955334 1.3305099 9
-4.8493643 24.966827 2.2235494 10
-4.8518338 24.980453 3.1231439 11
-4.8530264 24.98757 4.0304017 12
-4.8499641 24.97291 4.9439425 13
-4.8556337 25.002958 5.879426 14
-4.8543954 24.997671 6.8226175 15
-4.607357 6.2411733 -0.40726292 6
-4.5142069 -12.265255 -0.22962682 7
-4.4666424 -3.8856063 -0.31018126 6
-4.7894778 -3.5995131 -0.31389904 6
-4.4845819 25.002972 2.2206705 10
-4.489397 25.030722 3.1208987 11
-4.49192 25.046888 4.9451308 13
-4.4919801 25.048338 5.8741298 14
-4.4936018 25.058462 6.820684 15
-4.1698513 6.593647 -0.40964597 6
-4.1294203 -4.1457586 -0.30658937 6
-4.1216235 25.042622 0.44079962 8
-4.1238742 25.057362 1.3288445 9
-4.1269822 25.078468 3.1189909 11
-4.125843 25.072783 4.0230422 12
-4.1296468 25.098158 5.8711052 14
-4.130929 25.10714 6.8168721 15
-3.7017128 6.9085174 -0.41162562 6
-3.7867823 -4.3877559 -0.3036935 6
-3.7216594 -0.95295256 -0.33597741 5
-3.8409119 -0.5546093 -0.3393175 5
-3.9002371 -0.28024819 -0.34200466 5
-3.9586301 0.14290495 -0.34684357 5
-3.961267 0.57285792 -0.35039601 5
-3.926549 1.0093608 -0.35531726 5
-3.8372896 1.4418107 -0.35918841 5
-3.6852922 1.8608267 -0.36213371 5
-3.7603617 25.092213 0.44056788 8
-3.7600987 25.091749 1.3275449 9
-3.7629673 25.112034 2.2195683 10
-3.7653551 25.130449 4.0230374 12
-3.7665062 25.139397 4.9396329 13
-3.7664778 25.140549 5.8675652 14
-3.7702167 25.166676 6.81742 15
-3.2035861 7.1762156 -0.4128125 6
-3.3982909 25.133413 -0.44527519 7
-3.5663598 -12.351974 -0.22586177 7
-3.4276381 -4.5977015 -0.30051085 6
-3.2825027 -1.7973298 -0.32680446 5
-3.4844744 -1.4472492 -0.32980213 5
-3.5012085 2.271914 -0.36600393 5
-3.344574 2.5305901 -0.36786741 5
-3.3977437 25.130825 0.44023386 8
-3.398097 25.134842 1.326982 9
-3.4006302 25.154844 2.2186687 10
-3.4018071 25.164915 3.1159973 11
-3.4043891 25.185307 4.0234089 12
-3.4020233 25.169416 4.9352393 13
-3.4067795 25.20731 6.8142552 15
-3.0557947 -4.7753463 -0.29710609 6
-3.0277948 -2.1067252 -0.32223448 5
-3.1709139 2.7804613 -0.36997944 5
-2.9762039 3.0161622 -0.37180018 5
-3.0363944 25.17732 0.44012809 8
-2.9747844 -8.0584326 1.0526876 11
-3.0372126 25.18564 1.327099 9
-3.04003 25.210377 2.219347 10
-3.0401735 25.213167 3.1160901 11
-3.0413907 25.2248 4.0221548 12
-3.042218 25.23324 4.9384909 13
-3.043129 25.242392 5.8681068 14
-3.0432773 25.245314 6.8117919 15
-2.6811442 7.3943677 -0.41324216 6
-2.6374609 -12.404684 -0.22275518 7
-2.6827371 -4.9355383 -0.29441637 6
-2.5541761 -2.5579002 -0.31550744 5
-2.7646351 -2.399971 -0.31956896 5
-2.5003524 -1.0374713 -0.33175275 4
-2.6494586 -0.67819363 -0.3354491 4
-2.7512095 -0.29672584 -0.33973303 4
-2.7881141 0.10055733 -0.3428705 4
-2.7715731 0.5036509 -0.3465381 4
-2.6843729 0.95525372 -0.35127637 4
-2.4705095 1.481854 -0.35515267 4
-2.6413445 3.3314695 -0.37336457 5
-2.677757 25.249775 0.44056508 8
-2.7035513 -8.0218039 1.3385136 12
-2.5041292 -7.9912376 1.3242627 12
-2.6785903 25.259365 1.3286936 9
-2.6786852 25.262077 2.2201414 10
-2.6791058 25.267836 3.1176136 11
-2.6795714 25.274038 4.0232835 12
-2.6814432 25.293373 4.9420252 13
-2.6810806 25.291893 5.869854 14
-2.681741 25.299997 6.8152299 15
-2.1413097 7.5652819 -0.41316807 6
-2.3008225 -5.06321 -0.29150811 6
-2.1431873 -2.8649156 -0.31229213 5
-2.3570938 -2.7232313 -0.31435984 5
-2.2405488 -1.4405565 -0.32651231 4
-2.0456529 -0.52338171 -0.3338778 3
-2.1008532 -0.30313486 -0.33573642 3
-2.1467717 0.31062618 -0.34402138 3
-2.0963173 0.57993978 -0.34596661 3
-2.001215 0.92311132 -0.35036993 3
-2.2470601 1.8349628 -0.35786092 4
-2.0464561 2.0789709 -0.35972711 4
-2.1492116 3.7023821 -0.37601146 5
-2.3159475 25.298548 0.4406769 8
-2.1807888 -7.9406805 1.3023908 12
-2.315376 25.294495 1.3285271 9
-2.3160384 25.303757 2.2205088 10
-2.3168344 25.314474 3.1187823 11
-2.317379 25.322498 4.0251102 12
-2.3187196 25.339128 4.943759 13
-2.3183262 25.337095 5.8718038 14
-2.319231 25.3491 6.8185577 15
-1.9202477 -5.1775231 -0.28948289 6
-1.8055797 -3.0417526 -0.30899057 5
-1.8506947 -1.848188 -0.32042372 4
-1.6611615 -1.2417161 -0.32686475 3
-1.8089392 -1.0294867 -0.32881841 3
-1.9793228 -0.73942977 -0.33359411 3
-1.6883394 -0.36815023 -0.33505398 2
-1.7215773 0.37736082 -0.34344488 2
-1.6119384 0.7443099 -0.34674299 2
-1.886842 1.1329479 -0.35037723 3
-1.7048374 1.3949978 -0.35096467 3
-1.8150579 2.2959509 -0.36120442 4
-1.7399101 3.9214056 -0.37658048 5
-1.7760812 -7.8847294 1.278424 12
-1.9545335 25.360455 1.3302505 9
-1.9527856 25.340647 2.2209113 10
-1.9550875 25.372591 3.1220009 11
-1.9544028 25.3664 4.0270362 12
-1.9549011 25.375349 4.9446449 13
-1.956197 25.394533 5.8777885 14
-1.9571115 25.40889 6.8261476 15
-1.5899683 7.6926637 -0.41286799 6
-1.5899463 25.378529 -0.44693297 7
-1.5407636 -5.2831802 -0.28853443 6
-1.3449292 -3.2411146 -0.30664402 5
-1.4029294 -2.1740725 -0.31701389 4
-1.2287602 -1.6313095 -0.32172534 3
-1.4495292 -1.4440473 -0.32287484 3
-1.3922299 -0.96299189 -0.32812914 2
-1.4129409 -0.70093066 -0.33160016 1.5
-1.3217237 -0.28797945 -0.3344475 0.5
-1.3461037 0.29525295 -0.34299144 0.5
-1.3194613 0.6694144 -0.34386727 1
-1.3781428 0.99534875 -0.34694773 1.75
-1.4000103 1.4273503 -0.35088843 2.5
-1.3671421 1.7357967 -0.35223287 3
-1.470103 2.5444353 -0.36267951 4
-1.4593985 4.0560813 -0.37837338 5
-1.4083291 25.407047 0.44112355 8
-1.3637749 -7.8761048 1.4076786 12.5
-1.4093697 25.427998 1.3317288 9
-1.5906419 25.39863 2.2236159 10
-1.5910722 25.408482 3.123121 11
-1.2279414 25.473803 4.0364604 12
-1.4099139 25.453688 4.9526725 13
-1.4099663 25.457706 5.8838429 14
-1.2282003 25.491577 6.8355989 15
-1.030816 7.7749877 -0.41230211 6
-1.1517009 -5.3409567 -0.28650203 6
-0.98548478 -3.3454025 -0.3046931 5
-0.98486197 -2.3576179 -0.3129026 4
-0.97378898 -1.7642884 -0.31810388 3
-1.0071038 -1.3322836 -0.32298502 2
-1.0262198 -1.0051075 -0.32671189 1
-1.047539 -0.66968215 -0.3310335 0
-1.0570315 0.69118494 -0.34178206 0
-0.99594676 1.0202917 -0.34513551 0.75
-1.0345035 1.4574994 -0.35093254 2
-1.1156282 1.9401847 -0.35673508 3
-0.89481616 2.0421505 -0.3550601 3
-1.0904665 2.7370353 -0.36354345 4
-1.0086699 4.1741185 -0.37714341 5
-0.86269438 25.489037 0.44193408 8
-0.90327579 -8.724103 1.3879058 12
-0.9797138 -7.7903891 1.5249796 13
-0.86255896 25.496489 2.2287955 10
-0.86260998 25.503643 3.1301498 11
-0.86302447 25.521219 4.04141 12
-0.86305076 25.533701 5.8952665 14
-0.86328709 25.546455 6.8460474 15
-0.46733212 7.8035722 -0.41103727 6
-0.74048585 -3.3859222 -0.30290872 5
-0.63675958 -2.4557319 -0.31095597 4
-0.61245853 -1.9141974 -0.31767333 3
-0.63122314 -1.3909719 -0.32128745 1.5
-0.68807203 -1.0690892 -0.32617822 0.25
-0.58968395 1.1358726 -0.34729365 0
-0.57303846 1.3181225 -0.34821069 0.75
-0.56329924 1.7016815 -0.35112169 2
-0.55387664 2.1728308 -0.35740477 3
-0.68148941 2.8577795 -0.36233538 4
-0.55025125 4.251513 -0.37618741 5
-0.49712828 25.530666 0.44236729 8
-0.74974585 -7.7485542 1.511994 13
-0.49679604 25.524221 1.334603 9
-0.49713987 25.550438 2.2325063 10
-0.49707514 25.557003 3.1353312 11
-0.49703509 25.564848 4.0465865 12
-0.497352 25.590063 4.9718971 13
-0.49718797 25.592182 5.9062886 14
-0.49725837 25.605795 6.8590884 15
-0.17222953 7.7967958 -0.40460372 6
-0.34274337 25.62977 -0.43678781 7
-0.36614919 -1.6062181 -0.31902903 2
-0.3615672 -1.3457359 -0.32028753 1
-0.31645501 -1.1638312 -0.3214736 0
-0.12436607 1.3836831 -0.3461501 0.5
-0.15946993 1.7967719 -0.35110569 2
-0.14143761 2.2324717 -0.35480911 3
-0.21729617 2.9390967 -0.36196834 4
-0.19058119 4.2884793 -0.37465486 5
-0.13056757 25.56962 0.44284371 8
-0.34319484 25.614079 0.45769748 8
-0.13046308 25.584492 1.3373821 9
-0.34393466 25.628424 1.3537861 9
-0.1303044 25.590981 2.2355013 10
-0.34471834 25.647034 2.2545629 10
-0.23780985 25.632202 3.1509564 11
-0.23812968 25.646025 4.0657182 12
-0.23844145 25.658659 4.9914036 13
-0.34744537 25.673153 5.9384127 14
-0.23895411 25.6693 6.8821168 15
0.38516131 7.7294073 -0.40155727 6
0.35466281 -5.3469639 -0.28118235 6
0.21487422 -3.4230735 -0.30029446 5
0.2456121 -2.4945498 -0.30836886 4
0.16660699 -1.7901684 -0.31473663 2.5
0.18041018 -1.3817453 -0.32001698 1
0.18240879 -1.175046 -0.32122192 0
0.26140305 1.346746 -0.34410906 0.5
0.20851272 1.7661592 -0.34771782 2
0.28180397 2.1933715 -0.35048941 3
0.19201079 2.9226027 -0.35839558 4
0.16838731 4.2490926 -0.36957249 5
0.21018003 25.72229 0.45996886 8
0.20965622 25.728045 1.3594328 9
0.20905064 25.723089 2.2616804 10
0.20879321 25.754662 3.1736341 11
0.2081117 25.750666 4.0900335 12
0.20773126 25.766899 5.0203109 13
0.20699953 25.756855 5.9583936 14
0.39206859 25.802608 6.9267159 15
0.76335484 -12.175573 -0.21395168 7
0.77242005 -5.2925696 -0.28069973 6
0.60063267 -3.3589251 -0.29920861 5
0.51785201 -2.4439034 -0.30753207 4
0.68819362 -2.3911967 -0.30662134 4
0.56947774 -1.8804487 -0.31331855 3
0.5822565 -1.3692498 -0.31819335 1.5
0.6304155 -1.0439293 -0.32128194 0.25
0.51493722 1.1241472 -0.34101063 0
0.56335515 1.3275675 -0.3408232 1
0.5784502 1.6485115 -0.34386045 2
0.59171975 2.1075563 -0.34881568 3
0.60633564 2.8373728 -0.35645005 4
0.62183034 4.1755996 -0.36779171 5
0.76717532 25.801579 0.46190941 8
0.72238696 -11.555933 1.4210616 11
0.73043805 -8.7818499 1.395704 12
0.64985353 -7.5456381 1.4724902 13
0.76627022 25.809673 2.2706535 10
0.76633579 25.829369 3.1846242 11
0.76618499 25.842762 4.1068721 12
0.76564288 25.844664 5.0381041 13
0.76533002 25.853683 5.9838719 14
0.764705 25.853662 6.9432464 15
0.93690223 -12.152579 -0.21373625 7
1.1456321 -5.2089424 -0.27994904 6
0.9529987 -3.2625899 -0.29812822 5
1.1783247 -3.171103 -0.29692048 5
0.94170558 -2.3060131 -0.3076255 4
0.95548713 -1.7104009 -0.3138161 3
1.0346743 -1.3776412 -0.3164652 2.3333333
0.9532066 -0.97752899 -0.3203541 1
1.047901 -0.65362924 -0.32300821 0.40000001
1.1407963 -0.19714613 -0.32639185 0
1.1419107 0.25253975 -0.33100405 0
1.0609928 0.66514504 -0.3344591 0.33333334
0.9109093 1.0044981 -0.33702299 0.75
0.99629033 1.3833779 -0.34056142 2
1.0209121 1.8967174 -0.34573132 3
0.81056678 2.0090559 -0.34629649 3
0.99524713 2.6773169 -0.35224113 4
1.062737 4.0537825 -0.3655071 5
0.93381709 7.6323352 -0.39904708 6
0.97143745 -11.54718 1.4224055 11
1.0129564 -8.7530384 1.3959035 12
1.026289 -7.4969902 1.4716471 13
1.1401701 25.850576 1.3678499 9
1.1402572 25.864605 2.2770166 10
1.1397231 25.903433 5.9990902 14
1.139107 25.903479 6.9608893 15
1.5173528 25.908089 -0.44133779 7
1.5133386 -5.1064968 -0.27960509 6
1.4103134 -3.0951886 -0.29872641 5
1.2648748 -2.1517558 -0.30892891 4
1.4867851 -1.9998289 -0.30875364 4
1.372452 -1.3871745 -0.31437951 3
1.3651595 -1.0566753 -0.31886229 2.3333333
1.4030756 -0.58029944 -0.322227 1.6666666
1.4174209 -0.24317852 -0.32520053 1.3333334
1.3257079 0.25620407 -0.32683134 1
1.4436183 0.61321241 -0.33429849 1.6666666
1.3257753 1.0366489 -0.33818769 2
1.4965346 1.485163 -0.34101334 3
1.272692 1.7049121 -0.34291634 3
1.3612666 2.479619 -0.3500458 4
1.3439394 3.9388125 -0.36339858 5
1.4671071 7.4778628 -0.39556322 6
1.5177279 25.923414 0.46512869 8
1.3079548 -16.801443 1.4732007 10
1.5483332 -16.777058 1.4729505 10
1.4260426 -11.503271 1.4231569 11
1.3879724 -8.7002258 1.3960602 12
1.3746669 -7.4432435 1.4726033 13
1.5164623 25.912355 1.3724011 9
1.5174307 25.937225 2.2854128 10
1.5171345 25.941835 3.2032897 11
1.5162798 25.937553 4.1280055 12
1.5166312 25.952776 5.0665374 13
1.5168508 25.975893 6.9860654 15
1.795746 -11.995661 -0.21255687 7
1.8757819 -4.986618 -0.27973822 6
1.7356311 -2.9268413 -0.29933995 5
1.7280085 -1.7973026 -0.31006384 4
1.7165834 -0.93585753 -0.31680053 3
1.8804681 -0.57565361 -0.31967884 3
1.8609481 -0.15586433 -0.32465941 2.6666667
1.7994589 0.2209339 -0.32684997 2.5
1.9243513 0.63288277 -0.3301788 3
1.8056388 0.99454015 -0.33538756 3
1.6322488 1.2941946 -0.33747119 3
1.9706485 1.9312724 -0.34343812 4
1.6814115 2.2195425 -0.34567028 4
1.7472823 3.735482 -0.36093467 5
1.9872973 7.2996907 -0.3928113 6
1.8950268 25.964304 0.46652272 8
1.791151 -16.775526 1.4750137 10
1.7971025 -11.456814 1.424013 11
1.8255318 -8.6334877 1.3987261 12
1.8054078 -7.3782568 1.4783852 13
1.8954722 25.977575 1.3774228 9
1.8957281 25.988415 2.2924032 10
1.8955989 25.994268 3.2131619 11
1.8953171 25.998205 4.1419811 12
1.8964003 26.020065 5.0849357 13
1.895317 26.013723 6.0358043 14
1.8951821 26.019911 7.0050797 15
2.2253182 -4.832932 -0.27940458 6
2.141911 -2.6526499 -0.3003206 5
2.0594296 -1.4259142 -0.3120479 4
2.2975328 -1.0350271 -0.3149555 4
2.2907343 1.4191871 -0.33650503 4
2.1443074 1.6814083 -0.33955371 4
2.227025 3.3775687 -0.35486081 5
2.2766607 26.030752 0.46847171 8
2.1524005 -16.73999 1.4758027 10
2.2059095 -11.381956 1.4239606 11
2.1937108 -8.5427704 1.3984071 12
2.2118907 -7.3124609 1.4873624 13
2.2763 26.033022 1.3822182 9
2.2760496 26.042828 3.2232356 11
2.2766631 26.055914 4.1563692 12
2.2779737 26.076738 5.102344 13
2.2767391 26.069698 6.056272 14
2.6447401 -11.811726 -0.21195683 7
2.5708547 -4.6691895 -0.27993789 6
2.4276731 -2.4175863 -0.30187201 5
2.6736717 -2.1393132 -0.30217135 5
2.471869 -0.60631102 -0.31829396 4
2.5496066 -0.23944981 -0.3205491 4
2.5882936 0.29226127 -0.32614952 4
2.5381157 0.67462754 -0.32874405 4
2.4337289 1.0497882 -0.33149552 4
2.6508586 2.9707396 -0.34992754 5
2.4730265 7.0391641 -0.38751277 6
2.6603038 26.088684 0.47036618 8
2.6330097 -16.680399 1.4768034 10
2.6136093 -11.300848 1.4248458 11
2.5579481 -8.4369802 1.3982179 12
2.7668254 -8.364109 1.3973522 12
2.5742989 -7.2675209 1.5016242 13
2.6597157 26.088449 1.3873069 9
2.6619678 26.115128 2.3099968 10
2.6601319 26.103125 3.2354527 11
2.6603048 26.110199 4.171103 12
2.6610274 26.122547 5.1187196 13
2.6615963 26.13352 6.0798669 14
2.6615651 26.138897 7.0559301 15
2.9089818 -4.4872417 -0.28088418 6
3.1772189 -4.186657 -0.153239 6.6666665
3.122313 -3.8154325 -0.085692562 7
3.0718403 -3.4346004 -0.13512293 6.6666665
3.1448758 -3.1626265 -0.1563514 6.5
2.9827557 -1.7473043 -0.30535224 5
3.1860938 -1.4265896 -0.30833471 5
3.0750241 2.3852074 -0.34257069 5
2.9279041 2.6344657 -0.34640276 5
2.9460533 6.778019 -0.38399601 6
3.1768239 -4.1953697 0.20426588 8.6000004
3.120765 -3.7861507 0.17298099 8.5
3.0603733 -3.3664618 0.20857757 8.8000002
3.1050377 -3.1534078 0.23508576 9
3.1703072 -4.1364517 0.5517627 10.5
3.1129584 -3.7497139 0.60355848 11
3.0621583 -3.3979614 0.59918612 11.2
3.1109965 -3.1520157 0.62871999 11.5
3.0463145 26.142767 0.47229108 8
3.1704373 -4.1375766 0.98143244 12.8
3.11936 -3.8125987 1.0548768 13.5
3.0610056 -3.3822763 0.97792667 13.5
3.1022575 -3.1510661 1.0309318 14
2.9908051 -16.618013 1.4767536 10
2.9373209 -11.224571 1.4254974 11
3.1755724 -11.14988 1.4245056 11
2.978744 -8.2999411 1.3990278 12
2.9109628 -7.2156806 1.5157036 13
3.0831184 -7.1920424 1.5245229 13
3.1758378 -4.185843 1.3509032 14.666667
3.1229694 -3.8170321 1.3305935 15
3.0594428 -3.3806279 1.2315671 15
3.1708858 -3.1440101 1.2070771 15
3.0463803 26.147961 1.392912 9
3.0470066 26.157843 2.3177135 10
3.047801 26.169151 3.2490816 11
3.0472574 26.169371 4.187521 12
3.0490274 26.188908 5.1402307 13
3.04864 26.190546 6.1032004 14
3.0494373 26.202133 7.0846562 15
3.4331083 26.177145 -0.44813266 7
3.4775319 -11.570062 -0.21137658 7
3.3017852 -5.0068712 -0.10441879 7
3.2484481 -4.6343498 -0.0984855 7
3.4418912 -3.1085925 -0.13609633 6.6666665
3.3401685 -1.0762515 -0.31031099 5
3.5039592 -0.58738321 -0.31427351 5
3.5912931 -0.2036195 -0.3179847 5
3.5856335 0.94566411 -0.32774121 5
3.5160854 1.3530127 -0.33251244 5
3.3926239 1.7542416 -0.33701649 5
3.2198021 2.1402705 -0.34058848 5
3.3813138 6.4603763 -0.37901542 6
3.2967825 -4.9996877 0.21076714 8.5
3.2431362 -4.6270037 0.19909616 8.5
3.3434396 -3.1253483 0.21013188 8.8000002
3.2953897 -4.9979711 0.63270986 10.5
3.2382619 -4.6037207 0.59570736 10.5
3.2101669 -4.3778167 0.67075998 11
3.3808603 -3.1154988 0.57058722 11
3.4351716 26.196541 0.4743112 8
3.2958503 -4.9988418 1.0612762 12.5
3.2369127 -4.6187172 1.0002927 12.5
3.2010489 -4.3657875 1.0584788 13
3.3684497 -3.1154234 0.98489416 13.5
3.3489616 -16.556765 1.4775711 10
3.4175768 -11.088227 1.4259149 11
3.3747005 -8.1272879 1.3967024 12
3.3753707 -7.1513376 1.5412489 13
3.2246556 -4.5317335 1.3946352 14.5
3.2097361 -4.3775883 1.2604049 14
3.3776255 -3.1129954 1.2421137 15
3.4375622 26.218395 1.3994029 9
3.4367135 26.216225 2.327322 10
3.4375637 26.226692 3.2623703 11
3.4397614 26.247204 4.2078481 12
