# .PCD v0.7 - Point Cloud Data file format
VERSION 0.7
FIELDS x y z intensity
SIZE 4 4 4 4
TYPE F F F F
COUNT 1 1 1 1
WIDTH 1340
HEIGHT 1
VIEWPOINT 0 0 0 1 0 0 0
POINTS 1340
DATA ascii
-1.749671 -1.9694986 -0.31164125 0
-1.632822 -1.9474754 -0.31281352 0
-1.5638858 -1.9776127 -0.31287119 0
-1.4520887 -1.9484324 -0.31393433 0
-1.3600904 -1.9382883 -0.31507471 0
-1.2748845 -1.9626362 -0.31528699 0
-1.1633306 -1.9392926 -0.31525633 0
-1.0547713 -1.9424791 -0.31506863 0
-0.94168508 -1.9630002 -0.31640857 0
-0.83798003 -1.9200948 -0.31771591 0
-0.75073987 -1.9437195 -0.31603831 0
-0.64545012 -1.9474804 -0.31662849 0
-0.54587394 -1.9307647 -0.31783026 0
-0.44636828 -1.9465472 -0.3190515 0
-0.34736463 -1.961295 -0.31798893 0
-0.25719601 -1.9768616 -0.3191815 0
-0.14759408 -1.9609842 -0.32000703 0
-0.042188652 -1.9570367 -0.3203969 0
0.046373937 -1.9583323 -0.32010922 0
0.14815007 -1.9682041 -0.32110474 0
0.25309601 -1.9716691 -0.32055673 0
0.33655477 -1.9660889 -0.32107437 0
0.45644408 -1.9514587 -0.3207764 0
0.54697502 -1.9479028 -0.32250974 0
0.65470868 -1.9390446 -0.32418931 0
0.74264479 -1.9432232 -0.32257557 0
0.85492992 -1.9588867 -0.32466352 0
0.96150905 -1.947101 -0.32454705 0
1.0495414 -1.9666644 -0.32540205 0
1.1409372 -1.9543356 -0.32595626 0
1.2521932 -1.9579591 -0.3265036 0
1.3621243 -1.950841 -0.32690421 0
1.4558725 -1.924621 -0.32672548 0
1.5480003 -1.9574015 -0.32732508 0
1.6600517 -1.9704798 -0.32939574 0
1.7554852 -1.9616683 -0.32854545 0
1.8486509 -1.9365772 -0.32945454 0
-2.9616809 -1.8492845 -0.30743986 0
-2.8499081 -1.8367776 -0.30854076 0
-2.7438519 -1.8433541 -0.30812785 0
-2.6406686 -1.8484062 -0.30915746 0
-2.567807 -1.8712503 -0.3084473 0
-2.4574604 -1.8452672 -0.30950728 0
-2.3587465 -1.8516443 -0.30950385 0
-2.2482717 -1.8442081 -0.31009316 0
-2.1372647 -1.8314306 -0.31044134 0
-2.0420678 -1.8447396 -0.31063482 0
-1.9565959 -1.8543098 -0.31308761 0
-1.8383024 -1.8448833 -0.31265292 0
-1.7429779 -1.8458219 -0.3131707 0
-1.662481 -1.8713199 -0.31247655 0
-1.5555034 -1.8553034 -0.31354067 0
-1.4484308 -1.8532848 -0.31407011 0
-1.3404672 -1.8257142 -0.31593007 0
-1.2506831 -1.8607047 -0.31597704 0
-1.1582159 -1.8401763 -0.31623119 0
-1.0531502 -1.8442436 -0.31525981 0
-0.94421339 -1.8426123 -0.3184551 0
-0.83718216 -1.8357894 -0.3176176 0
-0.740363 -1.8476124 -0.31724757 0
-0.65591079 -1.871562 -0.31677058 0
-0.53676951 -1.8482386 -0.31837943 0
-0.45740917 -1.8418646 -0.31888828 0
-0.35570464 -1.8530644 -0.3189179 0
-0.24902949 -1.8700075 -0.31977856 0
-0.1397295 -1.8563904 -0.32039475 0
-0.059319273 -1.8429884 -0.32133237 0
0.048328184 -1.8493105 -0.3208757 0
0.14734468 -1.8545873 -0.32170227 0
0.24672012 -1.85273 -0.32218078 0
0.34477481 -1.8682981 -0.32265091 0
0.45130938 -1.8459545 -0.32202658 0
0.56457412 -1.84468 -0.32338229 0
0.64844465 -1.8760775 -0.32410428 0
0.7531265 -1.8699276 -0.32360613 0
0.84260976 -1.8579438 -0.32513836 0
0.95613396 -1.822922 -0.32606852 0
1.0510278 -1.8714712 -0.32615411 0
1.1574939 -1.8508046 -0.32630309 0
1.2613846 -1.8536475 -0.32767096 0
1.3665373 -1.8612192 -0.3274872 0
1.4421369 -1.8236337 -0.32727146 0
1.557018 -1.856871 -0.32897568 0
1.6754764 -1.8591138 -0.32845798 0
1.7620462 -1.8638226 -0.32830584 0
1.8578886 -1.8379892 -0.3298434 0
1.9658527 -1.8366442 -0.33113664 0
-3.0398557 -1.7406605 -0.30833194 0
-2.9599202 -1.7516741 -0.30763221 0
-2.8753133 -1.7669878 -0.30802667 0
-2.7813525 -1.7646027 -0.30944759 0
-2.6729445 -1.7497948 -0.30924347 0
-2.555212 -1.7524177 -0.30984402 0
-2.4553435 -1.7359375 -0.31052944 0
-2.3429856 -1.7333004 -0.31069541 0
-2.2495267 -1.73996 -0.31093884 0
-2.1504419 -1.7640249 -0.31200999 0
-2.0685437 -1.7725457 -0.31104851 0
-1.9642024 -1.7575802 -0.3119224 0
-1.8504543 -1.7475226 -0.31368461 0
-1.7585846 -1.747972 -0.31370482 0
-1.6463009 -1.7496657 -0.31415573 0
-1.5405662 -1.7593067 -0.31426084 0
-1.446846 -1.7257086 -0.31473309 0
-1.3469543 -1.7539366 -0.3153519 0
-1.2399027 -1.7403684 -0.31718764 0
-1.139977 -1.7550987 -0.31737337 0
-1.0387504 -1.7316074 -0.31784347 0
-0.94698554 -1.7445264 -0.31674656 0
-0.8564074 -1.7742089 -0.31783351 0
-0.74781847 -1.7476234 -0.31836459 0
-0.63982528 -1.7488496 -0.31817985 0
-0.55603141 -1.7416859 -0.31854692 0
-0.44090319 -1.7490678 -0.31925946 0
-0.34054038 -1.7520081 -0.32038808 0
-0.24581844 -1.7520028 -0.32038844 0
-0.15850569 -1.7383019 -0.3206113 0
-0.055945933 -1.7390094 -0.32234538 0
0.043613993 -1.7388222 -0.32217336 0
0.15156113 -1.7435999 -0.32184139 0
0.25006139 -1.7491544 -0.32230607 0
0.34402296 -1.7531461 -0.32295874 0
0.4478755 -1.7546618 -0.32346874 0
0.55815196 -1.734624 -0.3235423 0
0.65941924 -1.7558844 -0.32451603 0
0.75451785 -1.763234 -0.32564959 0
0.85109442 -1.7421603 -0.32526717 0
0.95297092 -1.7554191 -0.32647026 0
1.041806 -1.7584169 -0.32625788 0
1.1298054 -1.7392231 -0.32850671 0
1.2508757 -1.7558311 -0.32772282 0
1.3622136 -1.7741358 -0.32681179 0
1.4466369 -1.7505261 -0.32914609 0
1.5525858 -1.7479483 -0.32911083 0
1.6564188 -1.7603121 -0.32878503 0
1.7524337 -1.7505125 -0.32915506 0
1.8300762 -1.7343243 -0.33121932 0
1.9441043 -1.7395458 -0.33076304 0
2.0463326 -1.7534403 -0.33108583 0
2.1042881 -1.70111 -0.33224019 0
-3.1144166 -1.6477238 -0.30826002 0
-3.0562029 -1.6544729 -0.30781424 0
-2.9403181 -1.6374421 -0.30873138 0
-2.836324 -1.6601638 -0.30913541 0
-2.735302 -1.6540426 -0.30967101 0
-2.6367838 -1.646595 -0.31050327 0
-2.5461712 -1.6410179 -0.31206703 0
-2.443311 -1.6414324 -0.31058738 0
-2.3442276 -1.640926 -0.31196702 0
-2.2384543 -1.6312395 -0.3109147 0
-2.1612246 -1.671635 -0.31190696 0
-2.050076 -1.6572471 -0.31198087 0
-1.9413258 -1.6394964 -0.31260487 0
-1.8698744 -1.6635602 -0.31213391 0
-1.7500139 -1.658461 -0.31497449 0
-1.6495743 -1.6555098 -0.31443045 0
-1.545261 -1.6423022 -0.31517032 0
-1.4536852 -1.6362604 -0.31507012 0
-1.3520002 -1.6507082 -0.3156279 0
-1.2421272 -1.6367826 -0.31707257 0
-1.1394789 -1.6460482 -0.31800359 0
-1.0595628 -1.6571162 -0.31757969 0
-0.96202576 -1.6356938 -0.31827587 0
-0.85123432 -1.6572193 -0.31888765 0
-0.76302469 -1.6445181 -0.31809562 0
-0.65917671 -1.6714313 -0.31794512 0
-0.55225593 -1.6356745 -0.3197096 0
-0.4441981 -1.6462768 -0.32098374 0
-0.33939534 -1.6288967 -0.32035121 0
-0.23974919 -1.6311425 -0.32140309 0
-0.14636581 -1.6318098 -0.32111815 0
-0.052928071 -1.6448725 -0.3230072 0
0.045769479 -1.6472089 -0.32316369 0
0.15043613 -1.6400748 -0.32251617 0
0.25460634 -1.6345063 -0.32365406 0
0.35120454 -1.6320767 -0.32279372 0
0.44385815 -1.6411173 -0.32420522 0
0.55928493 -1.6564821 -0.32444862 0
0.65835416 -1.6415975 -0.32498226 0
0.75023115 -1.6603073 -0.32604676 0
0.85362905 -1.6273988 -0.32630163 0
0.95033133 -1.664389 -0.3262589 0
1.0614029 -1.659813 -0.32858714 0
1.1689966 -1.6659918 -0.32767677 0
1.253378 -1.6422313 -0.32814881 0
1.3542937 -1.6491005 -0.32989842 0
1.4439828 -1.6491938 -0.32994056 0
1.5388072 -1.6353245 -0.3286472 0
1.6496701 -1.6555692 -0.32963249 0
1.7629669 -1.6470364 -0.33097774 0
1.8624476 -1.6586313 -0.33072278 0
1.9321567 -1.6317544 -0.33152395 0
2.0471129 -1.6549356 -0.33158356 0
2.1467042 -1.6360248 -0.33201855 0
-3.1461494 -1.550876 -0.30803588 0
-3.0791302 -1.5730697 -0.30771944 0
-2.9637382 -1.5498323 -0.30912548 0
-2.8626151 -1.5673478 -0.30837482 0
-2.7552576 -1.5428365 -0.31018448 0
-2.6464653 -1.5490613 -0.31125566 0
-2.56706 -1.5775554 -0.31087402 0
-2.4637716 -1.5385345 -0.31222704 0
-2.3703918 -1.5517174 -0.31228709 0
-2.2567213 -1.547717 -0.31247857 0
-2.1377914 -1.5578972 -0.31299737 0
-2.0274482 -1.5405945 -0.3138234 0
-1.9620792 -1.5630563 -0.31322181 0
-1.8478785 -1.5606204 -0.31351113 0
-1.7549551 -1.5479817 -0.31410813 0
-1.6515439 -1.542872 -0.31561336 0
-1.5537493 -1.5416139 -0.31591669 0
-1.4415628 -1.5465997 -0.31628582 0
-1.3361735 -1.5367285 -0.31555131 0
-1.2460002 -1.5464898 -0.31647205 0
-1.1512275 -1.5537817 -0.31896257 0
-1.0430923 -1.5565953 -0.31780738 0
-0.93835294 -1.5393002 -0.31908652 0
-0.849401 -1.554208 -0.31880301 0
-0.75388634 -1.5431283 -0.31851834 0
-0.64201963 -1.5432318 -0.31873086 0
-0.54592311 -1.543802 -0.32015154 0
-0.45016158 -1.5651422 -0.32025984 0
-0.3501631 -1.563548 -0.32069385 0
-0.24959823 -1.5545554 -0.32145241 0
-0.14837925 -1.5314093 -0.32135791 0
-0.049595136 -1.5400844 -0.32267123 0
0.050032042 -1.5540342 -0.32432926 0
0.14906026 -1.5379314 -0.32284003 0
0.24673492 -1.5428939 -0.3240951 0
0.34624818 -1.5612626 -0.32385021 0
0.44904914 -1.5554532 -0.32417634 0
0.5485878 -1.5634227 -0.32478255 0
0.64566553 -1.5390596 -0.32632029 0
0.73319262 -1.5443081 -0.32567707 0
0.84940261 -1.5384504 -0.32629392 0
0.93998003 -1.5620227 -0.32663542 0
1.0465623 -1.5427749 -0.3284294 0
1.1415107 -1.5547223 -0.32815066 0
1.2464715 -1.5532231 -0.32808155 0
1.3496886 -1.5612627 -0.32968932 0
1.443065 -1.5335318 -0.32896075 0
1.5535865 -1.5369352 -0.32922882 0
1.6508574 -1.5423073 -0.33071792 0
1.7481543 -1.5417775 -0.33144951 0
1.8610543 -1.5490528 -0.33185646 0
1.9536091 -1.5489069 -0.33166954 0
2.0359964 -1.5365258 -0.33202374 0
2.1186299 -1.5438437 -0.3329674 0
2.2235279 -1.5484605 -0.33293727 0
-3.2241702 -1.4483857 -0.30924112 0
-3.1455231 -1.4674996 -0.30911502 0
-3.0529387 -1.4510131 -0.30943689 0
-2.9446375 -1.4515616 -0.30949044 0
-2.8443558 -1.4531177 -0.31004915 0
-2.7354205 -1.4471401 -0.31007949 0
-2.6377513 -1.4442196 -0.31100425 0
-2.5368123 -1.4606342 -0.31233656 0
-2.4361815 -1.4494348 -0.31248435 0
-2.3300359 -1.4550534 -0.31357691 0
-2.2468705 -1.4255211 -0.31485355 0
-2.1412671 -1.4461073 -0.31335738 0
-2.0658178 -1.4733976 -0.31356916 0
-1.9558231 -1.4467013 -0.314522 0
-1.8415 -1.4455087 -0.31486505 0
-1.7427483 -1.4295168 -0.31488657 0
-1.6389196 -1.4557841 -0.31561449 0
-1.5330312 -1.4322307 -0.3181113 0
-1.4475104 -1.4527164 -0.31646156 0
-1.3564458 -1.4567798 -0.31700116 0
-1.2507007 -1.4405626 -0.31703895 0
-1.1516593 -1.4563073 -0.31714121 0
-1.0496037 -1.4510632 -0.31946945 0
-0.95297867 -1.4444493 -0.31842953 0
-0.84490216 -1.43176 -0.32002407 0
-0.74758029 -1.4504437 -0.31944859 0
-0.65685743 -1.4700387 -0.31875917 0
-0.55642885 -1.4410137 -0.31982213 0
-0.44113365 -1.4519688 -0.32131717 0
-0.35436717 -1.4496911 -0.3211683 0
-0.24587002 -1.4482921 -0.32220525 0
-0.1519561 -1.4597911 -0.32185972 0
-0.05769638 -1.4660445 -0.32220507 0
0.042546537 -1.4325713 -0.32590988 0
0.14528894 -1.4379692 -0.32427847 0
0.24781165 -1.4592485 -0.32471332 0
0.34772038 -1.4521743 -0.32492542 0
0.45341146 -1.4445415 -0.32572979 0
0.55069286 -1.457269 -0.3255786 0
0.65548426 -1.4453722 -0.32673842 0
0.7551598 -1.4691917 -0.32654324 0
0.85098606 -1.4352046 -0.32663277 0
0.95363247 -1.4425436 -0.32956642 0
1.0478437 -1.4443061 -0.32845753 0
1.1497004 -1.4538444 -0.3287487 0
1.2516181 -1.454193 -0.32996997 0
1.3601736 -1.4664396 -0.32907444 0
1.4498757 -1.4550115 -0.3287113 0
1.5345572 -1.4499418 -0.33159828 0
1.6461167 -1.4308921 -0.33173922 0
1.7450193 -1.452476 -0.3321726 0
1.8595703 -1.438365 -0.33178064 0
1.9650126 -1.4534621 -0.33266932 0
2.0638804 -1.4372743 -0.33329096 0
2.1700916 -1.4655266 -0.33290657 0
2.2698452 -1.4492636 -0.33349162 0
2.3129458 -1.421361 -0.33333156 0
-3.2488606 -1.3401755 -0.30901602 0
-3.1630611 -1.3580961 -0.31006911 0
-3.0492971 -1.3437214 -0.31067461 0
-2.9561765 -1.3535368 -0.31086266 0
-2.8424926 -1.3510246 -0.31079307 0
-2.747859 -1.3545926 -0.31129736 0
-2.6758289 -1.3670306 -0.3105275 0
-2.5579619 -1.3532699 -0.31158161 0
-2.4651346 -1.3728328 -0.31162292 0
-2.363215 -1.3383536 -0.3130185 0
-2.2807851 -1.3569772 -0.31400722 0
-2.1644831 -1.3516296 -0.3152104 0
-2.0445602 -1.3594862 -0.31479356 0
-1.9288665 -1.3432446 -0.31544089 0
-1.832703 -1.3355225 -0.31655887 0
-1.7361606 -1.3429385 -0.31600699 0
-1.6430445 -1.3481375 -0.31570086 0
-1.5463674 -1.3443757 -0.31607711 0
-1.4595075 -1.3582491 -0.31810874 0
-1.3505746 -1.3475559 -0.31728846 0
-1.2575636 -1.3443747 -0.31920636 0
-1.1494943 -1.3513079 -0.31847194 0
-1.0402755 -1.3414165 -0.31940785 0
-0.95085132 -1.3344691 -0.32013214 0
-0.863967 -1.3585986 -0.31913516 0
-0.75768572 -1.349445 -0.32060304 0
-0.65266269 -1.3469728 -0.32060176 0
-0.54597366 -1.3558121 -0.32047015 0
-0.44758552 -1.3345683 -0.32145995 0
-0.34759405 -1.345451 -0.3221159 0
-0.25288993 -1.3515425 -0.32239419 0
-0.15253548 -1.3696418 -0.32283989 0
-0.054212291 -1.3774308 -0.32245082 0
0.043495245 -1.3478855 -0.32599434 0
0.15032251 -1.3638126 -0.32364002 0
0.24939635 -1.368268 -0.32572991 0
0.34114355 -1.3539834 -0.3261975 0
0.443344 -1.3448058 -0.32706389 0
0.53175634 -1.3434964 -0.32666361 0
0.65430802 -1.3393985 -0.32722357 0
0.74920112 -1.3568093 -0.32678297 0
0.85939866 -1.3395423 -0.32952064 0
0.96269172 -1.3588997 -0.32777616 0
1.0562092 -1.3379005 -0.32962856 0
1.1503716 -1.3522599 -0.32965344 0
1.2543219 -1.3523806 -0.32983112 0
1.3555558 -1.356616 -0.32956329 0
1.4556442 -1.3522671 -0.3307476 0
1.5607797 -1.3716708 -0.33182251 0
1.6379063 -1.3395739 -0.33242774 0
1.7549378 -1.3574569 -0.33117807 0
1.8511339 -1.3287468 -0.33354366 0
1.9404427 -1.3513393 -0.3334178 0
2.0505159 -1.3423066 -0.33333543 0
2.1402109 -1.3578472 -0.33340931 0
2.2519543 -1.3397717 -0.33422765 0
2.3602943 -1.358924 -0.33546045 0
-3.3088717 -1.2372203 -0.30906305 0
-3.2663906 -1.257058 -0.30986944 0
-3.1439734 -1.2531619 -0.31020659 0
-3.0436673 -1.2639096 -0.31066549 0
-2.9482691 -1.2490641 -0.31131056 0
-2.8466671 -1.2544466 -0.31189257 0
-2.7429218 -1.2558762 -0.3121011 0
-2.6439803 -1.2566379 -0.31251925 0
-2.5384519 -1.2513291 -0.31240472 0
-2.4412136 -1.2471584 -0.31314313 0
-2.334996 -1.2352868 -0.31271824 0
-2.2218192 -1.2523901 -0.31358534 0
-2.1560476 -1.2346073 -0.31520936 0
-2.064441 -1.2484821 -0.3156749 0
-1.9586531 -1.2490278 -0.31710589 0
-1.8563833 -1.2473348 -0.31642672 0
-1.7515309 -1.2458465 -0.31771734 0
-1.6339822 -1.2362516 -0.31752801 0
-1.5458814 -1.2496505 -0.31698298 0
-1.4376166 -1.249745 -0.31785172 0
-1.3448445 -1.2458545 -0.31919017 0
-1.2424958 -1.246631 -0.31854337 0
-1.1424752 -1.2394679 -0.32083949 0
-1.0500877 -1.2524477 -0.31954449 0
-0.95087713 -1.248825 -0.32077688 0
-0.84046036 -1.2542148 -0.31978634 0
-0.73242879 -1.2461982 -0.3212328 0
-0.64805388 -1.2356694 -0.32230198 0
-0.55302596 -1.2585669 -0.32146907 0
-0.45902702 -1.2586802 -0.32132053 0
-0.35405654 -1.2523534 -0.32337323 0
-0.24873248 -1.2475059 -0.32296732 0
-0.14193104 -1.2407811 -0.32395932 0
-0.049183905 -1.2498329 -0.32583696 0
0.049146164 -1.2470011 -0.3256554 0
0.1471602 -1.2399855 -0.32551131 0
0.24531624 -1.2494603 -0.32618073 0
0.35570642 -1.2465496 -0.32672471 0
0.44248599 -1.2512572 -0.32706821 0
0.56305879 -1.2724333 -0.3268719 0
0.65036893 -1.2500416 -0.32760614 0
0.74760431 -1.2373868 -0.32960942 0
0.85314941 -1.2509787 -0.33010238 0
0.95625472 -1.2454491 -0.32891235 0
1.0628215 -1.2752906 -0.32955262 0
1.1470262 -1.239593 -0.33016175 0
1.2511129 -1.2555704 -0.32919222 0
1.3443313 -1.255854 -0.330735 0
1.4550792 -1.2539216 -0.33301225 0
1.5567605 -1.2513275 -0.33210856 0
1.655272 -1.2569145 -0.33160692 0
1.7348766 -1.2402353 -0.33420816 0
1.8311329 -1.2492261 -0.33286661 0
1.9380965 -1.2557572 -0.33386123 0
2.0305331 -1.2478445 -0.33358395 0
2.1402457 -1.2597814 -0.3347975 0
2.2258158 -1.2393681 -0.33540556 0
2.3202467 -1.2489114 -0.33557418 0
2.4190106 -1.2577289 -0.33514491 0
-3.3387289 -1.1673577 -0.30944824 0
-3.2608111 -1.1486937 -0.31021911 0
-3.1484246 -1.1519449 -0.31094241 0
-3.0574219 -1.1599573 -0.31127927 0
-2.9802418 -1.1632253 -0.31163254 0
-2.8620894 -1.1485715 -0.31214133 0
-2.7508166 -1.1426481 -0.31290579 0
-2.6631796 -1.1434859 -0.31316909 0
-2.5478613 -1.1446407 -0.31376061 0
-2.4475603 -1.1422173 -0.31411844 0
-2.3443851 -1.1451292 -0.31450683 0
-2.2589748 -1.165882 -0.31431887 0
-2.1559522 -1.1406099 -0.31458887 0
-2.0506098 -1.1416943 -0.31559807 0
-1.9437768 -1.1565678 -0.31647182 0
-1.8530169 -1.1570278 -0.31794688 0
-1.7525878 -1.1473399 -0.31781843 0
-1.6476072 -1.1454926 -0.31872824 0
-1.5600569 -1.1436363 -0.31955951 0
-1.4537109 -1.1513345 -0.31887093 0
-1.3542181 -1.1502254 -0.31950447 0
-1.2405204 -1.1535795 -0.31891611 0
-1.1572894 -1.1512128 -0.32020012 0
-1.0488833 -1.1520132 -0.3209869 0
-0.94699878 -1.1460028 -0.32064822 0
-0.84838188 -1.14533 -0.32228562 0
-0.74895978 -1.1528661 -0.32066119 0
-0.64120615 -1.1459689 -0.32269335 0
-0.54317182 -1.1411351 -0.32327622 0
-0.45506525 -1.1542163 -0.32341123 0
-0.35351139 -1.1554123 -0.32389015 0
-0.24467659 -1.1827389 -0.32372069 0
-0.16674283 -1.1862931 -0.32102329 0
0.19339858 -1.1907103 -0.32323042 0
0.26325402 -1.1865292 -0.32572699 0
0.34880087 -1.1697359 -0.32713428 0
0.45476633 -1.1475987 -0.32672364 0
0.54469216 -1.1535099 -0.3270081 0
0.65118951 -1.1491621 -0.32781726 0
0.76817471 -1.1625009 -0.33046079 0
0.8473497 -1.1418083 -0.32937202 0
0.94692272 -1.1626948 -0.32950228 0
1.0422258 -1.1518333 -0.33009681 0
1.1479622 -1.1451228 -0.32980424 0
1.2496126 -1.1506206 -0.33152398 0
1.3596519 -1.1649754 -0.3325223 0
1.4529874 -1.1541834 -0.33248967 0
1.5530162 -1.1489296 -0.33280563 0
1.648371 -1.1477962 -0.3333858 0
1.7549813 -1.1488415 -0.33376926 0
1.859642 -1.1612179 -0.33370581 0
1.9559764 -1.1636683 -0.33355832 0
2.0568104 -1.1452777 -0.33547974 0
2.1688261 -1.1674069 -0.33560267 0
2.2619936 -1.1352239 -0.33587295 0
2.3752902 -1.1499033 -0.3364867 0
2.473484 -1.162679 -0.33725303 0
2.5063195 -1.1259285 -0.33736339 0
-3.4058397 -1.0024608 -0.31061104 0
-3.347574 -1.0639135 -0.30996022 0
-3.2261117 -1.0507535 -0.31057915 0
-3.1302826 -1.0444168 -0.3112089 0
-3.0342455 -1.0608988 -0.31195313 0
-2.9414024 -1.0521125 -0.3125914 0
-2.8377752 -1.0609711 -0.31319717 0
-2.7419133 -1.0475911 -0.31348759 0
-2.6389403 -1.0518699 -0.31369767 0
-2.5417967 -1.0554974 -0.31444019 0
-2.4476452 -1.0369526 -0.31471756 0
-2.3351953 -1.0468335 -0.31490871 0
-2.251379 -1.050385 -0.31567267 0
-2.1355772 -1.0402199 -0.31590471 0
-2.0434835 -1.0561777 -0.31667855 0
-1.9463607 -1.0537496 -0.31693223 0
-1.8455999 -1.0591733 -0.31751662 0
-1.7267071 -1.039332 -0.31731516 0
-1.6692413 -1.0646286 -0.31921539 0
-1.5569923 -1.0514183 -0.31886736 0
-1.4660337 -1.052513 -0.31958777 0
-1.3535652 -1.0468888 -0.32130888 0
-1.2544441 -1.0551224 -0.32061264 0
-1.1598756 -1.0421935 -0.32094646 0
-1.0517139 -1.0511048 -0.32122269 0
-0.94219851 -1.0453224 -0.32227728 0
-0.86236686 -1.0590055 -0.32152975 0
-0.75317299 -1.0517335 -0.32278943 0
-0.653198 -1.0379102 -0.32402268 0
-0.55212027 -1.0712637 -0.32302132 0
0.5566023 -1.0871598 -0.32736129 0
0.65052456 -1.0476677 -0.32818493 0
0.73500931 -1.0475181 -0.32967505 0
0.84518301 -1.0427662 -0.32980302 0
0.94477361 -1.0605587 -0.32985774 0
1.0359395 -1.0329496 -0.33169302 0
1.1484882 -1.042573 -0.33260727 0
1.2519522 -1.0420759 -0.3325519 0
1.3463311 -1.0540454 -0.33345172 0
1.4556608 -1.0449759 -0.33289853 0
1.552048 -1.0479109 -0.33344048 0
1.6532453 -1.0488176 -0.33377552 0
1.7593288 -1.0696677 -0.33317018 0
1.8441987 -1.0383985 -0.33536556 0
1.9317701 -1.0576361 -0.33524859 0
2.0356159 -1.058385 -0.33590934 0
2.1330881 -1.051501 -0.33596131 0
2.2341907 -1.0423623 -0.33665672 0
2.3290603 -1.0462513 -0.33687386 0
2.4260387 -1.0483614 -0.33739033 0
2.5322001 -1.0514838 -0.33748496 0
-3.4387231 -0.93238914 -0.31171978 0
-3.3548865 -0.96135217 -0.31144702 0
-3.2677283 -0.93637443 -0.31202132 0
-3.1617069 -0.95527816 -0.31163567 0
-3.0669572 -0.95062548 -0.31221914 0
-2.9756532 -0.94567907 -0.31275445 0
-2.8724852 -0.95840466 -0.31308177 0
-2.7826984 -0.95067757 -0.31398487 0
-2.6654305 -0.95339644 -0.3150562 0
-2.5418563 -0.95069301 -0.31557864 0
-2.4364665 -0.92454118 -0.31611559 0
-2.3631706 -0.95026255 -0.31553236 0
-2.2395077 -0.94884586 -0.3159484 0
-2.1523602 -0.94849473 -0.31664255 0
-2.0533824 -0.95798612 -0.31691867 0
-1.9524238 -0.94177866 -0.31796134 0
-1.8690258 -0.95496577 -0.3183333 0
-1.7620063 -0.95272028 -0.31952226 0
-1.6463375 -0.95117199 -0.31830713 0
-1.5526865 -0.95731938 -0.31971085 0
-1.4452777 -0.96095699 -0.31939638 0
-1.3400255 -0.94525141 -0.31996226 0
-1.2502276 -0.95260078 -0.32194665 0
-1.1451021 -0.95021266 -0.32250571 0
-1.0505559 -0.93797958 -0.32263535 0
-0.9648158 -0.96157384 -0.32160282 0
-0.85351175 -0.94820541 -0.32246318 0
-0.75211436 -0.95112276 -0.32279876 0
-0.69348687 -0.98831367 -0.32350728 0
0.76421499 -0.96636528 -0.33021834 0
0.85593313 -0.94963187 -0.33127245 0
0.94999439 -0.9475835 -0.33154678 0
1.0633125 -0.94797194 -0.33223003 0
1.1476861 -0.93573987 -0.33261791 0
1.2595688 -0.93624806 -0.33209532 0
1.3656845 -0.9593749 -0.33177003 0
1.437804 -0.94120854 -0.33410543 0
1.5367161 -0.94424295 -0.33493191 0
1.6257195 -0.9515236 -0.33469889 0
1.7451855 -0.95558864 -0.33543703 0
1.8521646 -0.94964314 -0.33532983 0
1.9411284 -0.94938046 -0.33644029 0
2.0619316 -0.95327723 -0.33625394 0
2.1576626 -0.94479102 -0.33686396 0
2.2527525 -0.94825166 -0.33744827 0
2.354393 -0.95155716 -0.3380073 0
2.4621201 -0.94076121 -0.33899862 0
2.5812733 -0.95260143 -0.33952752 0
2.6127055 -0.91347492 -0.33984149 0
-3.4624503 -0.83323437 -0.31158069 0
-3.3783247 -0.86431837 -0.31215271 0
-3.2903852 -0.84181941 -0.31260946 0
-3.1527557 -0.85492349 -0.31348479 0
-3.0226173 -0.84284985 -0.31455529 0
-2.9320536 -0.86296737 -0.31377631 0
-2.8147581 -0.85045826 -0.31409067 0
-2.720727 -0.84331101 -0.31459883 0
-2.6233904 -0.85443789 -0.31522295 0
-2.5287552 -0.84372187 -0.31557897 0
-2.429086 -0.84546244 -0.31684333 0
-2.3546255 -0.85505241 -0.31771764 0
-2.2591989 -0.8571294 -0.31737748 0
-2.1556633 -0.85338354 -0.31646812 0
-2.0510874 -0.85178387 -0.31721902 0
-1.937826 -0.85395133 -0.31796229 0
-1.8315188 -0.8449958 -0.31948668 0
-1.7698814 -0.85920846 -0.31897146 0
-1.650437 -0.84319681 -0.3205272 0
-1.5425777 -0.85044527 -0.3205182 0
-1.4321346 -0.84841996 -0.32110646 0
-1.3655715 -0.85970742 -0.32103199 0
-1.2554363 -0.85715216 -0.32126302 0
-1.1349994 -0.84388262 -0.32111266 0
-1.0604839 -0.85223329 -0.32248372 0
-0.95166719 -0.85141921 -0.32235426 0
-0.85406512 -0.84494549 -0.32208657 0
0.87283051 -0.87579685 -0.33135259 0
0.95171601 -0.84462953 -0.33123562 0
1.0515455 -0.84669071 -0.33131221 0
1.1478276 -0.85122085 -0.33125407 0
1.2374386 -0.8453415 -0.3334775 0
1.3469193 -0.85447466 -0.33446074 0
1.4475754 -0.86122686 -0.33492854 0
1.5406334 -0.84034598 -0.33510786 0
1.6646422 -0.8655653 -0.33456764 0
1.7568424 -0.83795196 -0.33562478 0
1.8594866 -0.85136873 -0.33602273 0
1.9422386 -0.85579473 -0.33637783 0
2.0494864 -0.85099488 -0.33782026 0
2.1458204 -0.85520941 -0.33857676 0
2.2403772 -0.85604984 -0.33887076 0
2.3327763 -0.85327405 -0.3392407 0
2.4379399 -0.84246421 -0.33881983 0
2.5370996 -0.84654588 -0.33944216 0
2.6301494 -0.83588123 -0.33985543 0
-3.4645166 -0.73803753 -0.31209114 0
-3.344229 -0.76282644 -0.31248498 0
-3.2226808 -0.75113565 -0.31314608 0
-3.1262298 -0.75232518 -0.31342861 0
-3.0320873 -0.75265723 -0.31395808 0
-2.9386272 -0.75182354 -0.31443647 0
-2.849807 -0.75094002 -0.31522241 0
-2.7588005 -0.74810553 -0.31593412 0
-2.6614268 -0.74210149 -0.31594458 0
-2.565094 -0.75494653 -0.31657761 0
-2.4454107 -0.75797725 -0.31648129 0
-2.3263462 -0.75776547 -0.31746075 0
-2.2361367 -0.76393098 -0.31815982 0
-2.1511068 -0.75212371 -0.31887311 0
-2.0582671 -0.75275153 -0.31912002 0
-1.9619489 -0.7494911 -0.31880119 0
-1.8701134 -0.74530971 -0.31889358 0
-1.7118474 -0.78379911 -0.31983656 0
-1.6408794 -0.76561034 -0.32076469 0
-1.5401956 -0.74123222 -0.32174769 0
-1.456803 -0.75739318 -0.32200673 0
-1.3480778 -0.75064498 -0.32220301 0
-1.2440614 -0.74558151 -0.32259169 0
-1.1627094 -0.75376141 -0.32364246 0
-1.040489 -0.75562239 -0.32252675 0
-0.94390666 -0.7519694 -0.32349849 0
0.97222531 -0.76314873 -0.33124417 0
1.0452986 -0.74205422 -0.33237433 0
1.1451728 -0.74958712 -0.33344802 0
1.244444 -0.74890608 -0.33480811 0
1.3387325 -0.7607187 -0.33552119 0
1.4400364 -0.74871516 -0.33434212 0
1.5420642 -0.74424344 -0.33450851 0
1.6528469 -0.75971115 -0.33528346 0
1.7313467 -0.74823123 -0.33601749 0
1.8352525 -0.74987954 -0.33705682 0
1.9616364 -0.75773591 -0.33880946 0
2.0276277 -0.74590158 -0.33881691 0
2.1552303 -0.75360954 -0.33818668 0
2.2635524 -0.75528115 -0.3380419 0
2.3537676 -0.74797934 -0.33829069 0
2.4498246 -0.74017763 -0.33884084 0
2.5378547 -0.74700129 -0.3392908 0
2.6463611 -0.75006723 -0.34028488 0
-3.5161753 -0.63582599 -0.31262207 0
-3.4315486 -0.67142129 -0.31235075 0
-3.3425372 -0.65400517 -0.312913 0
-3.2535257 -0.63658905 -0.31347531 0
-3.1550908 -0.66435421 -0.3140184 0
-3.0663371 -0.64566565 -0.31457907 0
-2.9699709 -0.64755988 -0.3148922 0
-2.8754849 -0.64855689 -0.31531584 0
-2.7808712 -0.64815289 -0.31567982 0
-2.6571341 -0.63288432 -0.31601074 0
-2.5456526 -0.64175558 -0.31655079 0
-2.477531 -0.66376126 -0.31760025 0
-2.3586822 -0.65764946 -0.31787392 0
-2.2712049 -0.6507988 -0.31840715 0
-2.1831732 -0.64255029 -0.31880477 0
-2.0471389 -0.65034342 -0.31928429 0
-1.9155134 -0.6543963 -0.32062474 0
-1.479435 -0.69012576 -0.32151538 0
-1.3494358 -0.66030526 -0.32321775 0
-1.2470913 -0.65453768 -0.32350677 0
-1.1545489 -0.64294749 -0.32316878 0
-1.0449548 -0.6543107 -0.32332808 0
-0.98413169 -0.69582671 -0.32295221 0
1.0693949 -0.6513238 -0.33319101 0
1.1505661 -0.65313309 -0.33420914 0
1.2581261 -0.65412271 -0.33451936 0
1.3422613 -0.64514208 -0.33552796 0
1.451194 -0.63702339 -0.33530855 0
1.5656458 -0.66332495 -0.33547741 0
1.6465801 -0.64264363 -0.33608708 0
1.760973 -0.65004456 -0.337639 0
1.8530946 -0.64056599 -0.33763731 0
1.9556332 -0.65250021 -0.33717886 0
2.0333145 -0.64628601 -0.33634892 0
2.137135 -0.65430027 -0.33737382 0
2.2443767 -0.65026361 -0.33819228 0
2.36287 -0.65288997 -0.33937481 0
2.4703934 -0.63204968 -0.34037521 0
2.5743656 -0.65865666 -0.34079143 0
2.6721239 -0.65327764 -0.34144619 0
2.7150846 -0.63280678 -0.34231365 0
-3.5448594 -0.53675258 -0.31367767 0
-3.4612279 -0.5749194 -0.31370762 0
-3.3717248 -0.56005323 -0.3142783 0
-3.2822218 -0.54518712 -0.31484899 0
-3.1640522 -0.54880607 -0.3152591 0
-3.0461264 -0.55114943 -0.31567633 0
-2.9385469 -0.53875887 -0.31610286 0
-2.8366632 -0.56220156 -0.31607392 0
-2.7154195 -0.55150741 -0.31685042 0
-2.6225679 -0.55222279 -0.31738248 0
-2.5268214 -0.55092961 -0.31756476 0
-2.4793205 -0.54061675 -0.31788185 0
-2.3555865 -0.54213285 -0.31840286 0
-2.2363293 -0.55512184 -0.3191089 0
-2.1248572 -0.55986786 -0.32001761 0
-2.0362825 -0.55208093 -0.32019317 0
-1.9403999 -0.54109168 -0.32102865 0
-1.8306897 -0.5104835 -0.32196441 0
-1.2098532 -0.58567798 -0.32376385 0
-1.1375453 -0.57079977 -0.32341096 0
-1.0711973 -0.55686766 -0.32359049 0
1.1496613 -0.55273294 -0.33543754 0
1.2599161 -0.54144579 -0.33660457 0
1.3430086 -0.55954558 -0.33621493 0
1.4472646 -0.55653942 -0.33623484 0
1.55515 -0.54369366 -0.33711892 0
1.647572 -0.56126004 -0.33840403 0
1.7341031 -0.55123973 -0.33787966 0
1.8491272 -0.55872113 -0.33679864 0
1.9630444 -0.54438841 -0.33781639 0
2.0621042 -0.55509806 -0.33837867 0
2.155359 -0.5514608 -0.33904362 0
2.2449958 -0.54029071 -0.33925113 0
2.329217 -0.56055593 -0.33972311 0
2.4240904 -0.54669219 -0.34072527 0
2.5398207 -0.5602445 -0.34179172 0
2.643362 -0.54356337 -0.34234324 0
2.7244546 -0.54664284 -0.34223035 0
-3.5531712 -0.43435413 -0.31318384 0
-3.4761658 -0.45020255 -0.31389004 0
-3.3780675 -0.46217006 -0.31408101 0
-3.2592976 -0.43814787 -0.31453502 0
-3.1289895 -0.45095009 -0.3156091 0
-3.0150213 -0.45657742 -0.31637639 0
-2.9252234 -0.44298017 -0.31683487 0
-2.8347199 -0.4500787 -0.31748334 0
-2.745204 -0.45599008 -0.31827307 0
-2.6486237 -0.45938873 -0.31838292 0
-2.5533345 -0.44286636 -0.31910667 0
-2.4363265 -0.45856532 -0.31918365 0
-2.3338108 -0.43924931 -0.32006228 0
-2.2362587 -0.45416164 -0.31968081 0
-2.1510386 -0.452941 -0.3202247 0
-2.06517 -0.45031726 -0.32078943 0
-1.9634713 -0.4468236 -0.32126495 0
-1.8465692 -0.44443676 -0.32198805 0
-1.7635443 -0.45129013 -0.32250518 0
-1.6389832 -0.4318321 -0.32417977 0
-1.5642462 -0.42417419 -0.32433808 0
-1.495586 -0.41704071 -0.32440045 0
1.1734111 -0.44843283 -0.33666056 0
1.2352506 -0.44533777 -0.33682168 0
1.3602896 -0.45366266 -0.33616957 0
1.4501139 -0.43179941 -0.33737612 0
1.5418658 -0.453785 -0.33707747 0
1.657974 -0.45303622 -0.33705872 0
1.7605997 -0.45032278 -0.3378365 0
1.8435484 -0.45757198 -0.33830905 0
1.9285532 -0.44951808 -0.33862263 0
2.0541909 -0.46723568 -0.33844125 0
2.1364405 -0.43801704 -0.34064978 0
2.2663126 -0.4351877 -0.34178352 0
2.3691781 -0.46349701 -0.34173122 0
2.4637702 -0.44552195 -0.34217858 0
2.5486882 -0.46087781 -0.3422474 0
2.6406693 -0.43862686 -0.34255466 0
2.7394726 -0.45501268 -0.34267399 0
-3.5337152 -0.35523248 -0.31379801 0
-3.4067478 -0.36709958 -0.31486771 0
-3.3165665 -0.35738128 -0.31549266 0
-3.2263851 -0.34766302 -0.31611761 0
-3.1362035 -0.33794475 -0.3167426 0
-3.0379341 -0.34928933 -0.31678724 0
-2.9416595 -0.35960186 -0.31704956 0
-2.8516021 -0.34859127 -0.31761885 0
-2.7559574 -0.35690674 -0.31793305 0
-2.6659315 -0.34524477 -0.31843844 0
-2.5526407 -0.34923255 -0.31842476 0
-2.4440722 -0.3612676 -0.31917614 0
-2.3435791 -0.33762932 -0.3196032 0
-2.2576683 -0.35847202 -0.32046163 0
-2.1553702 -0.34993979 -0.32153147 0
-2.0558701 -0.34434706 -0.32190076 0
-1.9671216 -0.34845987 -0.3207885 0
-1.865182 -0.35109255 -0.32259691 0
-1.7522533 -0.34831953 -0.32273617 0
-1.6300294 -0.34738553 -0.32233134 0
-1.5455868 -0.3485859 -0.32330838 0
-1.4418502 -0.36171064 -0.32383776 0
-1.3520201 -0.33576593 -0.32393691 0
1.1858263 -0.37687171 -0.33340153 0
1.2494509 -0.34844428 -0.33692843 0
1.3457797 -0.34427229 -0.33687514 0
1.4358839 -0.35113329 -0.33710879 0
1.5663353 -0.35327688 -0.33755133 0
1.6457825 -0.34644344 -0.33851162 0
1.7237982 -0.35006583 -0.33892721 0
1.8585007 -0.34711701 -0.34022468 0
1.9561988 -0.35372928 -0.34091267 0
2.0378778 -0.35346532 -0.34130034 0
2.1269999 -0.35331374 -0.34193861 0
2.220134 -0.33616653 -0.34213588 0
2.3482623 -0.35556841 -0.34236589 0
2.4772687 -0.33896506 -0.34222826 0
2.5629385 -0.35068464 -0.34247056 0
2.650861 -0.34341764 -0.34282166 0
2.7617846 -0.34560043 -0.34347373 0
-3.5830488 -0.25685978 -0.31428015 0
-3.4512944 -0.24741465 -0.31488761 0
-3.3153389 -0.23766834 -0.31551442 0
-3.2247019 -0.23117079 -0.3159323 0
-3.1340647 -0.22467324 -0.31635019 0
-3.0434277 -0.21817571 -0.31676808 0
-2.9564738 -0.25462639 -0.31762981 0
-2.8660498 -0.24684331 -0.31817502 0
-2.7797351 -0.27943739 -0.31941867 0
-2.6895242 -0.27036881 -0.32009116 0
-2.5951152 -0.27963504 -0.32049233 0
-2.2727175 -0.2943902 -0.32074779 0
-2.1466403 -0.27805915 -0.32172334 0
-2.0172658 -0.27598348 -0.32248753 0
-1.8717834 -0.29715282 -0.32009262 0
-1.7430735 -0.28513262 -0.32216108 0
-1.6303383 -0.27676564 -0.32322019 0
-1.5475067 -0.28374791 -0.32349917 0
-1.4541057 -0.27369738 -0.32446298 0
-1.3638448 -0.26446623 -0.32513982 0
-1.2558205 -0.25509959 -0.32546514 0
-1.1916096 -0.24207032 -0.32587868 0
1.2549477 -0.25590691 -0.33738393 0
1.3555058 -0.24510305 -0.33801016 0
1.437057 -0.25986636 -0.33746886 0
1.548739 -0.25210387 -0.33842823 0
1.6662782 -0.24009693 -0.33924228 0
1.7299926 -0.24928872 -0.33979279 0
1.8504958 -0.25288814 -0.34020075 0
1.9711914 -0.25535017 -0.34064585 0
2.0526788 -0.25098574 -0.34098735 0
2.139652 -0.24917051 -0.34160084 0
2.2275562 -0.23998219 -0.34154856 0
2.3322802 -0.25993854 -0.34175527 0
2.4488273 -0.2461713 -0.34310377 0
2.5795405 -0.24067993 -0.34361133 0
2.6657951 -0.2487276 -0.34398302 0
2.7691598 -0.25030473 -0.34438837 0
-3.6035841 -0.15483344 -0.31556317 0
-3.5143178 -0.15099797 -0.31598693 0
-3.4235077 -0.14709619 -0.31641802 0
-3.3326974 -0.14319438 -0.31684911 0
-3.2418871 -0.13929258 -0.3172802 0
-3.151077 -0.13539079 -0.31771129 0
-3.0602667 -0.13148899 -0.31814238 0
-2.9694567 -0.1275872 -0.31857347 0
-2.8786464 -0.1236854 -0.31900457 0
-2.7796764 -0.15923333 -0.31872869 0
-2.6613739 -0.14001578 -0.31953475 0
-2.5902424 -0.18568799 -0.31885749 0
1.2497388 -0.15272193 -0.33742639 0
1.3496612 -0.15054812 -0.33808076 0
1.456383 -0.15837447 -0.33867595 0
1.5344565 -0.15422967 -0.33949122 0
1.6402092 -0.14768539 -0.33969668 0
1.7447991 -0.15022069 -0.3404521 0
1.8393027 -0.1501582 -0.34055716 0
1.9591253 -0.16011742 -0.34181365 0
2.0654123 -0.14821938 -0.34145278 0
2.150342 -0.13485323 -0.34195578 0
2.2409298 -0.14453022 -0.34233376 0
2.3273804 -0.15010557 -0.34269962 0
2.4343729 -0.16598283 -0.34308326 0
2.5456696 -0.14591855 -0.3437618 0
2.6754148 -0.15335408 -0.34431094 0
2.7619119 -0.1583111 -0.344677 0
2.807024 -0.14070314 -0.34511504 0
-3.6002021 -0.051540907 -0.31500867 0
-3.525275 -0.050468244 -0.31550017 0
-3.4345236 -0.049169037 -0.31609544 0
-3.3437724 -0.047869828 -0.31669074 0
-3.253021 -0.046570621 -0.31728604 0
-3.1622696 -0.045271415 -0.31788135 0
-3.0715182 -0.043972205 -0.31847662 0
-2.9807668 -0.042672999 -0.31907192 0
-2.8900154 -0.041373789 -0.31966722 0
-2.7538881 -0.039424978 -0.32056016 0
-2.6177611 -0.037476167 -0.32145309 0
1.2599998 -0.05424808 -0.33802918 0
1.3604052 -0.048760388 -0.33815128 0
1.4648622 -0.049130596 -0.33901808 0
1.5395026 -0.054991849 -0.33899176 0
1.652843 -0.047259126 -0.33990759 0
1.7509776 -0.051467922 -0.34065396 0
1.8433937 -0.060867578 -0.34040272 0
1.9525843 -0.046630491 -0.34163478 0
2.0578814 -0.051377203 -0.34212297 0
2.1608543 -0.041903783 -0.34278324 0
2.2487113 -0.048182845 -0.34303221 0
2.3355091 -0.050047666 -0.34354946 0
2.4223063 -0.051912498 -0.34406671 0
2.5412278 -0.061917663 -0.34461623 0
2.664243 -0.04779774 -0.34570745 0
2.7694962 -0.059371788 -0.34613571 0
2.824677 -0.040444072 -0.34687066 0
1.2626066 0.045258101 -0.33860028 0
1.3586929 0.048691332 -0.33890358 0
1.4634354 0.05088684 -0.33968002 0
1.544109 0.055262096 -0.34037703 0
1.6560603 0.047402106 -0.34158871 0
1.7629627 0.054752376 -0.34294337 0
1.8429006 0.052828643 -0.34306386 0
1.9385608 0.046965495 -0.34321743 0
2.0500619 0.049757324 -0.34332976 0
2.1667528 0.04652296 -0.34363693 0
2.2557418 0.048429575 -0.34403792 0
2.3424375 0.050292332 -0.34443071 0
2.4291337 0.052155096 -0.34482351 0
2.5365887 0.063770957 -0.3453303 0
2.6552756 0.049568366 -0.34583205 0
2.7759178 0.059606154 -0.34639463 0
2.8209548 0.040437266 -0.34641364 0
-3.6239798 0.15570977 -0.3173492 0
-3.5396237 0.15208529 -0.31786913 0
-3.4488587 0.14818543 -0.31842858 0
-3.3580937 0.14428559 -0.31898803 0
-3.267329 0.14038573 -0.31954744 0
-3.176564 0.13648587 -0.32010689 0
-3.0857992 0.13258603 -0.32066634 0
-2.9496517 0.12673625 -0.32150549 0
-2.8135045 0.12088647 -0.32234466 0
-2.7227397 0.11698662 -0.32290408 0
-2.6319747 0.11308677 -0.32346353 0
1.2591785 0.14479758 -0.33972037 0
1.3525784 0.15555099 -0.33995759 0
1.4602487 0.14600843 -0.34069794 0
1.540652 0.15478519 -0.34087041 0
1.6485826 0.14834172 -0.34151021 0
1.7536054 0.15090697 -0.34216937 0
1.8338654 0.15781897 -0.34261739 0
1.9489613 0.15373605 -0.34324756 0
2.0558164 0.14252345 -0.34438255 0
2.1703329 0.13995063 -0.34499061 0
2.2601914 0.14574613 -0.34539446 0
2.3467696 0.15133215 -0.34578434 0
2.4333475 0.15691823 -0.34617424 0
2.5199254 0.16250427 -0.34656414 0
2.6509728 0.15190811 -0.34665442 0
2.7807312 0.1593461 -0.34708107 0
2.823595 0.1415813 -0.34715262 0
-3.4456587 0.29663432 -0.31833869 0
-3.3552275 0.28884915 -0.31900513 0
-3.2647965 0.281064 -0.31967157 0
-3.1743655 0.27327886 -0.32033798 0
-3.0839343 0.26549372 -0.32100442 0
-2.948288 0.25381601 -0.32200408 0
-2.8126411 0.24213828 -0.32300371 0
-2.7222099 0.23435313 -0.32367015 0
-2.631779 0.22656798 -0.32433659 0
-2.2453418 0.2908442 -0.32435834 0
-2.1182978 0.2743879 -0.32461211 0
-2.0323451 0.27806154 -0.32489848 0
-1.8437256 0.2926985 -0.32436985 0
-1.7261195 0.28671858 -0.32505381 0
-1.6374156 0.27796748 -0.32482797 0
-1.53798 0.27815151 -0.32714647 0
-1.4649433 0.27577892 -0.32735288 0
-1.3698299 0.26180643 -0.32759947 0
-1.2523552 0.24658763 -0.32907313 0
-1.1961062 0.26985195 -0.32859254 0
1.2406305 0.25201464 -0.33931586 0
1.3450588 0.25298318 -0.34086317 0
1.4578154 0.24526091 -0.34202686 0
1.5449513 0.25277218 -0.34199288 0
1.6503146 0.2496687 -0.34201479 0
1.740939 0.25085098 -0.3419424 0
1.824976 0.24969189 -0.34305426 0
1.9394251 0.24507366 -0.34369522 0
2.0660512 0.25263205 -0.3448256 0
2.1592925 0.24841185 -0.34513405 0
2.249831 0.24249794 -0.34519601 0
2.3362389 0.25181043 -0.34573174 0
2.4226468 0.26112291 -0.34626755 0
2.5359619 0.24872069 -0.34605959 0
2.6515975 0.24741152 -0.34754258 0
2.7711077 0.25855747 -0.3480092 0
2.8264644 0.2432555 -0.34833747 0
-3.6113212 0.31089607 -0.31711784 0
-3.5360899 0.30441946 -0.31767225 0
-2.6138587 0.338579 -0.32362229 0
-2.5575607 0.35622391 -0.32261494 0
-2.4511704 0.35323274 -0.32347941 0
-2.3667371 0.34106445 -0.3237243 0
-2.2684307 0.36836275 -0.3257083 0
-2.1409972 0.34491754 -0.32510814 0
-2.0311019 0.35234064 -0.32664007 0
-1.9641612 0.35531271 -0.32609245 0
-1.8486525 0.3480463 -0.32689008 0
-1.742083 0.36042351 -0.32617423 0
-1.6375148 0.34591001 -0.32797965 0
-1.5450045 0.35676417 -0.32768676 0
-1.4533269 0.34982508 -0.32827276 0
-1.3677176 0.33257732 -0.32875818 0
-1.2546182 0.32095987 -0.32941628 0
-1.1844875 0.31209183 -0.32821396 0
1.2493442 0.35301414 -0.34138927 0
1.3466384 0.34742874 -0.34175256 0
1.4395468 0.34325784 -0.34241423 0
1.5413564 0.359274 -0.34315142 0
1.6515056 0.34428814 -0.34379619 0
1.7353535 0.35247722 -0.3442499 0
1.8543983 0.34918681 -0.34402299 0
1.9760545 0.34283072 -0.34445494 0
2.0560591 0.34152794 -0.34477258 0
2.1464305 0.35653967 -0.34545952 0
2.2417881 0.33935013 -0.34577489 0
2.3444571 0.36371148 -0.34596857 0
2.4224939 0.34909475 -0.34711921 0
2.5516527 0.34911859 -0.34776863 0
2.6832004 0.34757668 -0.34864092 0
2.7693315 0.35873112 -0.34908068 0
2.8213851 0.34493056 -0.3490251 0
-2.6036556 0.45168138 -0.32448527 0
-2.5338268 0.43955043 -0.32467219 0
-2.4469388 0.46053097 -0.32576162 0
-2.3629668 0.44472036 -0.32595241 0
-2.261934 0.45936158 -0.32513174 0
-2.1779463 0.44230232 -0.32504383 0
-2.0402946 0.45843923 -0.32673588 0
-1.9684948 0.44690141 -0.3255024 0
-1.8563715 0.44409329 -0.32715985 0
-1.7528715 0.44871023 -0.32823175 0
-1.646801 0.4340398 -0.32849416 0
-1.58781 0.41836029 -0.32852542 0
1.1880264 0.463781 -0.3417705 0
1.2487524 0.44183356 -0.34192252 0
1.3639742 0.45761427 -0.34200299 0
1.4368654 0.44249082 -0.34231329 0
1.5665281 0.44889769 -0.34344354 0
1.6428428 0.45809525 -0.34485951 0
1.7239214 0.45148677 -0.3451561 0
1.8423605 0.45256492 -0.34588516 0
1.962104 0.44251874 -0.34562281 0
2.0442276 0.44570339 -0.34607336 0
2.135946 0.44976076 -0.34635749 0
2.2325811 0.43680894 -0.34698355 0
2.3177881 0.45348081 -0.34738481 0
2.4556024 0.45123798 -0.34768605 0
2.5750785 0.44675332 -0.34770256 0
2.6656199 0.44277772 -0.34804818 0
2.7512598 0.45700249 -0.34847268 0
2.8031893 0.44503486 -0.34850734 0
-2.6051848 0.5291208 -0.32654083 0
-2.5508723 0.55625278 -0.32563949 0
-2.4484527 0.54607064 -0.32525975 0
-2.3409059 0.54578358 -0.32607856 0
-2.2533433 0.55928904 -0.32664675 0
-2.1703613 0.53868848 -0.32680425 0
-2.0793207 0.54783452 -0.32682872 0
-1.9727217 0.54151326 -0.3267231 0
-1.8512965 0.51622975 -0.32740685 0
-1.3001331 0.59528852 -0.33012602 0
-1.2306527 0.58492404 -0.32998517 0
-1.1461262 0.56108487 -0.33115578 0
-1.0968927 0.58040738 -0.33254337 0
1.1527365 0.54790545 -0.3420918 0
1.2501142 0.56154859 -0.34285191 0
1.3633076 0.5532285 -0.34459877 0
1.4381875 0.53777784 -0.34593663 0
1.54352 0.55222225 -0.34468758 0
1.6551406 0.55752093 -0.34439999 0
1.7448974 0.53637266 -0.34476495 0
1.8556751 0.54605824 -0.34566799 0
1.9462979 0.54265356 -0.34661454 0
2.0446532 0.562433 -0.34696892 0
2.1213393 0.54276222 -0.34755087 0
2.2278817 0.55654961 -0.34770861 0
2.3557878 0.53833783 -0.34795398 0
2.4753029 0.55835825 -0.34838128 0
2.5647504 0.54004735 -0.34849575 0
2.6497283 0.55793947 -0.34891966 0
2.7650394 0.55119979 -0.34940234 0
2.8005979 0.5479635 -0.35038996 0
-2.5614738 0.64367408 -0.32614741 0
-2.4392447 0.65030837 -0.32557932 0
-2.3175664 0.64632869 -0.32597587 0
-2.230294 0.65646297 -0.32676753 0
-2.1467142 0.64865828 -0.32761991 0
-2.0587106 0.65435851 -0.3285116 0
-1.9656111 0.65578741 -0.32823309 0
-1.5330056 0.68845034 -0.33203214 0
-1.4257053 0.67765826 -0.33094874 0
-1.3533974 0.65515882 -0.33050072 0
-1.2592515 0.64318222 -0.33024997 0
-1.1453197 0.65939468 -0.33198923 0
-1.0491847 0.65518063 -0.33157554 0
1.0848236 0.6773994 -0.34270179 0
1.1497797 0.64255267 -0.34321627 0
1.2450608 0.64740795 -0.34359398 0
1.3367735 0.64709973 -0.34359437 0
1.4507526 0.65175527 -0.34422854 0
1.5589625 0.65191001 -0.34544548 0
1.6492424 0.64232945 -0.345155 0
1.738464 0.64993405 -0.34548619 0
1.8373232 0.66020751 -0.34592685 0
1.9486693 0.6502791 -0.34590757 0
2.0740905 0.65600562 -0.34674224 0
2.1507225 0.63670468 -0.34737253 0
2.2744381 0.65175503 -0.34817266 0
2.3676839 0.64199156 -0.34854832 0
2.4515209 0.66472429 -0.34896633 0
2.5464327 0.65148622 -0.34933648 0
2.6343806 0.65391493 -0.34989059 0
2.7427554 0.65167373 -0.34985811 0
-2.5436699 0.74880868 -0.32559705 0
-2.4721682 0.74690163 -0.32655084 0
-2.3544993 0.7370826 -0.32763791 0
-2.242157 0.75417906 -0.32954115 0
-2.1317358 0.76248872 -0.32835391 0
-2.0199156 0.75530601 -0.32813451 0
-1.9338132 0.75478029 -0.32881096 0
-1.7461646 0.76947522 -0.33154863 0
-1.6495798 0.76112002 -0.33133957 0
-1.5342445 0.75632042 -0.33113062 0
-1.4686553 0.75029588 -0.33111805 0
-1.3528566 0.74055248 -0.33120269 0
-1.2399927 0.75145406 -0.33301389 0
-1.1492436 0.75244278 -0.33324519 0
-1.0584018 0.74251091 -0.33343011 0
-0.97768891 0.76760328 -0.3331075 0
1.0431952 0.75168395 -0.34260464 0
1.1437593 0.75657582 -0.34323278 0
1.2613667 0.7536996 -0.34297749 0
1.3460511 0.73589033 -0.34544978 0
1.4543805 0.75628263 -0.34514627 0
1.5654683 0.77168584 -0.34531754 0
1.6412544 0.73734492 -0.34521502 0
1.7668546 0.74873918 -0.34632337 0
1.854003 0.75742728 -0.34654731 0
1.9568523 0.74767083 -0.34650782 0
2.0506699 0.75417721 -0.34665275 0
2.1505091 0.75196093 -0.34766886 0
2.2414706 0.74780989 -0.34810054 0
2.3360298 0.74240714 -0.34893823 0
2.4264321 0.75209975 -0.3497237 0
2.5347116 0.76582056 -0.35027349 0
2.6404343 0.74319106 -0.35018161 0
2.742759 0.74371499 -0.35023922 0
-2.5332236 0.86536098 -0.32927996 0
-2.4497521 0.83679897 -0.32885718 0
-2.3567979 0.84298921 -0.32912984 0
-2.2613013 0.84556341 -0.32861531 0
-2.1736295 0.84838086 -0.32897681 0
-2.0597849 0.83812022 -0.3286058 0
-1.9397358 0.84156501 -0.32947057 0
-1.8621633 0.86877513 -0.33061248 0
-1.7470504 0.84571934 -0.33076411 0
-1.653842 0.85997164 -0.33115143 0
-1.5474459 0.84724528 -0.33191705 0
-1.452256 0.85553998 -0.33135369 0
-1.3414177 0.85110164 -0.33260748 0
-1.2365118 0.83856666 -0.33422944 0
-1.1636698 0.8496691 -0.33416015 0
-1.0521234 0.84358305 -0.33366042 0
-0.94405347 0.84466588 -0.33296317 0
-0.88217324 0.88535327 -0.33491382 0
0.95097256 0.85085243 -0.34201765 0
1.0349281 0.84721363 -0.34320325 0
1.143705 0.85878342 -0.34369469 0
1.2291908 0.85404819 -0.34471136 0
1.3376478 0.85623533 -0.343247 0
1.4487727 0.85649192 -0.34597611 0
1.5536125 0.85473591 -0.34703681 0
1.6556593 0.84587961 -0.34632614 0
1.7370393 0.85626805 -0.34629971 0
1.8302803 0.85388845 -0.34672797 0
1.9586965 0.8673929 -0.34706101 0
2.0268779 0.83744657 -0.34790599 0
2.1365819 0.84263378 -0.34734932 0
2.2369616 0.85467982 -0.34847298 0
2.3524506 0.84148121 -0.34924686 0
2.4554284 0.83242494 -0.34983036 0
2.5722568 0.85817581 -0.35098514 0
2.6682994 0.84801072 -0.35174379 0
2.7391796 0.84903866 -0.3521235 0
-2.5143886 0.926543 -0.32921997 0
-2.4457183 0.95458448 -0.329254 0
-2.3169694 0.94276762 -0.32885951 0
-2.2291269 0.94448537 -0.32905051 0
-2.139364 0.94282991 -0.32956347 0
-2.0450981 0.95410264 -0.33007061 0
-1.9555547 0.94670886 -0.33046865 0
-1.8595929 0.95010108 -0.33076799 0
-1.759853 0.94728488 -0.33126107 0
-1.6481516 0.94891065 -0.33140087 0
-1.5459549 0.95906889 -0.33207813 0
-1.434202 0.93907231 -0.33263743 0
-1.3616276 0.96273994 -0.33275419 0
-1.2560709 0.95457488 -0.33364323 0
-1.1439571 0.93837047 -0.33407083 0
-1.0549294 0.95763725 -0.33383733 0
-0.94640458 0.94979894 -0.33456421 0
-0.84703469 0.95348877 -0.33523569 0
-0.77420354 0.97906357 -0.33447146 0
0.85850972 0.95267856 -0.34376717 0
0.95203137 0.94192135 -0.34346309 0
1.062104 0.9641549 -0.34329998 0
1.1467019 0.9458937 -0.34377533 0
1.2435007 0.9475894 -0.34448835 0
1.3439302 0.96468765 -0.34599853 0
1.4607008 0.95275658 -0.34490475 0
1.5399004 0.94150931 -0.34589365 0
1.6446968 0.95336914 -0.34784108 0
1.7530129 0.94995558 -0.34839496 0
1.8591192 0.93304318 -0.34745991 0
1.9726071 0.95492363 -0.34793028 0
2.073472 0.94940078 -0.34820351 0
2.1739666 0.93940622 -0.34885344 0
2.2693043 0.94233018 -0.34967318 0
2.3591597 0.94043475 -0.34949088 0
2.4536521 0.93747979 -0.34987983 0
2.539757 0.94954437 -0.34980613 0
2.6415398 0.96616757 -0.35068011 0
2.7142057 0.9271881 -0.35217956 0
-2.4650431 1.0444071 -0.32912999 0
-2.3566294 1.0385475 -0.32954544 0
-2.2564595 1.0463738 -0.33027378 0
-2.16308 1.0408934 -0.32993585 0
-2.0566094 1.0580001 -0.33061939 0
-1.9347843 1.0474948 -0.33010915 0
-1.8305312 1.0366466 -0.33124086 0
-1.7540795 1.0607409 -0.33169347 0
-1.6447197 1.043489 -0.33238351 0
-1.5414107 1.0570338 -0.33257106 0
-1.4470772 1.054567 -0.33270764 0
-1.3490186 1.0460998 -0.33354416 0
-1.2442355 1.050808 -0.33490583 0
-1.1555183 1.0582055 -0.33517969 0
-1.0448066 1.0402409 -0.33452681 0
-0.96238965 1.0677671 -0.33632845 0
-0.84660554 1.054889 -0.3361516 0
-0.74577445 1.0468912 -0.33548829 0
-0.66180444 1.0683289 -0.33680221 0
0.66380435 1.0887474 -0.34169814 0
0.75075525 1.0538301 -0.34470874 0
0.84130931 1.0484252 -0.34423006 0
0.94365096 1.0470846 -0.34426263 0
1.0536174 1.0529549 -0.34477547 0
1.1593113 1.0524385 -0.34502465 0
1.2442836 1.0488144 -0.34523869 0
1.3474793 1.0577269 -0.34594607 0
1.4457321 1.0462571 -0.34702805 0
1.5381632 1.0549178 -0.3475076 0
1.6308261 1.051159 -0.34721625 0
1.7317901 1.0471052 -0.34778121 0
1.8537017 1.0556601 -0.34758082 0
1.9390188 1.0437064 -0.34998783 0
2.0354698 1.0584121 -0.35016224 0
2.1293101 1.0497097 -0.34990683 0
2.2258794 1.0384942 -0.34994248 0
2.3385551 1.0506065 -0.35058054 0
2.445868 1.0432634 -0.35111964 0
2.5453801 1.042956 -0.35155606 0
2.6470361 1.0551057 -0.35186028 0
-2.4383008 1.1305181 -0.33014831 0
-2.3498135 1.158386 -0.32941177 0
-2.2408643 1.1448854 -0.32994261 0
-2.1497173 1.1372749 -0.33017224 0
-2.0432899 1.1571451 -0.33088496 0
-1.955084 1.144362 -0.33160236 0
-1.8592856 1.1425916 -0.33214107 0
-1.7526902 1.145528 -0.33279979 0
-1.6531464 1.1477662 -0.33294332 0
-1.5543492 1.1532068 -0.333087 0
-1.4532523 1.1577717 -0.33417714 0
-1.3419826 1.1426868 -0.33585596 0
-1.2563251 1.15695 -0.33572757 0
-1.1526257 1.1566919 -0.33576426 0
-1.0581809 1.1505715 -0.33728236 0
-0.93702149 1.141959 -0.33727488 0
-0.84737295 1.1648455 -0.33585748 0
-0.74049944 1.1530491 -0.33653951 0
-0.64493263 1.1386544 -0.33746493 0
-0.55272126 1.1417193 -0.33582437 0
-0.44680181 1.181904 -0.33866465 0
0.47006595 1.1917715 -0.34331104 0
0.54583037 1.1591581 -0.34340939 0
0.63920414 1.1576961 -0.34343159 0
0.75028574 1.1496035 -0.3450399 0
0.86347693 1.1586252 -0.34336901 0
0.95063555 1.1432903 -0.34383693 0
1.0355006 1.1489116 -0.34535477 0
1.1464595 1.1505616 -0.34611785 0
1.2697816 1.1527274 -0.34640801 0
1.3616283 1.1499072 -0.34647286 0
1.4481933 1.13686 -0.3472271 0
1.5633192 1.1564474 -0.34795427 0
1.6577199 1.1402776 -0.34895009 0
1.7672237 1.1390604 -0.34878603 0
1.8619894 1.1626384 -0.34986383 0
1.9410046 1.1454167 -0.35045776 0
2.0412366 1.1495343 -0.34943128 0
2.1686802 1.1372809 -0.35136867 0
2.2773101 1.1430298 -0.35144195 0
2.3704596 1.1475126 -0.35219753 0
2.463167 1.1492028 -0.35230687 0
2.5582368 1.1493082 -0.35270855 0
2.6318665 1.1597692 -0.35314566 0
-2.3551657 1.2459632 -0.32973513 0
-2.2494667 1.2458162 -0.32918012 0
-2.1503587 1.2381192 -0.33164683 0
-2.0434666 1.2558244 -0.33202538 0
-1.9374961 1.2358011 -0.33256176 0
-1.8510112 1.2500073 -0.333424 0
-1.7308401 1.2424852 -0.33294138 0
-1.6538254 1.2603755 -0.33303443 0
-1.5557897 1.2577078 -0.33493707 0
-1.4521253 1.2550083 -0.33516744 0
-1.3493718 1.2499872 -0.33585268 0
-1.2406363 1.2450931 -0.33646885 0
-1.1585081 1.2670947 -0.33728018 0
-1.0562829 1.2417519 -0.33756807 0
