# .PCD v0.7 - Point Cloud Data file format
VERSION 0.7
FIELDS x y z intensity
SIZE 4 4 4 4
TYPE F F F F
COUNT 1 1 1 1
WIDTH 1368
HEIGHT 1
VIEWPOINT 0 0 0 1 0 0 0
POINTS 1368
DATA ascii
-2.1775737 -0.62399149 -0.3003878 0
-2.0868838 -0.61424482 -0.30137858 0
-1.4389713 -0.67663389 -0.31107396 0
-1.3440623 -0.65471011 -0.3132154 0
-1.2514323 -0.63440472 -0.31449187 0
-1.1628391 -0.6556381 -0.31448805 0
-1.0548637 -0.64816064 -0.31809384 0
-0.97773981 -0.67057574 -0.31774479 0
1.1490842 -0.64796853 -0.34929186 0
1.2574025 -0.65024966 -0.35172373 0
1.368585 -0.66059661 -0.35380951 0
1.440881 -0.63360184 -0.35621861 0
1.5535823 -0.64096934 -0.35761777 0
1.6445696 -0.64185619 -0.3577736 0
1.7340382 -0.65079468 -0.35910359 0
1.8373287 -0.64992428 -0.36036515 0
1.9430059 -0.65460968 -0.36267176 0
2.0502727 -0.64528728 -0.36428002 0
2.1670306 -0.66071743 -0.36521855 0
2.228265 -0.63858277 -0.36715385 0
2.3326521 -0.66849083 -0.36843872 0
2.4526653 -0.64625895 -0.37011164 0
2.565619 -0.64688826 -0.37186068 0
2.673547 -0.6636461 -0.37354058 0
2.7507198 -0.63435227 -0.37574816 0
2.8719862 -0.64768744 -0.37757313 0
2.9685082 -0.64724112 -0.37921947 0
3.0240383 -0.65941215 -0.38003942 0
4.6507139 -0.6362769 -0.38907388 0
4.7373319 -0.64812738 -0.37512198 0
4.8239503 -0.65997785 -0.36117011 0
4.9538779 -0.67775357 -0.34024227 0
5.0838051 -0.69552934 -0.31931445 0
-2.1303153 -0.54467255 -0.30096444 0
-2.0223668 -0.54841274 -0.30273581 0
-1.9416744 -0.54139787 -0.30461967 0
-1.8581591 -0.53244734 -0.30615497 0
-1.2297792 -0.57719541 -0.31364027 0
-1.1430107 -0.56919557 -0.31594259 0
-1.0504196 -0.55580676 -0.31856146 0
1.1838198 -0.56266081 -0.35125387 0
1.2563267 -0.54836738 -0.35412392 0
1.3425977 -0.55765468 -0.3543511 0
1.4322282 -0.54718709 -0.35541853 0
1.5469137 -0.55323029 -0.35702384 0
1.6586576 -0.54027575 -0.35888019 0
1.7692283 -0.54834622 -0.36066917 0
1.8596832 -0.54733545 -0.36191973 0
1.9480302 -0.54317296 -0.36325473 0
2.0322495 -0.55104226 -0.3641952 0
2.1489022 -0.55647397 -0.3655346 0
2.2429237 -0.53550017 -0.36687034 0
2.3380172 -0.56256467 -0.36832246 0
2.4404776 -0.5503509 -0.37090686 0
2.5365732 -0.55305409 -0.37295067 0
2.6283038 -0.55337554 -0.37431249 0
2.7221358 -0.5528695 -0.37565884 0
2.8330033 -0.55432296 -0.37700838 0
2.9592876 -0.54990572 -0.37858275 0
3.0367553 -0.53804338 -0.37990516 0
-2.303551 -0.43362567 -0.30075437 0
-2.2188785 -0.4507111 -0.30105823 0
-2.132117 -0.44895032 -0.30198744 0
-2.0485437 -0.44665924 -0.30314198 0
-1.9613893 -0.44232923 -0.30404022 0
-1.8680156 -0.44949713 -0.30556989 0
-1.7757946 -0.44079232 -0.30673656 0
-1.6589233 -0.42444861 -0.30860263 0
-1.5474448 -0.40772477 -0.31105813 0
1.248423 -0.45950776 -0.35162526 0
1.3541358 -0.44712204 -0.35475132 0
1.4664708 -0.44468129 -0.35600147 0
1.554895 -0.44552788 -0.35719609 0
1.6323601 -0.45513844 -0.35864377 0
1.7518264 -0.46497837 -0.36063358 0
1.8250206 -0.43928853 -0.36238384 0
1.9514824 -0.43441612 -0.36466593 0
2.0618336 -0.44959086 -0.36566028 0
2.1474099 -0.45222875 -0.36738515 0
2.2706153 -0.44430566 -0.36938322 0
2.3775666 -0.46522093 -0.37090269 0
2.4747641 -0.44747376 -0.37260413 0
2.561657 -0.46318793 -0.37371954 0
2.6531551 -0.44068602 -0.37499642 0
2.7403975 -0.45517492 -0.37625253 0
2.8336539 -0.44990876 -0.37801737 0
2.9245989 -0.44288501 -0.37941876 0
3.0465913 -0.43903908 -0.38171178 0
-2.333998 -0.33640909 -0.30045724 0
-2.2447011 -0.35636067 -0.30163565 0
-2.162585 -0.34332538 -0.30305758 0
-2.0578458 -0.34946403 -0.30512795 0
-1.9390198 -0.33174816 -0.30682182 0
-1.8682876 -0.35496616 -0.3060005 0
-1.7450075 -0.367419 -0.30864331 0
-1.6465061 -0.34665513 -0.3106671 0
-1.5510379 -0.3542603 -0.31133398 0
-1.4528961 -0.34320083 -0.31334272 0
-1.3428247 -0.33332077 -0.31431863 0
-1.2445627 -0.32148847 -0.31487286 0
-1.1422131 -0.30095324 -0.31649998 0
1.2739731 -0.35509816 -0.35447776 0
1.3487966 -0.3450931 -0.35530376 0
1.4504693 -0.35406232 -0.35669073 0
1.5296774 -0.34869528 -0.35867822 0
1.6584558 -0.34915367 -0.36069295 0
1.745955 -0.35457003 -0.36122584 0
1.8279269 -0.3413811 -0.36165005 0
1.9402094 -0.35671896 -0.36315677 0
2.0501618 -0.33460981 -0.36572102 0
2.161988 -0.35905728 -0.36748359 0
2.2549372 -0.34140611 -0.36950803 0
2.3232749 -0.35183445 -0.3704038 0
2.4450293 -0.36115837 -0.37245825 0
2.5607262 -0.34116533 -0.37426215 0
2.6743608 -0.34638524 -0.37605 0
2.7620833 -0.35774833 -0.37729144 0
2.8515759 -0.34862792 -0.37880659 0
2.9433033 -0.33850604 -0.38034987 0
3.0496929 -0.35820094 -0.38171569 0
3.1055474 -0.33464703 -0.38352016 0
-2.2552645 -0.29212949 -0.30196422 0
-2.1727393 -0.28143981 -0.30333889 0
-2.0586469 -0.27676088 -0.30487424 0
-1.9444857 -0.27086878 -0.30617201 0
-1.8506045 -0.29379058 -0.30986199 0
-1.7320213 -0.28767878 -0.3097077 0
-1.6556407 -0.27499557 -0.310449 0
-1.5746788 -0.27980924 -0.31256357 0
-1.4475989 -0.27246869 -0.31407246 0
-1.3436582 -0.2629157 -0.31613079 0
-1.2485765 -0.25853518 -0.31592527 0
-1.1542901 -0.24301571 -0.31616518 0
1.2946683 -0.2581386 -0.35381219 0
1.3645468 -0.24677978 -0.35715136 0
1.4491707 -0.24060845 -0.35821131 0
1.5293314 -0.25397408 -0.35925484 0
1.652078 -0.24995764 -0.36090827 0
1.7649488 -0.25439897 -0.36219245 0
1.8491682 -0.25297511 -0.36358833 0
1.9355308 -0.25071225 -0.36462346 0
2.0208068 -0.24711253 -0.36621991 0
2.1435893 -0.26212147 -0.36811247 0
2.2546611 -0.23496439 -0.36996216 0
2.3286343 -0.25095508 -0.37097982 0
2.4167101 -0.26044461 -0.37235355 0
2.5590639 -0.24599271 -0.37450856 0
2.6834648 -0.25036034 -0.37658492 0
2.7717578 -0.25859812 -0.37805375 0
2.8625183 -0.24642327 -0.37960684 0
2.9508748 -0.25402963 -0.38107669 0
3.0392315 -0.26163602 -0.38254657 0
3.1149805 -0.2457286 -0.38368535 0
1.3503401 -0.14727391 -0.35712108 0
1.4496324 -0.15588565 -0.35920808 0
1.5474862 -0.15542087 -0.36078477 0
1.6295875 -0.15196145 -0.36142364 0
1.7382677 -0.15147601 -0.36312184 0
1.8609962 -0.16016747 -0.36498335 0
1.9580101 -0.15442401 -0.36668456 0
2.0383964 -0.14615418 -0.36725816 0
2.1461434 -0.14860226 -0.36848688 0
2.2661922 -0.14616244 -0.36984912 0
2.335784 -0.15062509 -0.37074506 0
2.4242306 -0.15633033 -0.37216809 0
2.533505 -0.16338399 -0.37380776 0
2.6630709 -0.1463645 -0.37600389 0
2.7790008 -0.15923728 -0.37772155 0
2.8701708 -0.14385076 -0.37925562 0
2.9586484 -0.14828743 -0.38063166 0
3.0471258 -0.15272413 -0.38200769 0
3.115459 -0.13383721 -0.38289231 0
-2.4527717 -0.052663952 -0.30123919 0
1.3457409 -0.054750811 -0.35799572 0
1.4451538 -0.047159642 -0.3599906 0
1.5572301 -0.055630043 -0.36122414 0
1.6433572 -0.047037043 -0.36291283 0
1.756785 -0.05028218 -0.36407959 0
1.8757287 -0.053670451 -0.36530638 0
1.9608346 -0.056100018 -0.36647892 0
2.0461676 -0.043948263 -0.36799356 0
2.1284733 -0.045713961 -0.36906722 0
2.2519319 -0.048362505 -0.37067771 0
2.3475859 -0.050372262 -0.37193152 0
2.436204 -0.052274261 -0.37333187 0
2.5248215 -0.05417626 -0.37473226 0
2.6476421 -0.064558834 -0.37648433 0
2.7700772 -0.049757063 -0.37884381 0
2.8811519 -0.041208636 -0.38074154 0
2.96983 -0.042477675 -0.38218084 0
3.0585077 -0.043746714 -0.38362017 0
3.1339111 -0.044808544 -0.38484448 0
3.2227342 -0.046086963 -0.38039428 0
3.3397729 -0.0558847 -0.37532124 0
3.4609888 -0.041402899 -0.36766657 0
3.5780272 -0.051200639 -0.36259353 0
3.6668503 -0.052479059 -0.35814333 0
3.7556736 -0.053757478 -0.35369313 0
3.8545716 -0.045933574 -0.3458294 0
3.9349995 -0.084492393 -0.35420418 0
4.0142465 -0.086193986 -0.35128146 0
-2.5529532 0.073104948 -0.3009845 0
-2.4638808 0.070554316 -0.30265006 0
1.3463439 0.053750608 -0.35631129 0
1.4464142 0.046623763 -0.35919929 0
1.5514665 0.048611768 -0.36017621 0
1.635264 0.046811745 -0.36135834 0
1.7493565 0.050081551 -0.36315095 0
1.8729138 0.053640798 -0.36509678 0
1.9603626 0.05615294 -0.36663222 0
2.0427544 0.043867201 -0.3680104 0
2.125541 0.045644954 -0.36951783 0
2.2497213 0.04831158 -0.37177896 0
2.3592124 0.050667163 -0.37377366 0
2.4477994 0.052568834 -0.37509632 0
2.5363867 0.054470509 -0.37641898 0
2.6249735 0.056372184 -0.37774161 0
2.7349296 0.058730628 -0.37925419 0
2.8612621 0.034255546 -0.38134754 0
2.9786363 0.042619124 -0.3829855 0
3.0672567 0.043887276 -0.38433143 0
3.1385612 0.044885773 -0.38541555 0
3.2255111 0.046131901 -0.37885153 0
3.3397827 0.055880416 -0.3701466 0
3.4590385 0.041367877 -0.36130023 0
3.5733099 0.051116396 -0.35259533 0
3.6602597 0.05236252 -0.34603128 0
3.7472093 0.053608641 -0.33946723 0
3.8185098 0.054706298 -0.33411866 0
-2.5396373 0.16380143 -0.30004191 0
-2.4508517 0.1404807 -0.30144081 0
1.3551242 0.15055396 -0.35768059 0
1.4518268 0.13987231 -0.35927635 0
1.5503453 0.14777105 -0.36089805 0
1.6434951 0.1573777 -0.36218691 0
1.754178 0.14564206 -0.36445275 0
1.8728615 0.15308177 -0.36648804 0
1.9628209 0.15486203 -0.36778116 0
2.0446763 0.14661898 -0.36869788 0
2.1268499 0.15250558 -0.36980486 0
2.2507274 0.14519273 -0.37177625 0
2.3518412 0.15167241 -0.37329379 0
2.4402642 0.15737575 -0.37462798 0
2.5286872 0.1630791 -0.37596217 0
2.6194224 0.15013507 -0.37734121 0
2.752054 0.15773612 -0.37927023 0
2.8662999 0.13364126 -0.38120541 0
2.9756355 0.14916916 -0.38269877 0
3.06409 0.15360367 -0.38398144 0
3.1337705 0.13462541 -0.3851428 0
3.2215819 0.13839909 -0.37962222 0
3.3532991 0.14405961 -0.37134135 0
3.4850163 0.14972013 -0.36306047 0
3.5728276 0.15349382 -0.35753989 0
3.660639 0.1572675 -0.35201931 0
3.7484505 0.16104117 -0.34649873 0
3.85303 0.16556299 -0.33993116 0
-2.5356801 0.29161733 -0.30100459 0
-2.4407721 0.26307684 -0.30143219 0
-2.2713857 0.29421771 -0.30405426 0
-2.1476536 0.27819037 -0.30630687 0
-2.0184431 0.27612862 -0.30815464 0
-1.9358331 0.26482484 -0.30946898 0
-1.8190672 0.28878391 -0.30985352 0
-1.7429349 0.27669761 -0.31092453 0
-1.6694882 0.27733448 -0.31276315 0
-1.5792769 0.28056341 -0.31395721 0
-1.4390659 0.26653469 -0.31458721 0
-1.3300179 0.25765523 -0.31562236 0
-1.2499262 0.26207528 -0.31817839 0
-1.1713858 0.2465481 -0.32084396 0
1.3464476 0.24885035 -0.35897371 0
1.4572035 0.24207494 -0.36081117 0
1.5410228 0.25588813 -0.3623051 0
1.6503725 0.26196185 -0.36379471 0
1.757219 0.24490803 -0.36472973 0
1.8612595 0.24381332 -0.36522982 0
1.9457495 0.25206605 -0.36684358 0
2.0286238 0.24802601 -0.36824235 0
2.1520727 0.26311761 -0.37063476 0
2.2622352 0.23575585 -0.37188905 0
2.3453763 0.25285569 -0.37364861 0
2.4334972 0.2623502 -0.3749969 0
2.5453444 0.24965255 -0.3757399 0
2.6379764 0.2461632 -0.37760827 0
2.7420416 0.24580765 -0.37928811 0
2.8712273 0.24713987 -0.38108212 0
2.9596443 0.25475171 -0.38257682 0
3.0480614 0.26236355 -0.38407147 0
3.1267369 0.246668 -0.38513353 0
3.2155049 0.25367442 -0.38091382 0
3.3496673 0.24015473 -0.37394604 0
3.4825857 0.24968582 -0.36726442 0
3.571198 0.25603986 -0.36281002 0
3.6598101 0.26239392 -0.35835561 0
3.7484224 0.26874796 -0.35390121 0
3.8327668 0.24719572 -0.34667024 0
3.9081566 0.25205803 -0.34262928 0
-2.5220847 0.34508535 -0.30037516 0
-2.4305987 0.35474703 -0.3019824 0
-2.3448093 0.33788058 -0.30311856 0
-2.2544465 0.35788897 -0.30388919 0
-2.1544383 0.35751176 -0.30610207 0
-2.049495 0.34019771 -0.30738121 0
-1.9220496 0.34761891 -0.30940053 0
-1.8543361 0.34880996 -0.31046021 0
-1.7387756 0.34020102 -0.31227928 0
-1.6590047 0.34936807 -0.31351879 0
-1.5682102 0.35371172 -0.31479836 0
-1.4492834 0.34320623 -0.31598899 0
-1.3435466 0.33055097 -0.31710744 0
-1.25431 0.3209399 -0.3198005 0
-1.1642526 0.30676028 -0.32260701 0
1.2850972 0.36833987 -0.35822996 0
1.3480374 0.3419866 -0.36008364 0
1.4382563 0.34614229 -0.3610245 0
1.5268334 0.35503319 -0.36193958 0
1.6504897 0.34376517 -0.36381927 0
1.7583108 0.3570441 -0.36560798 0
1.8526134 0.34878469 -0.36754164 0
1.9408909 0.35102776 -0.36860451 0
2.0384088 0.3567268 -0.36984175 0
2.1550548 0.35176983 -0.37174314 0
2.2721241 0.34408626 -0.37335148 0
2.3375962 0.35404325 -0.3744863 0
2.4227514 0.34914339 -0.37515754 0
2.536396 0.35645556 -0.37736893 0
2.6354816 0.34787646 -0.37891194 0
2.7657027 0.33812401 -0.38084906 0
2.8742199 0.35138884 -0.38237938 0
2.9667854 0.34121352 -0.3835175 0
3.0547628 0.35133111 -0.38476056 0
3.1205499 0.35889018 -0.38569033 0
3.239666 0.36461556 -0.38118926 0
3.3606098 0.32987627 -0.37568691 0
3.4790585 0.34973812 -0.37111318 0
3.5682509 0.35870534 -0.3675639 0
3.657443 0.36767256 -0.3640146 0
3.7474954 0.34964302 -0.35898381 0
3.8389387 0.33048123 -0.35372841 0
3.9463096 0.33977446 -0.34896415 0
-2.5160456 0.43645501 -0.30117017 0
-2.4201171 0.4735269 -0.30279499 0
-2.348448 0.45099038 -0.3031024 0
-2.2469392 0.45630297 -0.30575678 0
-2.1649418 0.43964481 -0.30685648 0
-2.0709302 0.45160714 -0.3073149 0
-1.9385128 0.44589901 -0.30937234 0
-1.8590202 0.44464579 -0.31071043 0
-1.7480724 0.43936205 -0.3122181 0
-1.6396608 0.41950139 -0.31317973 0
-1.5535432 0.40933156 -0.3141633 0
1.2602201 0.45075652 -0.35873196 0
1.3553095 0.45536831 -0.36065978 0
1.4624393 0.45124164 -0.36185277 0
1.5283054 0.44649202 -0.36312658 0
1.6536316 0.4442575 -0.36508021 0
1.7420049 0.45898563 -0.36680368 0
1.8299457 0.45433673 -0.3675808 0
1.9370302 0.44848618 -0.36871609 0
2.0480361 0.45407867 -0.37038249 0
2.1555912 0.44601586 -0.37138987 0
2.2611833 0.44245633 -0.37284994 0
2.3258896 0.45503029 -0.3736327 0
2.4435179 0.44220123 -0.37666616 0
2.5388291 0.4467473 -0.37883353 0
2.6654625 0.4427579 -0.38043201 0
2.7757022 0.44069847 -0.38173139 0
2.8632894 0.45460182 -0.38309509 0
2.9515877 0.44700658 -0.38433316 0
3.038101 0.43782321 -0.38583428 0
3.1218853 0.44991511 -0.38728893 0
3.2407315 0.44300672 -0.38306606 0
3.345562 0.45744276 -0.38002872 0
3.4794607 0.45072836 -0.37496102 0
3.568965 0.46232355 -0.37208211 0
3.6565089 0.44704425 -0.36708242 0
3.7458131 0.43080193 -0.36293846 0
3.8351364 0.44107503 -0.35968816 0
3.9244597 0.45134813 -0.35643789 0
4.0122714 0.47118688 -0.35367808 0
-2.6437848 0.57647824 -0.30117726 0
-2.5366778 0.52772647 -0.30179906 0
-2.4240932 0.54684675 -0.30357158 0
-2.3589885 0.56539387 -0.30377319 0
-2.2258055 0.55256552 -0.30577755 0
-2.1419046 0.54805732 -0.30724093 0
-2.0591471 0.5425697 -0.30866194 0
-1.9755565 0.53567469 -0.30994958 0
-1.8957752 0.50918943 -0.31090996 0
-1.2305601 0.57390869 -0.32125121 0
-1.1448753 0.57252741 -0.32166454 0
-1.0688821 0.55589443 -0.32291934 0
1.1835102 0.59398782 -0.354819 0
1.2405883 0.55732167 -0.35797364 0
1.3489971 0.53766376 -0.36057055 0
1.4619612 0.55111897 -0.36254394 0
1.5567658 0.54428291 -0.3642377 0
1.6338067 0.55817807 -0.36542007 0
1.7661421 0.56552571 -0.36570501 0
1.8391434 0.54458368 -0.36777115 0
1.9545387 0.54493445 -0.36960411 0
2.0706811 0.54560828 -0.3711189 0
2.1539531 0.5510897 -0.37202266 0
2.2683308 0.55581284 -0.37359494 0
2.355274 0.53125685 -0.37490758 0
2.4751318 0.55829746 -0.3768369 0
2.5670693 0.54058415 -0.3782011 0
2.654084 0.55890411 -0.37984326 0
2.7511113 0.5382244 -0.38204631 0
2.838443 0.55531257 -0.38374615 0
2.9309614 0.55166364 -0.385454 0
3.0261641 0.54715365 -0.38660207 0
3.1108508 0.53968036 -0.38767904 0
3.390188 0.5133515 -0.3802231 0
3.4798033 0.52692127 -0.37775716 0
3.5694187 0.5404911 -0.37529123 0
3.6597319 0.52742708 -0.37207463 0
3.749373 0.54034579 -0.36953893 0
3.8390138 0.5532645 -0.3670032 0
3.9286549 0.56618309 -0.3644675 0
4.0446653 0.55336171 -0.36015907 0
-2.5719473 0.63851142 -0.30093649 0
-2.4829655 0.65430754 -0.30295691 0
-2.3786068 0.64245492 -0.3050659 0
-2.2550826 0.62882453 -0.30693012 0
-1.4751842 0.68179208 -0.31931454 0
-1.3490053 0.65306044 -0.32003081 0
-1.2396408 0.64125437 -0.32127103 0
-1.1489375 0.64328587 -0.32255971 0
-1.0464144 0.65345585 -0.32387376 0
-0.99455512 0.69257236 -0.32474589 0
1.1643908 0.64841104 -0.35718378 0
1.2515191 0.65466434 -0.35811123 0
1.3407242 0.65250772 -0.35999456 0
1.4344783 0.64611244 -0.36217016 0
1.5529047 0.64491916 -0.36347505 0
1.6613626 0.64575738 -0.36515373 0
1.7642051 0.65955853 -0.36695048 0
1.8635912 0.6515519 -0.3689357 0
1.9499301 0.65063328 -0.36999539 0
2.0305705 0.6454348 -0.37048808 0
2.148206 0.65587515 -0.37268442 0
2.2603467 0.6479252 -0.37412551 0
2.3617983 0.64038157 -0.37514773 0
2.4476118 0.66364986 -0.37677407 0
2.5432961 0.65065551 -0.37833568 0
2.6360769 0.65436077 -0.3800965 0
2.7275219 0.65636438 -0.38147736 0
2.8452613 0.67049414 -0.38320211 0
2.9412677 0.64884979 -0.38484672 0
3.0639307 0.64512831 -0.38777995 0
3.1051135 0.63065636 -0.38905352 0
4.0496931 0.61321557 -0.36207557 0
-2.6531351 0.73988336 -0.30095938 0
-2.5554035 0.75209254 -0.30231008 0
-2.4634862 0.74422854 -0.30363566 0
-2.3777199 0.73702759 -0.30567169 0
-1.8128629 0.78343856 -0.31280169 0
-1.7053324 0.78081608 -0.3165665 0
-1.6192988 0.76958817 -0.31650266 0
-1.5429833 0.74688894 -0.31726465 0
-1.4508475 0.74497837 -0.31927839 0
-1.3473362 0.76306611 -0.32154357 0
-1.2491633 0.74035305 -0.3225981 0
-1.1608245 0.7515009 -0.32324412 0
-1.0516837 0.75499141 -0.3242721 0
-0.96377271 0.75837761 -0.32620981 0
1.0891055 0.77016836 -0.35746458 0
1.1534301 0.73504311 -0.35679117 0
1.2474734 0.7513411 -0.35900289 0
1.3611747 0.74890083 -0.35991612 0
1.4543577 0.75609094 -0.36214477 0
1.5463482 0.74854577 -0.36403701 0
1.6460615 0.75661373 -0.36634463 0
1.7300364 0.74767035 -0.3672356 0
1.8365873 0.75047213 -0.36826801 0
1.9446313 0.74952763 -0.37016252 0
2.0464792 0.74883103 -0.37200084 0
2.1467929 0.74383795 -0.37337548 0
2.2440875 0.74875909 -0.37471619 0
2.3405178 0.7437852 -0.37628898 0
2.4327931 0.75400996 -0.37783337 0
2.5195568 0.76124698 -0.37887833 0
2.633275 0.75469637 -0.38062641 0
2.7566254 0.76174802 -0.38248768 0
2.8562546 0.745408 -0.38442373 0
2.980989 0.73997974 -0.38628581 0
3.0644903 0.768493 -0.38798773 0
-2.7259169 0.84497458 -0.30066705 0
-2.619046 0.85309005 -0.30151966 0
-2.5243647 0.86229092 -0.30318069 0
-2.4394691 0.83328718 -0.30435371 0
-2.3391399 0.83670908 -0.30505183 0
-2.1241186 0.89994687 -0.30713525 0
-2.0435479 0.8831349 -0.3094449 0
-1.9649982 0.8659997 -0.31124264 0
-1.8577018 0.83979338 -0.31335571 0
-1.7676543 0.85570192 -0.31413114 0
-1.658568 0.85229701 -0.31631693 0
-1.5488774 0.84319299 -0.31875411 0
-1.4405053 0.84323829 -0.32215753 0
-1.3713056 0.86185312 -0.32090616 0
-1.2593932 0.85046309 -0.32202825 0
-1.1333271 0.84906381 -0.32335702 0
-1.0526848 0.86357385 -0.32539022 0
-0.95154852 0.83916903 -0.32666084 0
-0.87002492 0.86088276 -0.32805476 0
0.99221909 0.88786745 -0.35677439 0
1.0502694 0.84890074 -0.35887969 0
1.1471463 0.85239667 -0.35965556 0
1.2519945 0.86185831 -0.36060676 0
1.3295834 0.84972835 -0.36104223 0
1.4525467 0.85021234 -0.36170855 0
1.5566807 0.84946841 -0.36410946 0
1.6669096 0.8504647 -0.36577702 0
1.7497286 0.83494186 -0.36802879 0
1.8570087 0.84713519 -0.36983135 0
1.9619828 0.84791756 -0.37109113 0
2.0464814 0.84984511 -0.37259766 0
2.1355972 0.8511939 -0.37441894 0
2.2253098 0.8502993 -0.37552351 0
2.337153 0.84237123 -0.37652698 0
2.4494586 0.83680737 -0.37851205 0
2.5807142 0.86107683 -0.38033959 0
2.6784661 0.85119516 -0.38162994 0
2.771188 0.85889626 -0.38279578 0
2.866519 0.84376341 -0.38487411 0
2.9542153 0.84668571 -0.3862538 0
3.042907 0.8485136 -0.38809294 0
-2.6774435 0.95771199 -0.30083451 0
-2.5878258 0.94658208 -0.30197468 0
-2.4542813 0.93778276 -0.30439702 0
-2.3439977 0.94091219 -0.30607668 0
-2.2609992 0.95794046 -0.30475521 0
-2.1414127 0.95576769 -0.30936936 0
-2.0370069 0.96816295 -0.31097543 0
-1.9276124 0.95026141 -0.31206217 0
-1.8361378 0.9547497 -0.3135829 0
-1.7431889 0.9427278 -0.31534815 0
-1.647887 0.96460462 -0.31823927 0
-1.5507689 0.95608014 -0.31867009 0
-1.445284 0.94609076 -0.31993738 0
-1.3397292 0.94729292 -0.3206166 0
-1.2490398 0.95197421 -0.3228687 0
-1.1470884 0.95286262 -0.32454225 0
-1.0508624 0.95077145 -0.32751435 0
-0.94905066 0.94961524 -0.32811403 0
-0.85801762 0.94216621 -0.3285878 0
-0.7727111 0.96302539 -0.33093667 0
-0.69907033 0.99627084 -0.32611191 0
0.88515109 0.98212361 -0.35429046 0
0.95327717 0.94710243 -0.35517892 0
1.049266 0.94081557 -0.35751724 0
1.1451147 0.95712173 -0.35921618 0
1.2359217 0.95124888 -0.35999364 0
1.3407918 0.94795591 -0.36245495 0
1.443843 0.95700723 -0.36325723 0
1.558918 0.95800948 -0.36428046 0
1.6253273 0.935776 -0.36573505 0
1.7380615 0.95497954 -0.36814016 0
1.8344374 0.95382416 -0.36938095 0
1.946709 0.94937342 -0.37093124 0
2.0456505 0.9426766 -0.37316582 0
2.1554925 0.9359017 -0.37422976 0
2.2715988 0.943268 -0.37680367 0
2.3689866 0.94424635 -0.37835765 0
2.4615767 0.94057971 -0.37919521 0
2.5497923 0.95341551 -0.38038582 0
2.6464643 0.94655627 -0.38172382 0
2.7354679 0.956397 -0.38315406 0
2.8331845 0.94531512 -0.38455713 0
2.9581902 0.96354842 -0.3860926 0
3.0160391 0.91122317 -0.38685498 0
-2.7478683 1.0499593 -0.30050245 0
-2.6522403 1.0571313 -0.30193081 0
-2.5563123 1.0400742 -0.30266365 0
-2.4607224 1.0426041 -0.30401292 0
-2.3652589 1.0424083 -0.30535951 0
-2.2719641 1.0402857 -0.30774534 0
-2.1629739 1.047066 -0.30930921 0
-2.0647838 1.0548434 -0.31061575 0
-1.9783782 1.0467653 -0.31178609 0
-1.8623215 1.0485443 -0.31482705 0
-1.734913 1.0437454 -0.31600556 0
-1.67147 1.0604229 -0.3165493 0
-1.5495474 1.0432863 -0.31897479 0
-1.466633 1.0528891 -0.31966624 0
-1.3560507 1.0489277 -0.32200226 0
-1.2619863 1.0562993 -0.32252598 0
-1.1560181 1.0494822 -0.32504094 0
-1.0386275 1.0370336 -0.32789016 0
-0.94500613 1.0496694 -0.32723016 0
-0.84416306 1.0470622 -0.33004394 0
-0.74968654 1.0500501 -0.3306562 0
-0.65498269 1.0578117 -0.3335115 0
-0.57418817 1.0947609 -0.3312386 0
0.75883383 1.0813367 -0.35407344 0
0.85084558 1.0448011 -0.3551524 0
0.95074356 1.0548868 -0.35683805 0
1.0629689 1.0550488 -0.35781384 0
1.1469402 1.0454181 -0.35960278 0
1.2475499 1.0535736 -0.36080503 0
1.3539618 1.047254 -0.36288118 0
1.4551673 1.0444758 -0.36401582 0
1.5524687 1.0483927 -0.36469138 0
1.6557184 1.0504007 -0.36670315 0
1.7500259 1.0582266 -0.36857921 0
1.8551309 1.0504558 -0.37081903 0
1.9510751 1.0502046 -0.37285161 0
2.0453339 1.0449314 -0.37341782 0
2.1295431 1.0476527 -0.37455615 0
2.2288914 1.0205894 -0.37569228 0
2.3361936 1.0495217 -0.37740546 0
2.4504261 1.0452123 -0.3795228 0
2.5269754 1.028223 -0.38062871 0
2.6363859 1.0508177 -0.38234073 0
2.7539737 1.0522541 -0.38477728 0
2.8555005 1.060114 -0.38498202 0
2.9475324 1.0464131 -0.38692859 0
-2.7149298 1.1503305 -0.30125844 0
-2.6333714 1.1490724 -0.30183619 0
-2.5234172 1.1554303 -0.304546 0
-2.4284229 1.1542826 -0.30612007 0
-2.3335774 1.1503636 -0.30745384 0
-2.2348123 1.136741 -0.30869991 0
-2.1366794 1.1598153 -0.31049982 0
-2.0328176 1.1511782 -0.31286234 0
-1.9336414 1.1504154 -0.31401363 0
-1.8356906 1.1462964 -0.31461814 0
-1.7419497 1.1584063 -0.31716084 0
-1.6409765 1.142733 -0.31845996 0
-1.5395964 1.1490605 -0.31946114 0
-1.4494691 1.1550204 -0.32093894 0
-1.3611057 1.1560358 -0.32223251 0
-1.2425718 1.1443434 -0.32312897 0
-1.1640133 1.1530725 -0.32449341 0
-1.0448279 1.1593015 -0.32646191 0
-0.94022185 1.1420249 -0.32866907 0
-0.84922093 1.1472774 -0.33098173 0
-0.7566576 1.1536666 -0.33090407 0
-0.65779263 1.1491814 -0.33317518 0
-0.55214137 1.1468046 -0.33407736 0
-0.44105896 1.167137 -0.33441833 0
0.57481778 1.1765494 -0.3509129 0
0.66108352 1.1387964 -0.35293248 0
0.74588054 1.1663812 -0.35335752 0
0.84334582 1.1440706 -0.35557038 0
0.95447814 1.1623937 -0.35691407 0
1.0476398 1.1457329 -0.35977802 0
1.1611733 1.1487625 -0.36047357 0
1.2559191 1.1565166 -0.3612847 0
1.356055 1.1618888 -0.36327282 0
1.466732 1.1575795 -0.36609462 0
1.5534405 1.1392503 -0.36637428 0
1.6737953 1.1655937 -0.36698136 0
1.7619836 1.1535202 -0.36918038 0
1.8541285 1.1517787 -0.37161633 0
1.9449691 1.1384397 -0.37237066 0
2.061955 1.1481532 -0.375379 0
2.181936 1.1344733 -0.37679353 0
2.2710199 1.139902 -0.37729308 0
2.3668296 1.1457677 -0.3785989 0
2.4592426 1.1473336 -0.37971357 0
2.5606575 1.1503646 -0.38161817 0
2.6594541 1.1491748 -0.38282117 0
2.7623551 1.1470655 -0.3842102 0
2.8548381 1.1616271 -0.38521302 0
2.9386992 1.1469493 -0.38734442 0
-2.7751191 1.2466857 -0.30095431 0
-2.6791143 1.2499852 -0.30276209 0
-2.5855231 1.2516594 -0.3046788 0
-2.4866016 1.247987 -0.30561221 0
-2.3626122 1.2499907 -0.30720466 0
-2.2310784 1.2424731 -0.30956534 0
-2.1776755 1.2608354 -0.31146753 0
-2.0692227 1.2512251 -0.31256649 0
-1.9719418 1.2511328 -0.3134996 0
-1.8520647 1.2391022 -0.31602818 0
-1.7488796 1.2492743 -0.31700191 0
-1.6491817 1.2383562 -0.31824535 0
-1.5608933 1.2507172 -0.32007724 0
-1.4458246 1.2569131 -0.32172048 0
-1.3430746 1.2510283 -0.32236224 0
-1.2388899 1.2576953 -0.32430458 0
-1.1446633 1.2360755 -0.32576048 0
-1.0711648 1.2592843 -0.32655305 0
-0.94368029 1.2501199 -0.32955337 0
-0.85374278 1.2546512 -0.33039108 0
-0.76106107 1.2339116 -0.33160973 0
-0.66264451 1.257606 -0.33364835 0
-0.5427494 1.2505112 -0.33485982 0
-0.45819002 1.2526115 -0.33545068 0
-0.35238805 1.2470958 -0.33843768 0
-0.26088169 1.2417339 -0.33765024 0
-0.14940925 1.2602209 -0.34014139 0
-0.05006022 1.2753841 -0.34207085 0
0.050323252 1.2769855 -0.34253466 0
0.15192135 1.279421 -0.34529832 0
0.25269458 1.2672652 -0.34635058 0
0.35302991 1.2486863 -0.34776992 0
0.45645291 1.2497082 -0.35063979 0
0.54466254 1.2480346 -0.35177356 0
0.65825957 1.2396352 -0.35351929 0
0.754255 1.2545946 -0.35421023 0
0.84857547 1.2663945 -0.35501936 0
0.94160491 1.2323811 -0.35782251 0
1.0462124 1.2478205 -0.35961512 0
1.1390074 1.2579303 -0.36113676 0
1.2473882 1.2553523 -0.36178088 0
1.367281 1.2605286 -0.36314595 0
1.4442316 1.2326504 -0.36538586 0
1.5453377 1.249213 -0.36743671 0
1.6468536 1.2551162 -0.36910713 0
1.7433748 1.251526 -0.36888036 0
1.8447561 1.2457355 -0.37040555 0
1.9643451 1.2576406 -0.37379333 0
2.0305326 1.2279118 -0.37584534 0
2.1374638 1.2469132 -0.37661949 0
2.2393193 1.2261074 -0.37863225 0
2.324558 1.2512513 -0.37982306 0
2.4377282 1.2674657 -0.38123411 0
2.5418015 1.2453836 -0.381475 0
2.6529984 1.261229 -0.38366663 0
2.7411108 1.2470485 -0.38500333 0
2.8748534 1.2522399 -0.38674134 0
-2.9183276 1.3870686 -0.30035099 0
-2.8348505 1.3474597 -0.30126652 0
-2.7372768 1.3493727 -0.30263159 0
-2.63954 1.3485123 -0.30385303 0
-2.5409174 1.3443341 -0.30501708 0
-2.448797 1.3408513 -0.30676574 0
-2.3549924 1.3559613 -0.30940226 0
-2.248174 1.3594486 -0.31053475 0
-2.1417103 1.3426517 -0.31151116 0
-2.0400662 1.3566147 -0.31358042 0
-1.9283226 1.3427818 -0.31557477 0
-1.8463219 1.3454959 -0.31621262 0
-1.7444811 1.3494043 -0.31765607 0
-1.6462467 1.3505061 -0.31941226 0
-1.5400416 1.3387855 -0.32117933 0
-1.4631306 1.3669268 -0.32156044 0
-1.3452152 1.3502535 -0.32348979 0
-1.24669 1.3440253 -0.32485747 0
-1.1515038 1.3497312 -0.3259061 0
-1.0406024 1.337083 -0.32715851 0
-0.96195257 1.3708627 -0.32938331 0
-0.84334433 1.3397682 -0.33115816 0
-0.74776727 1.3539423 -0.33202782 0
-0.63835406 1.3446244 -0.33430237 0
-0.55284965 1.3416573 -0.335691 0
-0.45318896 1.3651117 -0.33659759 0
-0.3504768 1.3494561 -0.33892345 0
-0.24803455 1.343806 -0.3397108 0
-0.15814999 1.3524212 -0.34077522 0
-0.052774519 1.343845 -0.34299609 0
0.043427672 1.3459044 -0.34329534 0
0.15012531 1.3462104 -0.34538969 0
0.25861129 1.3471365 -0.34728229 0
0.35591945 1.348936 -0.34832346 0
0.44464716 1.3484427 -0.35039851 0
0.56082737 1.3561137 -0.35259596 0
0.65357167 1.3624419 -0.35430425 0
0.75153887 1.3382916 -0.35518518 0
0.84838021 1.3695726 -0.35559335 0
0.94247979 1.3431638 -0.35705414 0
1.0448291 1.3408362 -0.35959679 0
1.1530157 1.3553028 -0.36191255 0
1.2600503 1.3585302 -0.36204863 0
1.3298515 1.334664 -0.36289963 0
1.4425498 1.3476411 -0.36537546 0
1.5474317 1.3492213 -0.36722755 0
1.646681 1.3507376 -0.36923444 0
1.7519521 1.3551526 -0.37077099 0
1.851842 1.3496284 -0.37137362 0
1.9360846 1.3481783 -0.37191632 0
2.0477352 1.3405436 -0.37495628 0
2.157999 1.3474265 -0.3773154 0
2.2630966 1.3465918 -0.37863228 0
2.3600051 1.3587341 -0.38001868 0
2.4573629 1.3683318 -0.38145038 0
2.5751181 1.3389007 -0.38329503 0
2.6636758 1.3608222 -0.38495576 0
2.7660954 1.3390484 -0.38567314 0
2.8442471 1.3601726 -0.38724455 0
-2.9414239 1.4500129 -0.30092329 0
-2.87692 1.4697642 -0.30037999 0
-2.7608223 1.4436994 -0.30219111 0
-2.6411161 1.4460721 -0.30439228 0
-2.539068 1.4537221 -0.30669671 0
-2.4356673 1.4571971 -0.30830365 0
-2.3347952 1.4426404 -0.30891338 0
-2.2485852 1.4492223 -0.31066185 0
-2.1378188 1.44375 -0.31274503 0
-2.0685523 1.4625452 -0.31400174 0
-1.9565959 1.4474499 -0.31541091 0
-1.8517203 1.4536794 -0.31635091 0
-1.7510452 1.4575747 -0.31795591 0
-1.6476891 1.4531958 -0.31971502 0
-1.5460165 1.4445016 -0.32110476 0
-1.4365252 1.4601141 -0.32290113 0
-1.3626535 1.44821 -0.32348305 0
-1.2510537 1.4497043 -0.32497469 0
-1.1522512 1.4357939 -0.32668617 0
-1.0544918 1.4468665 -0.32842481 0
-0.94412953 1.4435823 -0.32859397 0
-0.86121267 1.4503332 -0.33184141 0
-0.74769288 1.4502091 -0.33400455 0
-0.6481021 1.4568858 -0.33456549 0
-0.55816889 1.4451145 -0.33572406 0
-0.43436107 1.4464339 -0.33832607 0
-0.35034141 1.4334041 -0.34043205 0
-0.24917237 1.449441 -0.3399072 0
-0.14617403 1.4644427 -0.34301579 0
-0.050119832 1.4660345 -0.34435478 0
0.039168369 1.4615467 -0.34369132 0
0.15318345 1.4698024 -0.34615579 0
0.25034848 1.4669511 -0.34894115 0
0.34532875 1.4635955 -0.34903657 0
0.44624755 1.44388 -0.35008308 0
0.54440504 1.4361428 -0.35289472 0
0.6363014 1.441976 -0.35462385 0
0.75839329 1.440733 -0.35621852 0
0.84870976 1.4458085 -0.35687613 0
0.94946033 1.4526876 -0.35826322 0
1.0578429 1.4469509 -0.3598201 0
1.153266 1.4562947 -0.36171085 0
1.2345119 1.4303336 -0.36390102 0
1.3481505 1.4449915 -0.36379987 0
1.4578642 1.4422984 -0.36550632 0
1.548233 1.446359 -0.36790195 0
1.6634457 1.4460711 -0.37015253 0
1.7629657 1.4673754 -0.37104377 0
1.8543811 1.4365849 -0.37251556 0
1.9624392 1.451773 -0.37391675 0
2.0717657 1.4426521 -0.37472543 0
2.1696472 1.4651113 -0.37693548 0
2.2621148 1.4504585 -0.37870678 0
2.3265245 1.4297054 -0.38093376 0
2.4366829 1.4654207 -0.38158193 0
2.5431521 1.4482189 -0.38271698 0
2.6274631 1.4386234 -0.38438267 0
2.737685 1.4568771 -0.38607398 0
2.8102703 1.435782 -0.38749313 0
-2.9298782 1.5770245 -0.30083114 0
-2.8505433 1.5343208 -0.30173767 0
-2.7558436 1.5346887 -0.30334151 0
-2.6555049 1.5543751 -0.30525097 0
-2.5564306 1.5458571 -0.30648413 0
-2.4465439 1.5521697 -0.30794418 0
-2.3455508 1.5597563 -0.3099798 0
-2.2530406 1.5451785 -0.31143624 0
-2.1408031 1.5601234 -0.31325337 0
-2.0443187 1.5350962 -0.31474873 0
-1.9745417 1.5637653 -0.31420669 0
-1.8595334 1.5551955 -0.31704643 0
-1.7728658 1.5636704 -0.31805068 0
-1.6778299 1.5451816 -0.31932381 0
-1.5670192 1.5502864 -0.32104486 0
-1.4466764 1.5597332 -0.32290325 0
-1.3423682 1.5354918 -0.32395902 0
-1.2655911 1.5692314 -0.32569095 0
-1.1504343 1.5439005 -0.32742387 0
-1.0584009 1.5362856 -0.32836676 0
-0.94735223 1.5485184 -0.33081913 0
-0.83786249 1.5434644 -0.3320373 0
-0.74789095 1.5353829 -0.33357832 0
-0.65784049 1.5683593 -0.33503112 0
-0.54558802 1.5535815 -0.33684701 0
-0.45617804 1.5568495 -0.33857882 0
-0.3462705 1.5486393 -0.34017786 0
-0.25883788 1.5457191 -0.33975771 0
-0.13670817 1.5393358 -0.3447583 0
-0.050399005 1.5660366 -0.34519416 0
0.064080097 1.5394469 -0.34648272 0
0.15193197 1.5668609 -0.34693015 0
0.25417143 1.5644975 -0.34927559 0
0.35499758 1.5480685 -0.35017133 0
0.46136507 1.5330335 -0.35102022 0
0.55187982 1.5604924 -0.3538368 0
0.64987773 1.5491272 -0.35440928 0
0.7499283 1.5473675 -0.35679072 0
0.8531183 1.5449898 -0.35789093 0
0.95745087 1.5649228 -0.3587732 0
1.0374072 1.5307941 -0.36000463 0
1.1340377 1.5444816 -0.36198428 0
1.253538 1.5530621 -0.36419541 0
1.3542601 1.5465524 -0.36551461 0
1.4470942 1.5379283 -0.36648732 0
1.5490067 1.5545118 -0.36788839 0
1.646431 1.5559256 -0.36991841 0
1.747331 1.5610616 -0.37234566 0
1.8468536 1.5372506 -0.37304848 0
1.9578552 1.552193 -0.37468183 0
2.0457952 1.5439671 -0.37611869 0
2.1405513 1.5519472 -0.37641644 0
2.2488129 1.5502439 -0.37865195 0
2.3442378 1.5346622 -0.38022605 0
2.4469168 1.5522732 -0.3820492 0
2.5467525 1.5650158 -0.38341317 0
2.666827 1.5353884 -0.38477555 0
2.7357173 1.5491056 -0.38602722 0
-3.0138984 1.650179 -0.30061796 0
-2.9641421 1.6597843 -0.30081424 0
-2.8463719 1.6480942 -0.30268201 0
-2.7448595 1.6421623 -0.30428302 0
-2.6457572 1.6520908 -0.30473086 0
-2.5522308 1.6449232 -0.30754083 0
-2.4491963 1.6540303 -0.30880588 0
-2.3448679 1.6579304 -0.31056494 0
-2.2486985 1.6387048 -0.31153604 0
-2.1570985 1.6519803 -0.31356561 0
-2.0587618 1.6643555 -0.31322983 0
-1.9524168 1.6489265 -0.31527251 0
-1.8405638 1.6469541 -0.31760854 0
-1.7367654 1.6460654 -0.31914291 0
-1.6436092 1.6339687 -0.32017708 0
-1.5608811 1.6588885 -0.3219063 0
-1.4690142 1.6535749 -0.32267949 0
-1.3612299 1.6475285 -0.32469392 0
-1.2445195 1.6451741 -0.32676762 0
-1.1628428 1.657212 -0.32756001 0
-1.0418787 1.6502041 -0.32853541 0
-0.9497425 1.6469572 -0.33201474 0
-0.84896576 1.6528895 -0.33290774 0
-0.75219297 1.6479549 -0.33373556 0
-0.63765228 1.6512092 -0.33496457 0
-0.55470312 1.6432741 -0.33719626 0
-0.44681749 1.6616812 -0.33873564 0
-0.35867235 1.6725574 -0.3391023 0
-0.23826312 1.6469339 -0.3418844 0
-0.15636466 1.6530181 -0.34361076 0
-0.052795522 1.6405213 -0.34581459 0
0.041138168 1.6384524 -0.3452397 0
0.14741425 1.6431284 -0.347545 0
0.2544336 1.6401727 -0.35009766 0
0.35378629 1.6388859 -0.3504222 0
0.44583946 1.6472261 -0.35248211 0
0.55977255 1.657527 -0.35393053 0
0.66703397 1.644538 -0.35421208 0
0.75534141 1.6651669 -0.35704726 0
0.85656661 1.6330994 -0.35889289 0
0.93558711 1.6385175 -0.35955143 0
1.0526416 1.6407526 -0.36114526 0
1.159909 1.6529763 -0.36296868 0
1.2568841 1.6614895 -0.36418 0
1.3469858 1.630051 -0.3664062 0
1.447015 1.6525803 -0.36743522 0
1.5602095 1.6581402 -0.36921716 0
1.6498015 1.6557205 -0.37024847 0
1.7635748 1.6713604 -0.37208194 0
1.8233628 1.6315682 -0.37475777 0
1.9209751 1.6460366 -0.37532488 0
2.0495925 1.6568837 -0.37651321 0
2.1557112 1.6429324 -0.37846431 0
2.2471685 1.6623985 -0.37906992 0
2.3629625 1.6454242 -0.38062248 0
2.4637725 1.6637478 -0.38282919 0
2.5805531 1.6631491 -0.38395035 0
2.6622839 1.6360435 -0.38536599 0
-2.9541848 1.7672404 -0.3015475 0
-2.8503852 1.7516305 -0.30252129 0
-2.751193 1.7454495 -0.30442661 0
-2.6557655 1.7386984 -0.30619639 0
-2.5505321 1.7491969 -0.30766627 0
-2.4431267 1.753765 -0.30913639 0
-2.3378825 1.7555379 -0.31087804 0
-2.2402973 1.7328233 -0.31193706 0
-2.1377397 1.7536924 -0.31281728 0
-2.0197387 1.7306387 -0.31477708 0
-1.9494709 1.7444025 -0.31721857 0
-1.8694575 1.7572335 -0.31756476 0
-1.7504249 1.7566586 -0.31905296 0
-1.632099 1.7345911 -0.32087985 0
-1.5361519 1.7456578 -0.32207021 0
-1.4437907 1.7472477 -0.32396361 0
-1.3468179 1.7541291 -0.32596588 0
-1.2485849 1.752702 -0.32704729 0
-1.1437329 1.7333479 -0.32696289 0
-1.0667201 1.7618507 -0.33031625 0
-0.94788969 1.7455422 -0.33153647 0
-0.84470165 1.7608694 -0.33247042 0
-0.75279778 1.7252569 -0.33433449 0
-0.64649439 1.761027 -0.33677411 0
-0.5516842 1.7487724 -0.33823931 0
-0.444778 1.7474718 -0.3402591 0
-0.34807599 1.7293237 -0.33910522 0
-0.25346491 1.7455306 -0.34295905 0
-0.15207209 1.7512023 -0.34379926 0
-0.053778287 1.7638619 -0.34703782 0
0.04159734 1.7643262 -0.34659666 0
0.14452836 1.7640887 -0.34810388 0
0.24688593 1.7648869 -0.35062668 0
0.34749052 1.757539 -0.35133094 0
0.46066809 1.7597694 -0.35423037 0
0.55370152 1.7379665 -0.35503328 0
0.64825022 1.7291737 -0.35504606 0
0.73917073 1.762126 -0.35673916 0
0.85459566 1.7427838 -0.35924682 0
0.94961804 1.7550056 -0.36079723 0
1.0577157 1.7464958 -0.36141661 0
1.1558022 1.751663 -0.36340898 0
1.2544847 1.7608261 -0.36539811 0
1.3571596 1.7416002 -0.36614037 0
1.4517732 1.7568674 -0.36861643 0
1.5422192 1.7386254 -0.36875024 0
1.6751574 1.7549483 -0.37151107 0
1.755896 1.754012 -0.37190023 0
1.8447231 1.7232556 -0.3743608 0
1.9502434 1.7450514 -0.37638724 0
2.0555394 1.7613373 -0.37802017 0
2.1572771 1.7696865 -0.37901992 0
2.2568228 1.7541022 -0.38046685 0
2.3570704 1.7436311 -0.38258174 0
2.4446778 1.7548652 -0.3809343 0
2.5514627 1.7633862 -0.3853991 0
2.6131513 1.7376552 -0.38532606 0
-2.9173543 1.8412129 -0.30209887 0
-2.8558764 1.840624 -0.30441982 0
-2.7390392 1.8400925 -0.30504847 0
-2.6352022 1.8446016 -0.306833 0
-2.5402195 1.8511463 -0.30765885 0
-2.4470572 1.8374476 -0.30969691 0
-2.3692377 1.859808 -0.31024852 0
-2.2601089 1.8541011 -0.31151071 0
-2.1571705 1.8484026 -0.31337729 0
-2.0561311 1.8399382 -0.31521347 0
-1.9432694 1.8417555 -0.31699735 0
-1.8387117 1.8453282 -0.31820717 0
-1.7605492 1.8710788 -0.31922638 0
-1.6527613 1.8337741 -0.32125452 0
-1.5354122 1.831386 -0.32320464 0
-1.4465655 1.8470789 -0.32535645 0
-1.3522862 1.8508409 -0.32628199 0
-1.2449565 1.8576928 -0.32683218 0
-1.1377307 1.8368815 -0.32848576 0
-1.0453998 1.8307396 -0.33164859 0
-0.9535861 1.8503363 -0.33175379 0
-0.86551386 1.8608414 -0.33188787 0
-0.75621229 1.8395214 -0.33485985 0
-0.64448142 1.8648696 -0.33821541 0
-0.54325676 1.8449441 -0.33860645 0
-0.45253029 1.8509902 -0.33956584 0
-0.34616029 1.8500199 -0.34050962 0
-0.25330353 1.8402169 -0.34246141 0
-0.15224646 1.8455224 -0.34450111 0
-0.059973489 1.8645113 -0.34717193 0
0.046561264 1.8631295 -0.3470903 0
0.15391569 1.8656521 -0.34867638 0
0.24902932 1.8698772 -0.35131443 0
0.34168184 1.8517241 -0.3508873 0
0.45143005 1.8464544 -0.35429788 0
0.55808926 1.8235984 -0.35540619 0
0.64813846 1.8752669 -0.35589626 0
0.74347508 1.846061 -0.35741246 0
0.84927171 1.8374438 -0.35917905 0
0.94382387 1.8637016 -0.36108971 0
1.0429426 1.8466197 -0.36211908 0
1.1455064 1.8490669 -0.36367947 0
1.249445 1.864478 -0.36575887 0
1.3522133 1.8416628 -0.36680022 0
1.4472303 1.8330693 -0.36855578 0
1.5519183 1.8511066 -0.36985075 0
1.6493807 1.8478212 -0.37117064 0
1.7488289 1.8494941 -0.37333068 0
1.849708 1.8299297 -0.37388012 0
1.9409814 1.8659898 -0.37553668 0
2.0614235 1.8532711 -0.37949309 0
2.1531525 1.8449678 -0.37987417 0
2.225857 1.8259428 -0.38048384 0
2.337029 1.834486 -0.38170162 0
2.448663 1.8661958 -0.38359827 0
2.5291767 1.8432219 -0.38427201 0
-2.8584604 1.9483255 -0.30370986 0
-2.7492535 1.9438691 -0.30520016 0
-2.6385071 1.9518657 -0.30679351 0
-2.5431108 1.9382057 -0.30843908 0
-2.4574573 1.938745 -0.30915681 0
-2.3464539 1.9434716 -0.31069198 0
-2.2450557 1.9517617 -0.31260026 0
-2.1638253 1.9550577 -0.3145425 0
-2.0604725 1.9339987 -0.31566405 0
-1.9578997 1.9649463 -0.3170571 0
-1.8433632 1.9591208 -0.31852588 0
-1.7380425 1.9566755 -0.32136908 0
-1.6573945 1.9484327 -0.32188451 0
-1.5543549 1.9369912 -0.32363436 0
-1.4492977 1.9446208 -0.32521498 0
-1.3466375 1.9486755 -0.3266871 0
-1.2527806 1.9593419 -0.32725641 0
-1.1483803 1.9461362 -0.32994992 0
-1.048655 1.9315732 -0.33101961 0
-0.95768255 1.960228 -0.33190152 0
-0.84967357 1.9360602 -0.33295697 0
-0.75617731 1.9663246 -0.33639458 0
-0.64436561 1.9545956 -0.33888245 0
-0.54078621 1.9444215 -0.33930314 0
-0.4540388 1.9471502 -0.3391639 0
-0.3469809 1.9591051 -0.34131095 0
-0.24454038 1.942127 -0.3434034 0
-0.14516197 1.9286339 -0.34510651 0
-0.048714343 1.9471531 -0.34757379 0
0.048593685 1.9439061 -0.34757441 0
0.14678229 1.9487123 -0.34926307 0
0.24524693 1.9471757 -0.35092607 0
0.36185542 1.9449399 -0.35161588 0
0.46047798 1.9438566 -0.35436326 0
0.55824387 1.9446393 -0.35600263 0
0.64805585 1.965941 -0.35655999 0
0.74593902 1.9314575 -0.35850263 0
0.84131038 1.9508842 -0.35998172 0
0.95224619 1.9491842 -0.36121178 0
1.0574317 1.9478438 -0.36325762 0
1.162702 1.970174 -0.36466053 0
1.2499104 1.9325978 -0.36541638 0
1.3427805 1.9335322 -0.36855629 0
1.4280254 1.9449762 -0.36932158 0
1.5371232 1.9726067 -0.37059692 0
1.6363961 1.9421183 -0.37240767 0
1.7372189 1.9273714 -0.37296665 0
1.8440133 1.9597265 -0.37511069 0
1.9602778 1.9673144 -0.37623394 0
2.0524983 1.9451759 -0.37770775 0
2.1531882 1.9267014 -0.38095272 0
2.2573862 1.9342885 -0.38206303 0
2.3491962 1.9553919 -0.38345253 0
2.4494236 1.9512606 -0.38452482 0
-2.8243537 2.0274103 -0.30417824 0
-2.7858436 2.0712011 -0.30502936 0
-2.6522105 2.0514627 -0.3069883 0
-2.550972 2.0622587 -0.30810428 0
-2.4587915 2.0466242 -0.30952328 0
-2.3526165 2.0453615 -0.3116506 0
-2.2339797 2.0573142 -0.31385234 0
-2.127912 2.0458112 -0.31532937 0
-2.0512235 2.0392191 -0.31612241 0
-1.9546827 2.0573919 -0.31713498 0
-1.88088 2.0571392 -0.31859636 0
-1.7812989 2.0638616 -0.32278073 0
-1.6374918 2.0607545 -0.32322156 0
-1.5531452 2.0531588 -0.32468888 0
-1.4334394 2.0428867 -0.32622707 0
-1.3458719 2.0613644 -0.32636568 0
-1.2480412 2.0539422 -0.32827207 0
-1.1492671 2.0465953 -0.33022547 0
-1.0565482 2.0378134 -0.33161309 0
-0.95142323 2.0586901 -0.33207285 0
-0.84994197 2.0263565 -0.33426324 0
-0.74595392 2.0523741 -0.33757687 0
-0.65977341 2.0377748 -0.33976889 0
-0.54788393 2.0658598 -0.33976981 0
-0.45328298 2.0602663 -0.33908266 0
-0.34708777 2.0443084 -0.34177971 0
-0.24734142 2.0606227 -0.34391791 0
-0.14735524 2.043462 -0.34537539 0
-0.050728157 2.0274801 -0.34766462 0
0.059974771 2.0380852 -0.34818518 0
0.15284501 2.0292547 -0.34965095 0
0.25534585 2.0274191 -0.35134634 0
0.35652405 2.0545988 -0.35242605 0
0.44926208 2.0524955 -0.35357612 0
0.54328048 2.0611987 -0.35696301 0
0.64424634 2.0525591 -0.35684952 0
0.75582618 2.0435374 -0.3595455 0
0.86927736 2.0803456 -0.36121389 0
0.95347607 2.0629275 -0.36182803 0
1.0430363 2.0325301 -0.36334714 0
1.1409211 2.048553 -0.36499459 0
1.2452687 2.0428753 -0.36606488 0
1.3433598 2.0679932 -0.36813018 0
1.4502662 2.0357752 -0.37001857 0
1.5590583 2.0608735 -0.37118757 0
1.6519632 2.0386932 -0.37236705 0
1.737101 2.0421402 -0.37365746 0
1.8557135 2.0588496 -0.37565017 0
1.9516532 2.0446119 -0.37726349 0
2.0482614 2.0456285 -0.37799874 0
2.1488061 2.036448 -0.379583 0
2.2514737 2.0437603 -0.38279632 0
2.360497 2.052053 -0.38404959 0
2.4122183 2.0078006 -0.3853564 0
-2.7371006 2.1486397 -0.30598265 0
-2.644237 2.1690891 -0.30710191 0
-2.5516288 2.1549468 -0.30876422 0
-2.4502048 2.1301105 -0.31086868 0
-2.3822298 2.1625233 -0.31214964 0
-2.2721012 2.1533954 -0.31380081 0
-2.1497843 2.1575184 -0.31510648 0
-2.0296841 2.1571367 -0.31654954 0
-1.9420278 2.1240172 -0.31789723 0
-1.8404779 2.1324282 -0.32193902 0
-1.6777077 2.1530023 -0.32337093 0
-1.551657 2.145406 -0.32511491 0
-1.462633 2.1492128 -0.32586953 0
-1.3543049 2.151299 -0.32769024 0
-1.2762232 2.1625867 -0.32834065 0
-1.1477365 2.1507959 -0.33090398 0
-1.0421693 2.1332188 -0.33173239 0
-0.94430798 2.1640761 -0.33301404 0
-0.85438418 2.1216459 -0.3346329 0
-0.7613818 2.1520011 -0.33829331 0
-0.65108055 2.1273143 -0.3386631 0
-0.56108361 2.1610668 -0.34003332 0
-0.44595528 2.1390014 -0.34156525 0
-0.35231346 2.1306162 -0.34235409 0
-0.23652692 2.1593609 -0.34447959 0
-0.14805156 2.1751451 -0.34573177 0
-0.057158865 2.1693957 -0.34781539 0
0.032504968 2.1684294 -0.34827247 0
0.1532575 2.1533864 -0.35019773 0
0.2550756 2.1491802 -0.3520526 0
0.35326976 2.1748154 -0.35213813 0
0.45934227 2.175504 -0.35398188 0
0.54928845 2.1792123 -0.3574838 0
0.64747357 2.1486917 -0.35692126 0
0.7393747 2.1390302 -0.35910487 0
0.83849674 2.1256599 -0.36194241 0
0.94851112 2.1736956 -0.36260965 0
1.0603455 2.1316803 -0.36409667 0
1.1540258 2.1624455 -0.36574149 0
1.260379 2.1356843 -0.36701909 0
1.3503325 2.1798356 -0.36771733 0
1.4372143 2.1446674 -0.37010646 0
1.5476904 2.150512 -0.37219384 0
1.6519088 2.1407154 -0.37351665 0
1.7662953 2.1375227 -0.3747358 0
1.8653948 2.1613779 -0.3768512 0
1.9493546 2.1424649 -0.37774792 0
2.0414717 2.1387129 -0.37891105 0
2.164072 2.1409371 -0.38016856 0
2.2399409 2.1534138 -0.38153842 0
2.3237932 2.1094761 -0.38535333 0
-2.7076666 2.2211208 -0.30639523 0
-2.6530073 2.2622526 -0.30805311 0
-2.5430455 2.2430563 -0.30992335 0
-2.4337897 2.241327 -0.31176737 0
-2.3238609 2.2341959 -0.31336546 0
-2.2433691 2.2514198 -0.31442118 0
-2.1681116 2.2713957 -0.31494808 0
-2.0771167 2.2394233 -0.31628579 0
-1.9588362 2.2695613 -0.32025567 0
-1.8530669 2.2426775 -0.32163391 0
-1.7335135 2.2246187 -0.32274261 0
-1.6356927 2.2615409 -0.32509452 0
-1.4330168 2.241116 -0.327007 0
-1.344207 2.2409825 -0.32756525 0
-1.2528729 2.2564144 -0.32955447 0
-1.1552889 2.2417097 -0.33121139 0
-1.0395861 2.249244 -0.33151525 0
-0.94940376 2.2634611 -0.33361301 0
-0.86516267 2.2404068 -0.33540285 0
-0.75174648 2.2474427 -0.33871412 0
-0.65778947 2.234256 -0.3384369 0
-0.55070251 2.2529604 -0.34022233 0
-0.44267091 2.253649 -0.34221655 0
-0.34741294 2.2401848 -0.34250191 0
-0.25013468 2.246536 -0.34471187 0
-0.15412466 2.2643602 -0.3461642 0
-0.057145536 2.2822587 -0.34812126 0
0.047894459 2.2480974 -0.34960356 0
0.14746179 2.2312782 -0.35059634 0
0.25221372 2.2306924 -0.35227862 0
0.33820322 2.2888134 -0.35347986 0
0.43202609 2.2505825 -0.35518032 0
0.53875881 2.2740209 -0.35696617 0
0.63714546 2.2538595 -0.35804257 0
0.73475164 2.2286515 -0.35878563 0
0.84570801 2.2373645 -0.36239997 0
0.93544483 2.275655 -0.36344913 0
1.0325141 2.2339385 -0.36380592 0
1.1371115 2.2586422 -0.36570168 0
1.2388721 2.2435901 -0.36762002 0
1.3486314 2.2603586 -0.3691248 0
1.4499499 2.2320688 -0.37033224 0
1.5413002 2.2533939 -0.37195531 0
1.6481583 2.2447772 -0.37368679 0
1.7543894 2.2514284 -0.37555599 0
1.8491817 2.2599361 -0.37548432 0
1.9462785 2.2440195 -0.37862229 0
2.0540614 2.2465339 -0.37990776 0
2.1326063 2.2342067 -0.38077286 0
-2.6318231 2.3323629 -0.30889249 0
-2.5658798 2.3629613 -0.31092769 0
-2.4694002 2.3403795 -0.31188288 0
-2.3416688 2.3500907 -0.31315586 0
-2.2306981 2.3369646 -0.31430948 0
-2.156045 2.3580902 -0.31545025 0
-2.0180154 2.3381279 -0.31941396 0
-1.8451252 2.3678517 -0.32148594 0
-1.7438793 2.340064 -0.32314432 0
-1.3256047 2.3215189 -0.32825124 0
-1.2557504 2.3610973 -0.33086655 0
-1.145928 2.3455908 -0.33152002 0
-1.0463226 2.3509893 -0.33266196 0
-0.95041871 2.3601053 -0.33387586 0
-0.84249115 2.329174 -0.33671969 0
-0.76168686 2.3669918 -0.33812073 0
-0.65218574 2.3449407 -0.33924419 0
-0.53695351 2.3411186 -0.34038559 0
-0.43986043 2.3835244 -0.34304431 0
-0.36208907 2.3348336 -0.34317306 0
-0.25974026 2.3327663 -0.34512767 0
-0.16002218 2.3509784 -0.34658679 0
-0.059316561 2.3689194 -0.34836182 0
0.050459385 2.3567762 -0.35015857 0
0.14501111 2.3809383 -0.35131684 0
0.25438851 2.3623395 -0.35324758 0
0.35099897 2.3754003 -0.35435057 0
0.45410943 2.365525 -0.35553041 0
0.55890137 2.359066 -0.35761127 0
0.66101879 2.3382988 -0.35899344 0
0.76224834 2.3120573 -0.35978472 0
0.85651362 2.3676543 -0.36275563 0
0.95276976 2.3657012 -0.3643685 0
1.0346748 2.3255074 -0.36412024 0
1.131745 2.3591452 -0.3657977 0
1.2473946 2.3373845 -0.36815724 0
1.357263 2.3504653 -0.37018606 0
1.4432096 2.3297615 -0.37003741 0
1.5355057 2.3637979 -0.37257886 0
1.6412435 2.3389273 -0.37431812 0
1.7561638 2.3562229 -0.37595731 0
1.8541735 2.3559225 -0.37765291 0
1.9463832 2.3557134 -0.37777254 0
2.0425522 2.3326588 -0.38072324 0
-2.6108015 2.4043303 -0.31051758 0
-2.54105 2.4429927 -0.31118897 0
-2.435504 2.4442439 -0.31284809 0
-2.3558712 2.4681027 -0.31303227 0
-2.2621212 2.4388776 -0.31443483 0
-2.1363735 2.4752612 -0.31773058 0
-2.0771945 2.4066944 -0.31857228 0
-1.9472289 2.4623466 -0.320517 0
-1.8827837 2.4521866 -0.32086748 0
-1.7688663 2.4456697 -0.32365456 0
-1.2175549 2.4044657 -0.33092371 0
-1.1491436 2.4402428 -0.33170366 0
-1.0566676 2.4595256 -0.33339667 0
-0.95011014 2.4604313 -0.33451453 0
-0.8629933 2.4404655 -0.33657786 0
-0.75173193 2.4562397 -0.33826277 0
-0.65176272 2.461252 -0.33968595 0
-0.55628949 2.4254534 -0.34073567 0
-0.45552167 2.4683969 -0.34309173 0
-0.33727112 2.4513469 -0.34437767 0
-0.23535161 2.4288788 -0.34624889 0
-0.14844678 2.4387584 -0.34711784 0
-0.061487582 2.45558 -0.34860238 0
0.044134136 2.4626739 -0.3504113 0
0.15030645 2.46787 -0.35185659 0
0.25725889 2.4697752 -0.3536776 0
0.36379468 2.4619873 -0.35522124 0
0.45324913 2.4556262 -0.35644451 0
0.54199511 2.4431846 -0.35724759 0
0.65074009 2.434514 -0.35977316 0
0.75774145 2.4388852 -0.36071569 0
0.8558073 2.4758766 -0.36268675 0
0.94860482 2.4562576 -0.36446917 0
1.0382246 2.4262495 -0.36537632 0
1.1430945 2.4731755 -0.3665435 0
1.2528881 2.430867 -0.36849749 0
1.3413711 2.4571126 -0.3704288 0
1.4394699 2.4391682 -0.37127885 0
1.5573282 2.4740734 -0.37301436 0
1.6501964 2.4247253 -0.37408373 0
1.7457287 2.4504681 -0.3760376 0
1.8364393 2.4518425 -0.37799835 0
1.9010583 2.439631 -0.37975568 0
