# .PCD v0.7 - Point Cloud Data file format
VERSION 0.7
FIELDS x y z intensity
SIZE 4 4 4 4
TYPE F F F F
COUNT 1 1 1 1
WIDTH 192
HEIGHT 1
VIEWPOINT 0 0 0 1 0 0 0
POINTS 192
DATA ascii
-27.150633 10.667582 0.5206725 8
-27.06127 10.184268 1.526435 9
-27.004162 9.7203999 2.521718 10
-27.039902 10.17474 3.5594153 11
-27.132013 11.110771 4.658051 12
-27.022089 10.166523 5.6251597 13
-27.049263 10.623049 6.7238207 14
-27.098021 11.094329 7.8622212 15
-26.672333 6.661582 0.48523813 8
-26.706301 7.0796485 1.4542024 9
-26.694889 7.0761046 2.4227304 10
-26.714165 7.4934225 4.4023643 12
-26.609123 6.6433377 5.3380671 13
-26.749439 7.9192924 6.4500899 14
-26.725077 7.9114676 7.4781694 15
-26.421484 4.6099229 1.408831 9
-26.589125 6.2340651 3.3589907 11
-26.390705 4.2142887 0.46910861 8
-26.223682 3.0328627 2.3114507 10
-26.337511 4.2045469 4.2277074 12
-26.340813 4.5941238 6.1774611 14
-26.238993 3.8014944 7.1077461 15
-26.070141 1.5026888 0.45640248 8
-26.144535 2.2634845 1.3764538 9
-26.157684 2.6440887 3.2298133 11
-26.082825 2.2574635 5.0905385 13
-26.032791 1.8760109 6.0270905 14
-25.868629 7.381793e-05 1.3556812 9
-25.813652 -0.37154537 2.2584658 10
-25.825657 7.7166864e-05 4.0903411 12
-25.87818 0.74480569 6.9373875 15
-25.794634 -0.74273568 0.45022625 8
-25.605486 -2.2163029 1.3465668 9
-25.617624 -1.8461477 3.1530526 11
-25.728125 -0.74053103 5.0027194 13
-25.608801 -1.4750606 6.8724318 15
-25.539333 -2.9532528 0.44859087 8
-25.548477 -2.5819881 2.2461152 10
-25.572168 -2.212903 4.0646777 12
-25.570551 -1.8423172 5.9179006 14
-25.2572 -5.1578579 0.4506627 8
-25.283081 -4.7849851 1.3488336 9
-25.221638 -5.1493793 3.1607289 11
-25.244789 -4.776607 4.0689702 12
-25.231836 -4.7737713 4.9910107 13
-25.19239 -5.5223956 2.2568238 10
-25.139866 -5.5091062 5.9411993 14
-25.166039 -5.1363568 6.8813396 15
-24.031195 -15.098941 0.50959766 8
-24.005239 -15.08131 1.4994423 9
-24.04685 -14.628237 2.4748726 10
-23.905329 -15.498226 4.5256529 12
-23.879475 -15.478657 6.5825315 14
-23.855139 -15.46144 7.6294751 15
-23.682241 -17.900822 0.53855211 8
-23.634577 -17.861546 2.611196 10
-23.742146 -16.891148 3.5943797 11
-23.781155 -16.406134 5.6308417 13
-23.467749 -19.382458 1.618613 9
-23.549244 -18.331581 4.7464285 12
-23.442621 -18.792475 6.9568543 14
-23.357506 -19.85952 3.7883332 11
-23.395662 -19.315689 5.9192147 13
-23.295168 -19.798901 8.2146521 15
-17.343159 -6.2327347 4.9384847 15
-17.107508 -6.4307251 0.32216874 8
-17.085691 -6.4219937 0.95936459 9
-17.087952 -6.4223213 1.5995157 10
-17.070036 -6.4150572 2.2411041 11
-17.071898 -6.4152284 2.8902197 12
-17.062725 -6.4112439 3.5443976 13
-17.039896 -6.4021153 4.2034502 14
-16.908617 -8.0804539 0.33264276 8
-16.893618 -8.0726061 0.98633617 9
-16.880138 -8.065485 1.6414043 10
-16.879927 -8.0647058 2.3012435 11
-16.859098 -8.0540619 2.9631155 12
-16.854229 -8.0510435 3.634165 13
-16.849325 -8.0480003 4.3139911 14
-16.824017 -8.0351887 4.9984097 15
-15.592837 -23.137579 0.53136605 8
-13.440802 -50.174091 2.8588188 9
-13.401968 -50.004627 8.3379688 12
-12.899581 7.3630261 0.26931447 8
-12.908903 7.3678074 0.78961867 9
-12.928712 7.3785648 1.3136523 10
-12.426698 -23.982227 0.52414888 8
-11.613135 7.5474639 1.7137946 11
-11.030502 7.6301355 2.1389065 12
-11.031618 7.6303368 2.622705 13
-11.061096 7.6501179 3.1212082 14
-10.977769 7.595932 0.24469507 8
-10.988234 7.6026106 0.71262485 9
-10.706656 7.6382227 1.1639987 10
-10.284915 -24.890074 0.53006631 8
-10.24321 7.7606869 3.4617441 15
-9.4240179 7.8077459 1.51828 11
-9.4515057 7.8293099 2.4030387 13
-9.3953323 7.7851648 0.65347952 9
-8.9406662 7.8546047 1.0565621 10
-8.9825439 7.888968 2.7790198 14
-8.6953974 7.8659449 0.21875136 8
-8.2825699 7.9375315 1.8349452 12
-8.3207016 7.9721727 3.1087191 15
-8.0794621 7.9707985 1.4109242 11
-8.0935335 7.9834595 2.2290545 13
-7.4470592 8.0154715 0.20665736 8
-7.5332861 -26.514545 0.55267197 8
-7.4481053 8.016017 0.589926 9
-6.9131842 8.1177807 2.0936277 13
-6.3488755 8.1504574 -0.1638293 7
-6.3842163 8.1908264 2.8067753 15
-6.1833301 8.1776981 0.91617721 10
-5.3739219 8.2906809 1.9439805 13
-5.0720787 8.343791 2.6427238 15
-4.6033578 8.3740568 1.5372361 12
-4.3003163 8.3912058 0.84722799 10
-4.2228847 -25.842714 2.3687785 10
-3.4625618 8.5034885 1.479815 12
-2.7887614 8.5802736 1.781407 13
-2.3174775 -25.663847 0.53155112 8
-2.3156264 -25.635197 1.4308773 9
-2.3117366 -25.575699 3.2359352 11
-2.3099155 -25.547291 4.1463985 12
-2.3090811 -25.529964 5.0673957 13
-2.3070295 -25.498777 5.9967155 14
-2.0016165 8.6563549 -0.13065138 7
-1.7465869 8.6924744 0.18027951 8
-1.7484899 8.7013779 0.49127784 9
-1.7501336 8.7090197 0.80400199 10
-1.7496105 8.7061481 1.1179055 11
-1.7526045 8.7203341 1.4371858 12
-1.7531264 8.7225246 1.7586861 13
-1.7529862 8.7215014 2.0840409 14
-1.7600702 8.7555094 2.4243817 15
2.5229037 4.1975193 -0.29049537 6
2.5747981 3.8993504 0.055242836 8
2.5199618 4.1987023 0.229304 9
2.527874 4.2140784 0.49228716 10.5
2.5370536 4.2314963 0.75966698 12
2.5326366 4.2265434 0.93783909 13
2.5391088 4.2387805 1.1224527 14
2.5332782 4.2316537 1.3049639 15
2.7082777 2.9516852 -0.3760545 5
2.785706 2.5618265 1.0220371 15
2.8224087 2.2956142 -0.20768875 6
2.8230941 2.2973399 -0.077288687 7
2.8213162 2.2977529 0.11815902 8.5
2.8286819 2.3052592 0.3150596 10
2.8476183 2.32177 0.51711029 11.5
2.8439231 2.320756 0.71865767 13
2.8495445 2.326381 0.85752445 14
3.0197167 2.30444 -0.3525748 5
3.9918919 -47.719727 9.4898891 13
4.6917963 -47.781281 4.377914 10
4.6858778 -47.724815 6.0670609 11
4.6577282 32.226028 8.401803 15
5.1395235 32.223434 6.0317812 13
5.1416306 32.259594 7.2261043 14
5.3827047 -47.739155 2.6957362 9
5.3649831 -47.589439 7.7679348 12
5.6640329 -24.595646 1.4237353 9
5.6599984 -24.577099 2.3086326 10
5.6462746 -24.516918 3.19245 11
5.6450577 -24.510468 4.0887537 12
5.6365433 -24.472651 4.9884276 13
6.7580762 -24.464922 0.54564178 8
6.9499898 1.976841 1.1576256 12
7.0744891 -24.235798 5.9421415 14
7.0721307 -24.225969 6.878377 15
7.4873648 0.32169813 1.2123979 12
7.8749337 -2.8831794 1.0681328 11
9.3626852 -24.116417 0.56009108 8
9.3539305 -24.091705 1.4641877 9
9.3397655 -24.053154 2.3686664 10
9.3357706 -24.040606 3.2796192 11
9.3275785 -24.017303 4.1958876 12
9.3109388 -23.97238 5.1162739 13
9.5318251 0.26386663 1.194918 11
12.809612 0.71938157 1.1433409 10
21.068481 49.095928 2.3842268 9
24.696095 -45.08419 4.7214856 10
24.645866 -44.981033 8.3539648 12
24.610939 -44.911526 10.189002 13
25.545422 -45.09206 1.1263907 8
25.519987 -45.04134 2.936636 9
25.460108 -44.924011 6.5689163 11
25.484797 -21.87771 7.9138989 14
25.973679 -21.664942 5.5081587 12
25.944136 -21.634787 6.7215362 13
25.858009 -21.551804 9.1840162 15
26.524483 -0.42896912 5.2117281 13
