# .PCD v0.7 - Point Cloud Data file format
VERSION 0.7
FIELDS x y z intensity
SIZE 4 4 4 4
TYPE F F F F
COUNT 1 1 1 1
WIDTH 1382
HEIGHT 1
VIEWPOINT 0 0 0 1 0 0 0
POINTS 1382
DATA ascii
-26.171055 1.1231403 7.0226235 15
-26.182936 1.4989254 7.0320597 15
-26.255432 2.2577631 7.0683923 15
-26.27943 2.6388593 7.085474 15
-26.310223 3.0225377 7.1058726 15
-26.337214 3.407886 7.1267614 15
-26.376022 3.797153 7.1523767 15
-25.629885 -5.963748 0.44139716 8
-25.668972 -5.3960443 0.44166845 8
-25.713396 -4.8322687 0.44221359 8
-25.737173 -4.4570441 0.44260231 8
-25.777544 -4.0856152 0.44336733 8
-25.807768 -3.7132435 0.44404811 8
-25.857895 -2.9691231 0.4455004 8
-25.885185 -2.598103 0.44639772 8
-25.924488 -2.2283862 0.44758594 8
-25.962595 -1.8583599 0.44884616 8
-25.977262 -1.4866501 0.44978896 8
-25.624228 -5.9624324 1.3606195 9
-25.679754 -5.3982544 1.3588514 9
-25.710278 -4.8317041 1.3563371 9
-25.738701 -4.4573364 1.3554735 9
-25.800367 -3.7122133 1.354848 9
-25.832264 -3.3408217 1.3550103 9
-25.869139 -2.9704511 1.3557099 9
-25.89966 -2.5995905 1.3563524 9
-25.91132 -2.2272873 1.3562775 9
-25.942886 -1.8569798 1.3575228 9
-25.966768 -1.4860759 1.3586396 9
-25.631985 -5.9642391 2.2839572 10
-25.670799 -5.3964558 2.2783768 10
-25.721928 -4.8339171 2.2748606 10
-25.744295 -4.4583359 2.2721274 10
-25.784679 -4.0868092 2.2714586 10
-25.811789 -3.7138915 2.2700927 10
-25.840887 -3.3419731 2.2693703 10
-25.863123 -2.9697969 2.2685132 10
-25.919142 -2.2279935 2.2691979 10
-25.953091 -1.8577409 2.2707529 10
-25.971098 -1.4863503 2.2713733 10
-25.730532 -4.4559793 3.1923609 11
-25.75976 -4.0828924 3.1895964 11
-25.811863 -3.7139373 3.190325 11
-25.821991 -3.339566 3.1865239 11
-25.861847 -2.9696872 3.1870496 11
-25.894669 -2.5991621 3.1873586 11
-25.921776 -2.2282541 3.1876094 11
-25.952774 -1.8577489 3.1889908 11
-25.969599 -1.4862911 3.1892784 11
-25.601402 -6.3439288 3.2185178 11
-25.616247 -5.9605794 3.2105222 11
-25.671463 -5.3964643 3.2040546 11
-25.628439 -5.9634171 4.1484075 12
-25.675512 -5.3974619 4.1382623 12
-25.709723 -4.8316717 4.1278172 12
-25.740944 -4.4578114 4.1233792 12
-25.795633 -3.7116368 4.1158586 12
-25.828794 -3.3404822 4.1143079 12
-25.863438 -2.9699059 4.1138391 12
-25.892221 -2.5989523 4.1132822 12
-25.916136 -2.2278035 4.1127858 12
-25.955942 -1.858007 4.1156526 12
-25.60387 -6.344522 5.1065235 13
-25.618906 -5.9612017 5.0932403 13
-25.679766 -5.3983583 5.0831456 13
-25.707937 -4.8313599 5.0687551 13
-25.746481 -4.4588008 5.0645032 13
-25.776272 -4.0855761 5.0595894 13
-25.798443 -3.7120764 5.0542369 13
-25.8627 -2.9698591 5.0505738 13
-25.892944 -2.599061 5.0499291 13
-25.911936 -2.2274768 5.0481195 13
-25.945202 -1.8572696 5.0501232 13
-25.967911 -1.4862487 5.0511012 13
-25.845474 -2.9679193 5.9962101 14
-25.868725 -2.596668 5.9936328 14
-25.939732 -1.85691 5.9978151 14
-25.961344 -1.4859005 5.9985271 14
-25.600538 -6.3436875 6.0676975 14
-25.620913 -5.9616694 6.0529766 14
-25.672375 -5.3968258 6.0384684 14
-25.716764 -4.8330431 6.0248756 14
-25.726404 -4.4553528 6.0128632 14
-25.800322 -3.7123833 6.0053949 14
-25.827284 -3.3403618 6.0011997 14
-25.926701 -2.228781 6.0003128 14
-25.99128 -1.1152195 6.0023794 14
-25.623285 -5.9622226 7.0285087 15
-25.678064 -5.3980513 7.0123172 15
-25.718149 -4.8333292 6.9951072 15
-25.745678 -4.4587193 6.9858446 15
-25.783655 -4.0868134 6.9808826 15
-25.838476 -3.3418477 6.9695921 15
-25.845505 -2.9679611 6.9606228 15
-25.887094 -2.5985489 6.9623942 15
-25.903137 -2.2267911 6.9587121 15
-25.943167 -1.8571883 6.9629002 15
-25.995703 -1.1154317 6.9681325 15
-25.200846 -11.514361 0.44892776 8
-25.235815 -11.097507 0.44774139 8
-25.544641 -7.1102252 0.44140255 8
-25.563183 -6.7234716 0.44113323 8
-25.593668 -6.3420367 0.44116777 8
-25.545507 -50.173748 0.86325556 8
-25.202911 -11.515038 1.4170203 9
-25.238447 -11.098423 1.4110339 9
-25.541285 -7.1092577 1.3677315 9
-25.581375 -6.7282367 1.3657216 9
-25.58882 -6.3408256 1.3622752 9
-25.204285 -11.515395 2.3886614 10
-25.237759 -11.09788 2.3776569 10
-25.541491 -7.109283 2.2974792 10
-25.570362 -6.7253208 2.2923472 10
-25.596758 -6.3427844 2.2875054 10
-25.539036 -50.149986 2.8291187 9
-25.222876 -11.523616 3.3685675 11
-25.251192 -11.103547 3.3519349 11
-25.551674 -7.1120863 3.2341497 11
-25.567051 -6.724432 3.2247751 11
-25.219891 -11.521976 4.3545237 12
-25.238274 -11.097621 4.331017 12
-25.546041 -7.1104851 4.1769857 12
-25.576612 -6.7269254 4.167037 12
-25.597857 -6.3430405 4.1565037 12
-25.544741 -50.150112 4.8024926 10
-25.549725 -7.1114774 5.1317134 13
-25.559795 -6.7224832 5.1151433 13
-25.221714 -11.522531 5.3521371 13
-25.244553 -11.100134 5.3239527 13
-25.211922 -11.51777 6.3604937 14
-25.243261 -11.099315 6.3289485 14
-25.533295 -7.1068707 6.0948992 14
-25.565189 -6.7238812 6.0802116 14
-25.528877 -50.107796 6.7821088 11
-25.558313 -7.113801 7.0839715 15
-25.576168 -6.7267475 7.0628476 15
-25.599285 -6.343369 7.0447726 15
-25.212786 -11.517878 7.3875003 15
-25.254997 -11.104221 7.3538742 15
-25.527767 -50.094391 8.7803888 12
-24.838165 -16.474834 0.47145969 8
-24.869946 -15.989315 0.46861839 8
-24.911461 -15.517794 0.46612912 8
-24.93758 -15.044118 0.46351618 8
-24.962177 -14.5769 0.46103507 8
-25.012598 -14.13131 0.45918271 8
-25.069727 -13.233809 0.45511022 8
-25.105434 -12.797647 0.4534179 8
-25.140976 -12.366688 0.45185757 8
-25.178366 -11.941607 0.45046169 8
-24.836142 -16.472719 1.5125089 9
-24.877855 -15.993689 1.5019329 9
-24.903877 -15.512416 1.4909384 9
-24.941902 -15.046124 1.4811745 9
-24.973358 -14.582882 1.4715127 9
-25.007673 -14.128021 1.4624976 9
-25.072458 -13.234833 1.4456105 9
-25.105707 -12.797408 1.4378781 9
-25.145651 -12.36865 1.430948 9
-25.178297 -11.941271 1.4240104 9
-24.829855 -16.467772 2.5566151 10
-24.867565 -15.986362 2.5376921 10
-24.906578 -15.513445 2.5197816 10
-24.94035 -15.044588 2.5021946 10
-24.974178 -14.582812 2.4854422 10
-25.041592 -13.678789 2.4542961 10
-25.084213 -13.240627 2.4407251 10
-25.122179 -12.805431 2.4274268 10
-25.13505 -12.363095 2.4124236 10
-25.177999 -11.940826 2.4010031 10
-24.879669 -15.993431 3.5820196 11
-24.920082 -15.521198 3.5565538 11
-24.985945 -14.589131 3.5070603 11
-25.016254 -14.131866 3.483665 11
-25.055313 -13.685824 3.4625788 11
-25.090931 -13.243755 3.442064 11
-25.115618 -12.801709 3.4210894 11
-25.135775 -12.363111 3.4005148 11
-25.176712 -11.939908 3.3837271 11
-24.80665 -16.966389 3.6378496 11
-24.856091 -16.484406 3.6111655 11
-25.144085 -12.366854 4.3983927 12
-25.176378 -11.939443 4.3748789 12
-24.84137 -16.473856 4.6691489 12
-24.880541 -15.993267 4.6341076 12
-24.913904 -15.516685 4.5995932 12
-24.978445 -14.584189 4.5348024 12
-25.018438 -14.132586 4.5060167 12
-25.045221 -13.679847 4.4762645 12
-25.091471 -13.243614 4.4513474 12
-25.11335 -12.800168 4.4234371 12
-24.983545 -14.586605 5.5760446 13
-25.024977 -14.135762 5.5407515 13
-25.043987 -13.6787 5.5022411 13
-25.077047 -13.235573 5.4685173 13
-25.093822 -12.789826 5.4329042 13
-25.149244 -12.369045 5.4072356 13
-25.188805 -11.945025 5.379653 13
-24.808622 -16.966036 5.7877302 13
-24.846205 -16.476271 5.7420225 13
-24.913612 -15.515829 5.6549139 13
-24.941875 -15.043676 5.6130452 13
-25.186739 -11.943725 6.3953376 14
-24.870327 -15.985226 6.772728 14
-24.923836 -15.52152 6.727325 14
-24.986403 -14.587702 6.6312008 14
-25.02042 -14.132668 6.5871043 14
-25.055267 -13.684385 6.5452852 14
-25.09362 -13.243888 6.506362 14
-25.123188 -12.804405 6.467103 14
-25.14934 -12.368737 6.4288654 14
-24.802198 -16.960768 6.8812041 14
-24.840189 -16.471478 6.8268209 14
-25.09326 -13.243259 7.5571694 15
-25.128996 -12.806969 7.5132666 15
-25.15712 -12.372207 7.4692779 15
-25.196045 -11.94782 7.4306192 15
-24.815935 -16.96928 7.9982314 15
-24.853533 -16.479513 7.9347601 15
-24.88378 -15.993127 7.8717866 15
-24.960459 -15.053628 7.7590599 15
-24.992542 -14.590704 7.7046108 15
-25.02618 -14.135389 7.6531177 15
-25.060598 -13.686814 7.6042542 15
-24.441069 -21.804684 0.50920802 8
-24.470966 -21.211657 0.50421917 8
-24.528263 -20.655375 0.50004357 8
-24.558966 -20.088936 0.49556047 8
-24.600636 -19.54343 0.49153483 8
-24.642357 -19.009033 0.48773 8
-24.680155 -18.482164 0.48405918 8
-24.716681 -17.964447 0.4805671 8
-24.787544 -16.95583 0.47412258 8
-24.613461 -50.09935 0.85639518 8
-24.602365 -19.543591 1.5891333 9
-24.680744 -18.481556 1.5611519 9
-24.71936 -17.965422 1.5480882 9
-24.755875 -17.457317 1.5355023 9
-24.792791 -16.958584 1.5235298 9
-24.421473 -21.785574 1.6519786 9
-24.472904 -21.211828 1.6355547 9
-24.512957 -20.641079 1.6191446 9
-24.570482 -20.097052 1.6046185 9
-24.47175 -21.209316 2.7706463 10
-24.515659 -20.641943 2.7427511 10
-24.552963 -20.081406 2.715369 10
-24.602964 -19.542847 2.6905925 10
-24.684608 -18.483393 2.6424162 10
-24.719219 -17.964348 2.6192837 10
-24.753273 -17.454578 2.5971241 10
-24.796082 -16.960001 2.5768685 10
-24.611589 -50.083988 2.8058436 9
-24.441498 -21.801825 2.8014131 10
-24.437813 -21.796909 3.955699 11
-24.487156 -21.221151 3.9150114 11
-24.521416 -20.645376 3.8737602 11
-24.57177 -20.095472 3.8368101 11
-24.619884 -19.555065 3.8011789 11
-24.660934 -19.019964 3.7660658 11
-24.734875 -17.974743 3.6992221 11
-24.776701 -17.470194 3.6687188 11
-24.609167 -50.067467 4.7610145 10
-24.779593 -17.471319 4.7474475 12
-24.798571 -16.960012 4.705164 12
-24.403206 -22.397856 5.1785669 12
-24.439903 -21.797131 5.1205525 12
-24.489933 -21.222031 5.067821 12
-24.532103 -20.652954 5.0158281 12
-24.57918 -20.100212 4.9671021 12
-24.607065 -19.543644 4.9167013 12
-24.64566 -19.007029 4.8705711 12
-24.696041 -18.489834 4.8287649 12
-24.653809 -19.012152 5.9915061 13
-24.690353 -18.484493 5.9365664 13
-24.729843 -17.969093 5.884717 13
-24.779089 -17.470037 5.8374505 13
-24.438435 -21.794157 6.2973995 13
-24.470896 -21.203974 6.2279248 13
-24.53796 -20.656443 6.1701431 13
-24.565577 -20.087732 6.1051974 13
-24.608324 -50.054089 6.7271819 11
-24.617443 -19.549362 7.1944213 14
-24.655247 -19.012077 7.1263433 14
-24.735003 -17.971828 7.0000954 14
-24.775797 -17.46677 6.9413471 14
-24.404722 -22.395662 7.5764737 14
-24.443851 -21.797308 7.4920564 14
-24.493231 -21.221766 7.4144049 14
-24.53227 -20.650183 7.3370876 14
-24.574173 -20.093403 7.2639599 14
-24.627958 -19.556433 8.3618364 15
-24.669113 -19.02158 8.2837229 15
-24.739101 -17.973776 8.1335144 15
-24.774565 -17.464947 8.0633926 15
-24.599485 -50.024361 8.7062693 12
-24.455862 -21.806307 8.7087326 15
-24.495337 -21.221992 8.6148891 15
-24.553934 -20.666943 8.5317545 15
-24.581758 -20.098219 8.4417658 15
-24.417923 -22.405945 8.8073864 15
-24.036501 -26.961649 0.5561794 8
-24.10253 -26.270634 0.54949945 8
-24.147211 -25.576332 0.54269749 8
-24.1943 -24.903967 0.5363003 8
-24.244625 -24.252998 0.53030032 8
-24.294296 -23.61833 0.5246051 8
-24.329792 -22.986252 0.51890683 8
-24.389046 -22.391832 0.5139994 8
-24.039566 -26.962311 1.8180674 9
-24.089375 -26.253685 1.7938248 9
-24.134369 -25.560286 1.7703743 9
-24.193277 -24.900639 1.7490251 9
-24.253849 -24.260101 1.7287985 9
-24.285528 -23.607811 1.7075031 9
-24.342243 -22.996161 1.6889075 9
-24.385685 -22.387016 1.6702753 9
-24.046804 -26.967636 3.0851085 10
-24.097048 -26.259439 3.0436671 10
-24.152929 -25.577518 3.0048501 10
-24.194359 -24.899471 2.9660635 10
-24.254307 -24.258429 2.9312685 10
-24.288673 -23.608875 2.8950388 10
-24.340769 -22.992912 2.8625066 10
-24.389273 -22.388571 2.8310361 10
-24.394751 -22.391853 3.9993188 11
-24.06271 -26.982674 4.3619146 11
-24.10614 -26.266727 4.301898 11
-24.163145 -25.585888 4.2470136 11
-24.209993 -24.913271 4.1928992 11
-24.25843 -24.260405 4.1415009 11
-24.301443 -23.619291 4.0915151 11
-24.349823 -22.999592 4.0446506 11
-24.000311 -27.698755 4.421339 11
-24.120104 -26.279305 5.5727091 12
-24.165186 -25.585575 5.4987459 12
-24.217049 -24.918221 5.4296536 12
-24.264334 -24.264149 5.3626752 12
-24.304085 -23.619837 5.2970653 12
-24.357649 -23.005098 5.2373252 12
-24.008078 -27.704697 5.7262292 12
-24.064154 -26.981457 5.6476564 12
-24.397518 -22.390856 6.367794 13
-24.165333 -25.58322 6.7637625 13
-24.205086 -24.903561 6.675324 13
-24.272942 -24.270575 6.5984664 13
-24.312561 -23.626036 6.5175705 13
-24.359137 -23.004602 6.442081 13
-24.010128 -27.704 7.0444264 13
-24.05386 -26.967043 6.9441142 13
-24.115173 -26.271244 6.8534012 13
-24.216335 -24.912771 7.9441223 14
-24.266514 -24.261927 7.8468404 14
-24.309601 -23.621086 7.751657 14
-24.368492 -23.011505 7.6656518 14
-24.005657 -27.695726 8.3782063 14
-24.058455 -26.969299 8.2619648 14
-24.105957 -26.258482 8.1492939 14
-24.165352 -25.5807 8.0457191 14
-24.272295 -24.265455 9.1191521 15
-24.323914 -23.632895 9.0116215 15
-24.375948 -23.016584 8.9090414 15
-24.126286 -26.27788 9.4765539 15
-24.167915 -25.580839 9.349164 15
-24.227894 -24.92226 9.2344799 15
-24.021986 -27.711422 9.7412453 15
-24.078213 -26.988506 9.6074095 15
-23.622587 -32.526764 0.61610556 8
-23.693218 -31.662828 0.60635549 8
-23.736366 -30.793621 0.59645152 8
-23.808231 -29.991056 0.58778208 8
-23.864677 -29.195988 0.57920492 8
-23.926384 -28.43292 0.57121438 8
-23.987907 -27.693399 0.56364506 8
-23.697222 -50.026455 0.84990519 8
-23.692593 -31.657822 1.9876019 9
-23.751947 -30.809954 1.9557689 9
-23.813423 -29.993959 1.925706 9
-23.869272 -29.198204 1.896686 9
-23.931747 -28.436115 1.8696128 9
-23.992884 -27.696169 1.8437603 9
-23.626091 -32.527122 2.0205278 9
-23.692074 -50.003494 2.7827306 9
-23.937225 -28.439434 3.1730065 10
-23.995361 -27.696043 3.1284275 10
-23.625744 -32.522179 3.4294903 10
-23.689997 -31.650169 3.3731158 10
-23.747423 -30.800171 3.3186245 10
-23.817062 -29.994896 3.2685061 10
-23.877014 -29.204271 3.2195492 10
-23.696976 -50.001717 4.7227492 10
-23.704006 -31.66469 4.7697124 11
-23.769049 -30.82431 4.6940546 11
-23.831732 -30.009703 4.6216803 11
-23.890991 -29.217937 4.5521784 11
-23.944355 -28.444696 4.4849248 11
-23.639601 -32.536747 4.8494887 11
-23.831995 -30.006325 5.9841294 12
-23.89274 -29.216608 5.8944216 12
-23.950609 -28.448891 5.8083324 12
-23.649078 -32.545261 6.2817283 12
-23.710135 -31.668634 6.1774664 12
-23.777033 -30.830704 6.0798893 12
-23.684998 -49.964218 6.669632 11
-23.945063 -28.439016 7.1432366 13
-23.708822 -31.662588 7.5987434 13
-23.772711 -30.821077 7.4777408 13
-23.838339 -30.010572 7.3632231 13
-23.895269 -29.216196 7.2516251 13
-23.643963 -32.533623 7.7257686 13
-23.693327 -49.969513 8.6376505 12
-23.844927 -30.01507 8.7615414 14
-23.896818 -29.21454 8.626894 14
-23.953899 -28.446201 8.5004988 14
-23.644106 -32.529167 9.1904774 14
-23.712624 -31.663315 9.0407677 14
-23.780363 -30.826941 8.8982325 14
-23.263201 -37.378487 0.67410368 8
-23.334736 -36.326183 0.66109049 8
-23.416723 -35.3335 0.64911377 8
-23.476728 -34.348255 0.63723558 8
-23.550161 -33.420788 0.62637967 8
-23.255611 -37.359955 2.2111506 9
-23.337681 -36.324886 2.1694057 9
-23.410486 -35.318581 2.1291168 9
-23.48484 -34.355019 2.0911522 9
-23.55619 -33.424576 2.054951 9
-23.492077 -34.360466 3.5507543 10
-23.563761 -33.430531 3.4892287 10
-23.267195 -37.372238 3.7553124 10
-23.342438 -36.326397 3.6833403 10
-23.421774 -35.330116 3.6159163 10
-23.428339 -35.334484 5.1116748 11
-23.508909 -34.379932 5.021728 11
-23.570702 -33.435558 4.93259 11
-23.285666 -37.395554 5.3114271 11
-23.353951 -36.338379 5.2080917 11
-23.57275 -33.433594 6.387393 12
-23.358019 -36.338718 6.7447248 12
-23.442251 -35.349895 6.6226625 12
-23.51255 -34.380043 6.5032763 12
-23.2048 -38.472614 7.0150366 12
-23.291931 -37.399197 6.8791595 12
-23.507242 -34.367008 7.9981651 13
-23.575438 -33.432495 7.8583255 13
-23.365723 -36.344658 8.2996616 13
-23.438278 -35.338249 8.1454287 13
-23.209717 -38.473789 8.6311426 13
-23.283602 -37.379303 8.4592133 13
-23.517401 -34.376526 9.5185318 14
-23.57663 -33.429188 9.3485651 14
-23.43565 -35.328552 9.6884708 14
-23.102808 -39.59951 0.70210177 8
-23.166357 -38.436153 0.68717849 8
-22.805439 -49.975658 0.84412271 8
-23.097477 -39.583061 2.302886 9
-23.180092 -38.452171 2.2560165 9
-22.801327 -49.953957 2.7622793 9
-23.097448 -39.575691 3.9090095 10
-23.177357 -38.440826 3.8290992 10
-22.800077 -49.938522 4.6862698 10
-23.121231 -39.609119 5.5299802 11
-23.197636 -38.467636 5.416173 11
-23.123234 -39.605125 7.1607628 12
-23.126749 -39.603649 8.8098173 13
-22.790337 -49.904377 6.6182666 11
-22.788422 -49.887299 8.5670786 12
-21.913528 -49.89497 0.83816093 8
-21.914885 -49.884769 2.7416487 9
-21.91474 -49.871105 4.6508965 10
-21.912905 -49.853523 6.5701656 11
-21.902861 -49.817142 8.5012884 12
-21.211649 9.7005453 -0.38426036 7
-21.030296 6.1824608 -0.36683291 7
-21.177832 7.9091372 -0.37513342 7
-21.125612 11.55284 -0.39437267 7
-21.044746 -49.837307 0.83290201 8
-21.038458 -49.808453 2.7215168 9
-21.041719 -49.802193 4.6168437 10
-21.035278 -49.772861 6.5201693 11
-21.033901 -49.755402 8.4395475 12
-20.755396 4.520092 -0.3588697 7
-20.399462 2.9360373 -0.35180506 7
-20.183952 -49.769634 0.82778925 8
-20.17749 -49.739029 2.7026329 9
-20.177082 -49.72332 4.5832973 10
-20.181211 -49.718708 6.4756279 11
-20.178675 -49.697544 8.3809938 12
-19.955263 1.4286155 -0.34527323 7
-19.434017 5.1292343e-05 -0.33924758 7
-19.285175 -5.6657124 0.33386436 8
-19.331287 -49.692402 0.82281375 8
-19.272577 -5.6619759 1.0354556 9
-19.230494 -5.6495752 1.7359953 10
-19.333929 -49.683773 2.6853487 9
-19.331785 -49.662785 4.5528164 10
-19.336712 -49.659908 6.4323783 11
-19.331972 -49.632027 8.3236008 12
-18.836109 -1.3482758 -0.33351973 7
-19.180422 -5.6348271 2.4366968 11
-19.156086 -5.6276426 3.1439543 12
-19.124743 -5.6183972 3.8558378 13
-19.115519 -5.6156511 4.580411 14
-19.046841 -5.5954361 5.2994919 15
-18.494568 -49.626812 0.81832552 8
-18.507896 -49.646362 2.6698334 9
-18.499907 -49.608597 4.5242491 10
-18.497425 -49.585541 6.3889823 11
-18.504864 -49.588966 8.2723465 12
-18.162271 -2.6131902 -0.32788959 7
-17.616434 -6.5734844 0.30851638 8
-17.645443 -6.157351 0.30778307 8
-17.667358 -5.7432981 0.30707592 8
-17.677715 -49.586922 0.81454474 8
-17.639528 -6.1551957 0.96037096 9
-17.679541 -5.7472053 0.95675361 9
-17.619513 -6.5744443 1.6248739 10
-17.642363 -6.1561131 1.6156671 10
-17.662275 -5.741539 1.606986 10
-17.62085 -6.5748463 2.2883663 11
-17.643372 -6.1564612 2.2749074 11
-17.685751 -5.7491164 2.265105 11
-17.673862 -49.558933 2.6524246 9
-17.609756 -6.5706096 2.955533 12
-17.638468 -6.1545806 2.9388595 12
-17.680056 -5.74721 2.92575 12
-17.66131 -5.7410603 3.5906224 13
-17.604803 -6.5686617 3.6305013 13
-17.645901 -6.1571093 3.6123121 13
-17.606323 -6.8569927 4.3385568 14
-17.612761 -6.5715327 4.3174338 14
-17.644472 -6.1565657 4.2933178 14
-17.681339 -5.7475157 4.272521 14
-17.670961 -49.533588 4.4950876 10
-17.602989 -6.5677848 5.011025 15
-17.650393 -6.1585321 4.9873056 15
-17.682219 -5.7477455 4.9615631 15
-17.773676 -5.4981942 4.9655952 15
-17.677612 -49.534962 6.3504658 11
-17.678951 -49.521263 8.2193031 12
-17.467257 -3.8021102 -0.32316101 7
-17.577839 -6.9918962 0.3092747 8
-17.574696 -6.9904332 0.96995544 9
-17.599274 -6.5669847 0.96443456 9
-17.58102 -6.9928546 1.633647 10
-17.588734 -6.9958572 2.3020108 11
-17.585953 -6.9946175 2.9748766 12
-17.575476 -6.9902253 3.653353 13
-17.570936 -7.1336884 4.3536372 14
-17.564323 -7.4245934 5.0832844 15
-17.57321 -7.1344733 5.056725 15
-16.856054 -49.505207 0.81036007 8
-16.859787 -49.498043 2.6372154 9
-16.859253 -49.478287 4.468987 10
-16.861441 -49.466427 6.3114109 11
-16.863146 -49.452999 8.1684456 12
-16.727097 -4.9140868 -0.31874093 7
-16.055151 -49.45586 0.80697834 8
-16.057201 -49.442966 2.6230702 9
-16.058477 -49.427635 4.4445376 10
-16.057545 -49.405399 6.2750425 11
-16.060976 -49.396446 8.1217365 12
-15.934128 -5.9456434 -0.31431842 7
-15.254419 -49.378532 0.80341142 8
-15.260126 -49.376652 2.6090682 9
-15.259996 -49.355793 4.4193931 10
-15.26178 -49.34103 6.2399359 11
-15.264615 -49.329502 8.0754833 12
-15.119452 -6.9070239 -0.31034735 7
-14.469728 -49.324512 0.80049151 8
-14.475697 -49.323223 2.5964727 9
-14.478376 -49.310627 4.3978209 10
-14.475286 -49.278233 6.2066789 11
-14.480514 -49.274048 8.0332212 12
-14.480064 -49.250267 9.8757286 13
-14.267887 -7.7924414 -0.30639273 7
-13.694728 -49.276268 0.79791957 8
-13.694494 -49.252316 2.5836625 9
-13.698895 -49.24501 4.3755746 10
-13.701689 -49.231781 6.1770773 11
-13.704709 -49.219189 7.9931145 12
-13.707488 -49.205467 9.8280849 13
-13.388606 -8.6049833 -0.30250353 7
-13.357994 7.8135839 0.28717729 8
-13.370582 7.8216329 0.82928282 9
-13.38949 7.8333797 1.375114 10
-13.38987 7.8343039 1.9232343 11
-13.402687 7.842505 2.4784756 12
-13.403214 7.8435311 3.0382242 13
-13.407553 7.8467951 3.6067653 14
-13.407685 7.8476129 4.1836677 15
-12.98708 7.8484521 0.28177589 8
-12.919561 -49.198795 0.79513115 8
-12.995358 7.8541646 0.81310385 9
-13.006374 7.8615336 1.3474101 10
-13.019207 7.8700047 1.8862263 11
-12.926945 -49.202271 2.572638 9
-13.017767 7.8698678 2.4281461 12
-13.021442 7.8728256 2.9772172 13
-13.016095 7.8703461 3.5317249 14
-12.931843 -49.196186 4.3559508 10
-13.034593 7.8822799 4.1023827 15
-12.935027 -49.183418 6.1488008 11
-12.932832 -49.149975 7.9526963 12
-12.933901 -49.128708 9.7765293 13
-12.485574 -9.345933 -0.29864118 7
-12.613312 7.8714638 0.27624708 8
-12.624405 7.8791137 0.79705155 9
-12.622821 7.8788681 1.3194263 10
-12.655957 7.901022 2.3817568 12
-12.65204 7.899343 2.9185834 13
-12.650122 7.8989177 3.4630451 14
-12.667163 7.9103289 4.0222926 15
-12.257454 7.8948836 -0.23831901 7
-12.264512 7.9001799 0.2712017 8
-12.16151 -49.158268 0.79318935 8
-12.261088 7.8987365 0.78133368 9
-12.286196 7.9156513 1.2961324 10
-12.293933 7.9213967 1.8136892 11
-12.2926 7.9213138 2.334702 12
-12.166387 -49.151543 2.5622566 9
-12.302436 7.9284286 2.8640721 13
-12.302675 7.9293776 3.3989301 14
-12.318081 7.9401031 3.9474378 15
-12.166373 -49.124943 4.3354554 10
-12.170615 -49.115421 6.1196098 11
-12.175973 -49.110199 7.9190135 12
-12.180985 -49.103294 9.7375956 13
-11.927212 7.9270077 0.26634991 8
-11.920443 7.9232965 0.76691747 9
-11.783577 7.9543242 1.2610488 10
-11.789212 7.9589248 1.7642713 11
-11.793485 7.9626446 2.27212 12
-11.636639 7.9806876 2.7615769 13
-11.943949 7.9420757 2.8070271 13
-11.796655 7.9663825 3.3059459 14
-11.964404 7.9573083 3.8704927 15
-11.577981 -10.030025 -0.29516336 7
-11.28555 7.9761066 0.25720522 8
-11.297509 7.9853721 0.74147248 9
-11.31101 7.9965687 1.718264 11
-11.311616 7.9978423 2.2121568 12
-11.322202 8.0079184 3.7358923 15
-10.979949 7.9985476 0.25289282 8
-10.986475 8.0041466 0.72859085 9
-10.998156 8.0134945 1.2072397 10
-10.987665 8.0067272 1.686512 11
-11.000858 8.0180712 2.664453 13
-11.006033 8.022727 3.1634259 14
-11.017198 8.0317593 3.6730418 15
-10.652778 -10.648237 -0.29167315 7
-10.681662 8.0172472 -0.21795464 7
-10.550566 8.0375719 0.2469855 8
-10.554099 8.0411863 0.71128666 9
-10.557674 8.0448427 1.1776861 10
-10.421609 8.0617456 1.6345869 11
-10.568746 8.0550051 2.1222086 12
-10.57368 8.0597124 2.6024861 13
-10.570624 8.0583601 3.0875208 14
-10.44996 8.0873976 3.5600686 15
-10.722782 8.0552349 3.6131675 15
-10.135811 8.0728664 0.2413182 8
-10.131392 8.0702801 0.69439125 9
-10.142176 8.0797853 1.1505347 10
-10.143069 8.0814342 1.6089541 11
-10.143968 8.0830927 2.0714839 12
-10.151209 8.0898123 2.5409112 13
-10.143885 8.0849552 3.0131712 14
-10.165236 8.1029301 3.5024059 15
-9.7130938 -11.202181 -0.28814769 7
-9.6049156 8.1108589 0.23409702 8
-9.6008959 8.1084518 0.67368954 9
-9.8764505 8.1023245 1.1334698 10
-9.7409573 8.1088982 1.5724846 11
-9.7544832 8.1210489 2.027168 12
-9.8787937 8.1071701 2.5016234 13
-9.7606125 8.128252 2.9506326 14
-9.7628803 8.1310701 3.4233141 15
-9.3430128 8.1210613 -0.20207745 7
-9.3545313 8.1320581 0.23077568 8
-9.3479099 8.1273241 0.66401863 9
-9.3592148 8.1381464 1.1004277 10
-9.3723774 8.1505909 1.5409527 11
-9.3752327 8.1540995 1.9844013 12
-9.3679018 8.1487789 2.4304986 13
-9.3759308 8.1578836 3.3485501 15
-8.9915857 8.1619549 0.22601368 8
-8.9950056 8.1660089 0.65119439 9
-8.9995422 8.1711617 1.0784782 10
-8.8800592 8.1815729 1.497921 11
-9.1258173 8.1701002 1.9561974 12
-9.0030928 8.1776733 2.3809032 13
-9.0126991 8.1875343 2.8285484 14
-8.8922634 8.1972466 3.2585108 15
-8.7631235 -11.695297 -0.28461179 7
-8.635066 8.1847343 0.22131436 8
-8.5271158 8.1998444 0.63395184 9
-8.5310621 8.2045622 1.049987 10
-8.5334187 8.208024 1.468787 11
-8.5379667 8.2135134 1.891995 12
-8.5374632 8.2141638 2.3190782 13
-8.540369 8.2180281 2.7531316 14
-8.4444733 8.2452936 3.1797736 15
-8.6586676 8.214963 3.2157559 15
-8.1913366 8.2217121 -0.18988274 7
-8.1986971 8.2302475 0.21588732 8
-8.196516 8.2292309 0.62224841 9
-8.1987562 8.2326498 1.0305327 10
-8.1998281 8.2349014 1.4414304 11
-8.1940756 8.2303295 1.8545275 12
-8.2019949 8.2394676 2.2755337 13
-8.2183228 8.2570486 2.7059464 14
-8.2112226 8.2511749 3.1361575 15
-7.8071175 -12.132715 -0.28112796 7
-7.8679633 8.2450829 0.21160039 8
-7.9846253 8.2499123 0.61496228 9
-7.9825153 8.2489452 1.0180068 10
-7.8796005 8.2609501 1.4158747 11
-7.8798671 8.2624693 1.8230548 12
-7.880765 8.2646589 2.2350702 13
-7.7810755 8.2802467 2.638978 14
-7.886116 8.2727489 3.0791185 15
-7.4575877 8.2782001 0.20656285 8
-7.4631567 8.285594 0.59693879 9
-7.4634566 8.28724 0.98873281 10
-7.5676432 8.2845373 1.3913624 11
-7.3618574 8.2966585 1.7706497 12
-7.3672566 8.3040791 2.172277 13
-7.4690423 8.2987766 2.5929303 14
-7.3753991 8.3160009 2.994112 15
-6.8457537 -12.515767 -0.27766103 7
-7.1661949 8.3067598 -0.18026315 7
-7.0705333 8.3165007 0.20201015 8
-7.0715122 8.3190651 0.58412081 9
-7.070786 8.3196621 0.96761447 10
-7.0741224 8.3248034 1.3542455 11
-7.0259094 8.3288956 1.7392482 12
-7.0271063 8.3316126 2.1326275 13
-7.0746903 8.3296814 2.5376906 14
-7.0786734 8.3359604 2.9455833 15
-6.4177313 1.6626753e-05 -0.33634716 6
-6.4491701 0.46195546 -0.33774948 6
-6.4675865 0.93153977 -0.34027147 6
-6.4408002 1.4039559 -0.34228474 6
-6.6842518 8.3356333 0.19731638 8
-6.5962791 8.3477736 0.56870276 9
-6.553473 8.357131 0.94064474 10
-6.5553589 8.3610477 1.3165241 11
-6.5048356 8.3608265 1.6901664 12
-6.5115852 8.3710775 2.0744259 13
-6.5143514 8.3761206 2.4633086 14
-6.6068802 8.3710814 2.8719602 15
-6.1058631 -1.3288499 -0.33087328 6
-6.2291293 -0.89626485 -0.33208621 6
-6.3260746 -0.45290545 -0.3335216 6
-6.3855996 1.879317 -0.34472445 6
-6.281961 2.3491838 -0.34654757 6
-6.1660848 2.8242397 -0.34977186 6
-6.2414532 8.3816833 -0.17279975 7
-6.151444 8.3867073 0.19135928 8
-6.1481786 8.383935 0.5550825 9
-6.1496477 8.3874712 0.9205749 10
-6.1488776 8.3881397 1.2881454 11
-6.068604 8.4067192 1.65359 12
-6.236546 8.3846846 2.0435402 13
-6.0697184 8.4099398 2.027966 13
-6.2370987 8.3870735 2.4259214 14
-6.0655894 8.4068146 2.5984325 14.5
-6.2446651 8.3988876 2.8178706 15
-5.8743267 -12.833749 -0.2739296 7
-5.7440214 -2.1421242 -0.32675502 6
-5.9361234 -1.7432958 -0.32869363 6
-5.9897323 3.2814584 -0.35171717 6
-5.8144398 3.7505343 -0.35596675 6
-5.804853 8.4101715 0.18747219 8
-5.8826833 8.3957834 0.54691863 9
-5.7263479 8.4274673 0.54328889 9
-5.8095345 8.4204817 0.90495282 10
-5.808217 8.4201965 1.266367 11
-5.7783189 8.4224272 1.7509409 12.333333
-5.8354955 8.4214668 2.2523 13.666667
-5.81213 8.4329491 2.7568495 15
-5.992393 -25.65572 5.0719323 13
-5.7994123 -25.635614 6.0183368 14
-5.801374 -25.628139 6.9898248 15
-5.2955723 -2.8892632 -0.32342982 6
-5.5279455 -2.5233757 -0.32487744 6
-5.5481548 4.1706309 -0.35693309 6
-5.2771034 4.5941463 -0.3598364 6
-5.3947973 8.4479895 -0.16712874 7
-5.3519564 8.4481087 0.18265526 8
-5.3962951 -25.641132 0.41376337 8
-5.3544488 8.4538088 0.53292948 9
-5.3986292 8.4577827 0.88689792 10
-5.3983474 -25.634489 1.3288064 9
-5.3353071 8.4623632 1.4157989 11.5
-5.4239645 8.4579258 1.8420782 12.666667
-5.3996677 -25.623493 2.2462881 10
-5.3530154 8.461175 2.3224084 14
-5.3578691 8.4706955 2.6971116 15
-5.4016299 -25.616409 3.1690235 11
-5.5994444 -25.632864 4.108562 12
-5.2092104 -25.59074 4.0905113 12
-5.2125392 -25.589293 5.0294142 13
-5.2150364 -25.583498 5.9799662 14
-5.2180824 -25.580133 6.9461417 15
-4.906395 -13.114268 -0.27048743 7
-5.0425835 -3.236789 -0.32207933 6
-4.9869142 5.013413 -0.36391217 6
-4.9904685 8.4715748 0.17883246 8
-4.8144851 -25.582741 0.41253066 8
-4.9908872 8.4745607 0.52300358 9
-4.9974203 8.4875259 0.86968899 10
-4.8185711 -25.585579 1.3220825 9
-4.9690766 8.4886074 1.3326504 11.333333
-4.9897952 8.480794 1.921935 13
-4.8228407 -25.589321 2.2351882 10
-4.9970255 8.4949999 2.2851508 14
-4.99826 8.4994202 2.6523302 15
-4.823842 -25.575497 3.1519301 11
-4.8261299 -25.568386 4.0765872 12
-4.8303194 -25.571215 5.0129032 13
-4.8331099 -25.566322 5.9603524 14
-4.8362103 -25.562765 6.9231462 15
-4.4763889 -3.8705158 -0.31937551 6
-4.7562275 -3.5546134 -0.31986487 6
-4.6379123 5.3849182 -0.36621162 6
-4.6053128 8.4996262 -0.16285014 7
-4.5689793 8.5062389 0.1746494 8
-4.4358802 -25.572872 0.4123382 8
-4.5677133 8.5059328 0.51244569 9
-4.5338526 8.5194607 0.96440631 10.333333
-4.4355655 -25.550177 1.3178935 9
-4.6116061 8.5203867 1.4267647 11.666667
-4.572576 8.524148 1.8883693 13
-4.4409037 -25.56023 2.2279475 10
-4.5712662 8.5241022 2.2416391 14
-4.5767694 8.5367947 2.6045103 15
-4.4423761 -25.547743 3.1414602 11
-4.4429536 -25.529909 4.061038 12
-4.4494328 -25.546017 4.9961414 13
-4.4499803 -25.527521 5.9370642 14
-4.4535756 -25.52631 6.8965592 15
-4.334908 30.590199 -0.55477011 7
-4.1544113 -4.1430473 -0.31709513 6
-4.2655921 5.7379675 -0.36912107 6
-4.2001181 8.5413294 0.1711992 8
-4.0556922 -25.539351 0.41188842 8
-4.2009506 8.5456133 0.50443387 9
-4.3319345 30.602266 0.52397364 8
-4.1977329 8.542655 1.0066514 10.5
-4.0597186 -25.541851 1.3154206 9
-4.1986942 8.5485592 1.5149369 12
-4.2003956 8.554431 1.859344 13
-4.3294697 30.617968 1.6049989 9
-4.0611734 -25.527969 2.2209558 10
-4.1968985 8.5498676 2.2062001 14
-4.1996856 8.5581379 2.5621564 15
-4.3263125 30.628958 2.6906059 10
-4.0650263 -25.529158 3.1328411 11
-4.3216553 30.629627 3.7822895 11
-4.064455 -25.502159 4.0481281 12
-4.0683703 -25.503307 4.9770999 13
-4.3184705 30.640942 4.8850422 12
-4.0745869 -25.518673 5.9220834 14
-4.3139253 30.643078 5.9989839 13
-4.3102627 30.651907 7.1297746 14
-4.3080316 30.671432 8.2823782 15
-3.9321632 -13.334917 -0.26681605 7
-3.8245103 -4.3985453 -0.31531718 6
-3.6429849 -0.929676 -0.33099952 5
-3.7461221 -0.53901285 -0.33218402 5
-3.8041768 -0.2724078 -0.33420911 5
-3.8305545 0.13757643 -0.33530906 5
-3.8349984 0.5527668 -0.33798918 5
-3.7803531 0.96828663 -0.33998534 5
-3.6863143 1.3803464 -0.34218207 5
-3.8712637 6.0727367 -0.37273309 6
-3.8757496 8.5684576 -0.16035159 7
-3.7990699 8.5643425 0.16737299 8
-3.6793098 -25.513792 0.41168755 8
-3.7651856 8.5730724 0.49474019 9
-3.8909473 30.638353 0.52149457 8
-3.7826936 8.5756426 0.99012083 10.5
-3.6815534 -25.503817 1.3117383 9
-3.763731 8.5779343 1.4886338 12
-3.7998326 8.5801086 1.8294481 13
-3.8853607 30.631662 1.6005242 9
-3.6846597 -25.499802 2.2148385 10
-3.8006482 8.5847139 2.1732657 14
-3.766798 8.5939045 2.5203612 15
-3.882268 30.644604 2.6846812 10
-3.6873515 -25.492744 3.1227527 11
-3.8795016 30.660345 3.7766643 11
-3.6886272 -25.475607 4.0363264 12
-3.6926167 -25.477119 4.9624095 13
-3.8750563 30.663288 4.8770475 12
-3.872714 30.683165 5.9931054 13
-3.8705444 30.704966 7.1261902 14
-3.8648527 30.699736 8.2718639 15
-3.4898655 -4.6419768 -0.31432039 6
-3.2399752 -1.7659223 -0.32629374 5
-3.4267089 -1.4177454 -0.32746485 5
-3.5358396 1.77896 -0.34394571 5
-3.3605032 2.1721642 -0.34727988 5
-3.2103407 2.419004 -0.34885937 5
-3.4456127 6.3707671 -0.37603655 6
-3.4506295 8.5980902 0.16440736 8
-3.30422 -25.480658 0.41148508 8
-3.3791895 8.6016197 0.4870235 9
-3.449738 30.667349 0.51897085 8
-3.3990641 8.6115093 0.97655433 10.5
-3.3084531 -25.484751 1.3093456 9
-3.377346 8.606636 1.4678555 12
-3.4466674 30.682209 1.5982785 9
-3.4486015 8.6085844 1.8067657 13
-3.3111663 -25.476912 2.2096894 10
-3.449682 8.6144447 2.146831 14
-3.3830585 8.6309443 2.4884222 15
-3.4421015 30.684072 2.6813745 10
-3.3145754 -25.474319 3.1155748 11
-3.4386601 30.696125 3.772414 11
-3.3170414 -25.464169 4.0278192 12
-3.3199468 -25.457125 4.9500275 13
-3.4352713 30.70904 4.8737564 12
-3.4316902 30.720772 5.9879475 13
-3.4268947 30.72234 7.1157594 14
-3.4220698 30.724375 8.2620497 15
-2.9537485 -13.494005 -0.26286557 7
-3.1250827 -4.8366838 -0.31163785 6
-2.9475162 -2.1994128 -0.32592288 5
-3.0971122 -1.9854532 -0.32569501 5
-3.0397089 2.6535749 -0.35028547 5
-2.854183 2.8784647 -0.35210416 5
-2.9916682 6.6268682 -0.37890932 6
-3.1736929 8.6131716 -0.15870449 7
-3.0032558 8.6264687 0.16056225 8
-2.933357 -25.464273 0.41167077 8
-2.9695182 8.6345949 0.58630061 9.333333
-3.0099468 30.704538 0.51666158 8
-3.0388446 8.6387234 1.018356 10.666667
-2.9373274 -25.466219 1.3072915 9
-3.0013256 8.6357317 1.4500806 12
-3.0047579 30.700476 1.5946455 9
-3.0032938 8.6454191 1.7813382 13
-2.9382844 -25.441635 2.2039733 10
-3.0042391 8.6515188 2.116962 14
-3.0025864 8.6506824 2.4564893 15
-3.0028107 30.729345 2.6790924 10
-2.9404728 -25.427692 3.1056526 11
-2.9981978 30.731617 3.7688718 11
-2.9443648 -25.428392 4.0163593 12
-2.9486287 -25.431974 4.937736 13
-2.9944055 30.742628 4.8695011 12
-2.9896514 30.744455 5.9812779 13
-2.9870567 30.768944 7.1135373 14
-2.9801524 30.750402 8.2542887 15
-2.7685397 -5.0362945 -0.31084052 6
-2.5851266 -2.5721157 -0.32362929 5
-2.7785814 -2.3979349 -0.32553074 5
-2.4726782 -1.0227466 -0.33004269 4
-2.6018898 -0.66369742 -0.33074275 4
-2.6918268 -0.28962401 -0.33299306 4
-2.7248473 0.24475968 -0.33623916 4
-2.6854689 0.68873268 -0.33992243 4
-2.5766807 1.0736487 -0.34201607 4
-2.4490023 1.3465363 -0.34213901 4
-2.6445963 3.0818825 -0.35306671 5
-2.4290712 3.281534 -0.35538378 5
-2.5178852 6.8481665 -0.38189569 6
-2.5050106 8.668951 -0.15844683 7
-2.6025307 8.6592522 0.15742707 8
-2.6048582 8.6735048 0.63331527 9.5
-2.5692949 30.729404 0.51421815 8
-2.6042562 8.6777363 1.1125888 11
-2.6036463 8.6801586 1.4356608 12
-2.5670278 30.759489 1.5934267 9
-2.6017046 8.6778374 1.7615242 13
-2.6018515 8.6829872 2.0934432 14
-2.6015322 8.6862631 2.4305961 15
-2.5624313 30.762327 2.6762512 10
-2.5579631 30.767036 3.7660606 11
-2.5546119 30.785528 4.8676858 12
-2.5494237 30.782881 5.9786744 13
-2.5459311 30.801237 7.109426 14
-2.5407481 30.800446 8.2546339 15
-2.2134209 31.881636 -0.58481348 7
-2.0125301 -5.336503 -0.30755818 6
-2.3888726 -5.186389 -0.30846599 6
-2.178102 -2.8874073 -0.32110924 5
-2.3847077 -2.7350059 -0.32213226 5
-2.0057023 -1.7275831 -0.32698515 4
-2.2336833 -1.4293237 -0.32786629 4
-2.0285892 -0.5173555 -0.33196405 3
-2.0821984 -0.29960954 -0.33328211 3
-2.1049466 0.30384964 -0.33678111 3
-2.0478392 0.56522059 -0.33700269 3
-2.3555012 1.5257485 -0.34358332 4
-2.1835053 1.7766981 -0.34498805 4
-2.1895335 3.4521401 -0.3563925 5
-2.0292721 7.0404077 -0.38538924 6
-2.209996 8.6941319 0.1545857 8
-2.2085903 8.6964111 0.62573105 9.5
-2.2093587 8.7073078 1.1013956 11
-2.1755319 8.7095585 1.4202939 12
-2.1757493 8.7153168 1.7446812 13
-2.1752543 8.7183962 2.0732596 14
-2.2061152 8.7151155 2.4078128 15
-1.6183474 -5.4300294 -0.30479977 6
-1.8478401 -3.0818708 -0.31909072 5
-1.8016491 -1.9196055 -0.32546094 4
-1.669358 -1.2417352 -0.32988372 3
-1.8087876 -1.0256399 -0.33022866 3
-1.9641842 -0.73127693 -0.33221036 3
-1.6820227 -0.36582467 -0.33431622 2
-1.6930668 0.3704249 -0.33720669 2
-1.8947275 0.99964702 -0.33994469 3
-1.6742558 1.3656495 -0.34275308 3
-1.840556 2.1537821 -0.34810206 4
-1.8155394 3.6897483 -0.35980433 5
-1.8567948 8.7287722 -0.15937349 7
-1.9174289 8.7125435 0.1524653 8
-1.822623 9.945981 0.17153397 8
-1.9184908 8.7260838 0.62180883 9.5
-1.8186538 9.9327908 0.52427047 9
-1.9179244 8.7325497 1.0947497 11
-1.8125733 9.908287 0.87633252 10
-1.8524427 8.739192 1.4115897 12
-1.808435 9.8983154 1.4095948 11.5
-1.8497168 8.7328272 1.7318859 13
-1.8043957 9.8890162 1.9490732 13
-1.8046381 8.7365322 2.2767153 14.666667
-1.8049958 9.9006653 2.3185215 14
-1.7961043 9.8613529 2.6809053 15
-1.2287858 -5.5303001 -0.30383292 6
-1.3881874 -3.2949333 -0.31699869 5
-1.426402 -2.1887975 -0.32319137 4
-1.2448996 -1.6391879 -0.32620305 3
-1.4686836 -1.4540139 -0.32818431 3
-1.3360652 -1.0411392 -0.33023742 2
-1.3301555 -0.68782836 -0.32952473 1.25
-1.3144251 -0.28580245 -0.33266509 0.5
-1.3343822 0.29234219 -0.33959156 0.5
-1.4365757 0.7206074 -0.34062743 1.5
-1.3995366 1.037043 -0.34072733 2
-1.3757651 1.3985132 -0.34330493 2.5
-1.3531573 1.7103343 -0.34655073 3
-1.4413861 2.4784675 -0.35279021 4
-1.4141546 3.8817809 -0.36255163 5
-1.5203966 7.1711326 -0.38769448 6
-1.0335854 -3.432291 -0.31700149 5
-0.93603998 -2.4432597 -0.32261938 4
-1.1016345 -2.3620892 -0.32159317 4
-0.99764496 -1.7877408 -0.32477096 3
-0.99634188 -1.3554697 -0.32634893 2
-0.97142941 -0.95359731 -0.32850653 0.66666669
-1.034202 -0.6753611 -0.32947075 0
-1.0511392 0.68699384 -0.33937421 0
-0.98579764 1.0085247 -0.34090945 0.75
-1.017105 1.4292811 -0.34392309 2
-1.0916144 1.8875628 -0.34704733 3
-0.88797253 2.0112994 -0.35019234 3
-1.0247194 2.6848459 -0.35520211 4
-1.1365445 3.9906127 -0.36515102 5
-0.84713727 4.0630035 -0.36639112 5
-1.0079603 7.2972064 -0.39192531 6
-0.78398138 -3.476759 -0.31462404 5
-0.66734034 -2.5067565 -0.31956607 4
-0.63239151 -1.9340329 -0.32236046 3
-0.64825749 -1.4075596 -0.3261205 1.5
-0.68752426 -1.0771074 -0.32711396 0.25
-0.58695006 1.1270121 -0.34498152 0
-0.57224548 1.310024 -0.34672225 0.75
-0.55993092 1.678519 -0.34736305 2
-0.5495317 2.1242394 -0.35102901 3
-0.57938081 2.8269014 -0.35753426 4
-0.55398458 4.1188293 -0.36812839 5
-0.48262835 7.3467579 -0.39425933 6
-0.38401383 -1.6302041 -0.32375747 2
-0.37864837 -1.3717821 -0.32608399 1
-0.33078402 -1.1810299 -0.32533228 0
-0.12202515 1.375679 -0.34324503 0.5
-0.1333231 1.773466 -0.34529006 2
-0.1617308 2.2055776 -0.3489638 3
-0.20675293 2.8714442 -0.35167912 4
-0.16125795 4.1615119 -0.35742742 5
-0.02844464 7.3462892 -0.35385025 6
0.24642143 31.927803 -0.4433279 7
0.32901344 -5.6232424 -0.29669845 6
0.19274937 -3.5396957 -0.30980778 5
0.22882268 -2.5610118 -0.31433326 4
0.17188102 -2.017509 -0.31889969 3
0.1628131 -1.6515529 -0.32080385 2
0.11229695 -1.3429013 -0.32408756 0.66666669
0.25772738 -1.1787175 -0.32112217 0
0.39775449 1.152841 -0.32380146 0
0.24602099 1.368012 -0.33000371 0.66666669
0.23061302 1.7377702 -0.33019671 2
0.22999153 2.1570323 -0.33036309 3
0.2327036 2.8519216 -0.33398697 4
0.23383392 4.1252875 -0.33853471 5
0.31799296 39.952816 0.83877683 8
0.29874176 39.962765 2.2366612 9
0.27936834 39.968925 3.6403384 10
0.25971797 39.959377 5.0513849 11
0.24019903 39.983013 6.4796066 12
0.75792527 -13.675391 -0.24769145 7
0.76882261 -5.5895548 -0.29515174 6
0.59132582 -3.4881737 -0.30764025 5
0.60174733 -2.5196438 -0.31523764 4
0.56168002 -1.933913 -0.31635636 3
0.59392315 -1.4332983 -0.32015431 1.6
0.64740509 -1.0422406 -0.31927368 0.2
0.60372877 1.0492694 -0.32366395 0
0.5795536 1.3056148 -0.32506827 1
0.50835556 1.6570759 -0.32685432 2
0.61975533 2.0780468 -0.32837164 3
0.74116141 2.7471058 -0.32833233 4
0.54236048 2.8097022 -0.33155617 4
0.53112721 4.0962338 -0.33550984 5
0.49803939 7.3158655 -0.34690437 6
0.9529224 -13.66397 -0.2468307 7
1.1687446 -5.5410252 -0.29420605 6
1.0828689 -3.3812735 -0.30623603 5
0.86503965 -2.4383533 -0.3134546 4
1.1088064 -2.3102412 -0.30935031 4
0.98894614 -1.7522988 -0.31499261 3
0.9224571 -1.3538153 -0.3154383 2
0.99297845 -1.0531003 -0.31769875 1.25
1.0243046 -0.6755867 -0.31799972 0.25
1.1477817 -0.25715837 -0.31866685 0
1.1545027 0.19621955 -0.31793284 0
1.0114459 0.59576666 -0.3186098 0
0.92782599 0.98396122 -0.32159784 0.75
1.012714 1.3542426 -0.32023785 2
0.93886352 1.9164274 -0.32259572 3
1.0277363 2.6259766 -0.32387456 4
1.1098149 3.9519155 -0.32818398 5
0.82192498 4.0284505 -0.33123076 5
1.0198232 7.2432985 -0.34011742 6
0.89068776 39.991669 0.84727192 8
0.87168658 40.001984 2.2469018 9
0.85296243 40.027248 3.6540613 10
0.83332002 40.019993 5.0678215 11
0.81375498 40.02317 6.4952621 12
1.5557699 -5.4295373 -0.29121909 6
1.4327741 -3.2362745 -0.30298102 5
1.4370002 -2.1450377 -0.30983645 4
1.4410396 -1.3967955 -0.31200144 3
1.3245744 -0.96604609 -0.3151195 2
1.4336256 -0.55441052 -0.31556112 1.6
1.3524898 -0.23800108 -0.31612566 1
1.3478743 0.26284561 -0.31611148 1
1.4389621 0.5796811 -0.3168506 1.6
1.3384334 1.0038921 -0.31699094 2
1.5181799 1.4506496 -0.3161974 3
1.3018117 1.6788895 -0.32004687 3
1.4783605 2.3767059 -0.31897846 4
1.3007164 2.4805837 -0.32000524 4
1.3895727 3.8502233 -0.32496825 5
1.5326039 7.1264563 -0.33339727 6
1.4651232 40.036022 0.85599858 8
1.4462889 40.044456 2.2577271 9
1.4275192 40.056717 3.6658492 10
1.4083978 40.063255 5.0830531 11
1.3883907 40.050907 6.5101776 12
1.9267296 -13.579496 -0.24250421 7
1.9399029 -5.3091736 -0.28908789 6
1.7777802 -3.077107 -0.30214381 5
1.7934828 -1.8503919 -0.30703732 4
1.7299837 -1.0246841 -0.31021824 3
1.9275993 -0.63071436 -0.3110857 3
1.6183642 -0.21926296 -0.31176585 2
1.6335715 0.18341702 -0.31286737 2
1.9683853 0.60326141 -0.31156284 3
1.8355054 0.96352893 -0.31297997 3
1.6682544 1.2705359 -0.31558865 3
1.7205751 2.1864803 -0.31636098 4
1.9207294 3.5857003 -0.31903929 5
1.6518573 3.7097383 -0.32032371 5
2.3201022 -5.1725535 -0.28742903 6
2.09306 -2.8647418 -0.29905269 5
2.3090732 -2.7266459 -0.29950091 5
2.159426 -1.4299209 -0.3054142 4
2.3582652 -1.1103226 -0.30469498 4
2.0243196 -0.23150241 -0.3105557 3
2.0369492 0.19047748 -0.31038082 3
2.3458843 1.3924681 -0.30925071 4
2.1000006 1.7747205 -0.31210163 4
2.2733049 3.3171909 -0.31335193 5
2.0314353 6.9639435 -0.326664 6
2.5185809 31.715878 -0.41276637 7
2.6906662 -5.0080419 -0.28559527 6
2.5082741 -2.5640576 -0.29894543 5
2.6911147 -2.3821902 -0.2977851 5
2.4322839 -0.9360562 -0.30360407 4
2.5362184 -0.66927791 -0.30422899 4
2.6173239 -0.29383883 -0.30355763 4
2.6527429 0.24901028 -0.30474839 4
2.6070831 0.64012545 -0.30573967 4
2.4952202 1.0203991 -0.30610603 4
2.7028651 2.1980307 -0.14365304 6
2.6721816 2.5996268 -0.12841505 6.1999998
2.6321847 2.975997 -0.13747172 6.1999998
2.6122231 3.381645 -0.10354564 6.5
2.5862739 3.7238655 -0.083922014 6.6666665
2.5165434 6.7698851 -0.32055616 6
2.6963449 2.1996515 0.23021436 9
2.6670985 2.5862799 0.24419966 9
2.6400874 2.9457157 0.2293769 8.8000002
2.6111281 3.3585145 0.19952574 8.5
2.5831711 3.7469506 0.21077517 8.5
2.5596395 4.0270686 0.30421788 9
2.6884065 2.2011569 0.60807484 12
2.6654565 2.577426 0.64647228 12
2.6337864 2.9852493 0.57420099 11.2
2.6074207 3.3713498 0.58158207 11
2.5782349 3.7439482 0.59414601 10.857142
2.5530787 4.0211096 0.55897349 10.5
2.7556281 -48.040924 0.80199546 8
2.6889741 2.1903472 0.93124551 14.5
2.6634762 2.5556338 1.0018002 14.6
2.6291873 2.9703829 0.98288012 14
2.6044321 3.3529825 1.0155859 13.8
2.5719664 3.757808 1.0346247 13.5
2.5918615 3.4592962 1.2290068 15
2.5685637 3.7267101 1.2840329 15
2.553061 4.0335069 1.3508701 15
2.7466724 -48.027798 2.4829612 9
2.7377684 -48.015995 4.1691532 10
2.729203 -48.010864 5.8655295 11
2.7196147 -47.989128 7.5734 12
2.7104197 -47.975739 9.3002167 13
2.8979032 -13.445525 -0.23807169 7
3.0538728 -4.8230596 -0.28400484 6
2.8662317 -2.1908834 -0.29714206 5
3.0995429 -1.8765259 -0.29594654 5
2.9832678 2.0528123 -0.097324118 6.4000001
2.9849279 6.5426755 -0.31495154 6
3.007061 2.0542295 0.24101633 9
2.9924901 2.0583763 0.617948 11.875
3.0373392 2.0599527 0.95400339 14.285714
3.4053979 -4.612524 -0.28235549 6
3.3617549 -1.4210629 -0.29457936 5
3.5143282 -1.0541569 -0.29338589 5
3.5368199 1.5895686 -0.29857796 5
3.4224422 1.8494989 -0.29927826 5
3.3149989 2.0765564 -0.13243842 6.1999998
3.4315412 6.278717 -0.30960733 6
3.3669214 2.0827212 0.21327373 8.666667
3.4299984 2.0886788 0.55418855 11
3.4404948 -47.984856 0.8048563 8
3.429318 2.0898542 0.96147972 13.75
3.4314234 -47.974079 2.4855471 9
3.4227014 -47.968494 4.1719618 10
3.4122682 -47.939838 5.8653622 11
3.4038868 -47.940586 7.5758386 12
3.3951528 -47.937714 9.3045492 13
3.8616357 -13.247561 -0.23328091 7
3.7406163 -4.3737521 -0.2804454 6
3.6121323 -0.80337518 -0.29425722 5
3.6785324 -0.54174727 -0.29411229 5
3.7213242 -0.27409253 -0.29368588 5
3.7685747 0.2170641 -0.29471606 5
3.737669 0.62973303 -0.29448918 5
3.6843398 1.0448816 -0.29600844 5
3.619997 1.3187574 -0.2971327 5
3.7676771 2.1103108 -0.11664524 6.4000001
3.8486927 5.9733548 -0.30418333 6
3.7085555 2.1082797 0.20447546 8.5
3.7390685 2.110594 0.5682469 10.857142
3.7334788 2.1124094 1.0382365 13.833333
3.7858768 2.1192505 1.2417277 15
3.9735403 -27.832804 3.4422243 11
3.9670858 -27.824362 4.4414945 12
3.9631851 -27.834011 5.45474 13
4.0660987 -4.1170793 -0.2789146 6
4.3789792 -3.8400285 -0.27761272 6
4.1953697 2.1432898 -0.026832713 7
4.1534128 2.1408544 0.22271128 8.5
4.0137682 -28.003557 0.48412442 8
4.2951064 -24.912174 0.43663096 8
4.1391492 2.1389494 0.60505432 10.8
4.1266866 -47.946117 0.80823767 8
4.1941819 2.1451807 0.99111098 13
4.0086708 -28.004084 1.4728591 9
4.2888598 -24.903469 1.3197219 9
4.1531801 2.1440475 1.3354926 15
4.2853899 -24.910809 2.2067764 10
4.1157146 -47.916409 2.4885013 9
4.002831 -27.999598 2.4647329 10
4.2774768 -24.892754 3.0965555 11
4.2717295 -24.887362 3.9946668 12
4.1068983 -47.911823 4.1748915 10
4.2671218 -24.888855 4.9036598 13
4.097127 -47.896748 5.869873 11
4.0892377 -47.904282 7.5818291 12
4.078897 -47.884449 9.3078966 13
4.6690316 -3.5358253 -0.27600518 6
4.5818133 2.1726031 -0.029406792 7
4.7456536 31.235971 -0.38268778 7
4.5796857 2.1723487 0.24071147 8.5
4.6572385 -24.885134 0.43917224 8
4.5771751 2.1720884 0.60274196 10.5
4.5738049 2.1714635 0.97032887 12.5
4.6516299 -24.880812 1.3238255 9
4.5758042 2.1733484 1.3487431 14.5
4.6445141 -24.86858 2.2106357 10
4.6407938 -24.874506 3.1041958 11
4.7916422 -47.859814 4.1791472 10
4.6329441 -24.858713 4.0023007 12
4.6279559 -24.858402 4.9122443 13
4.7821617 -47.8508 5.8753028 11
4.77246 -47.840282 7.5850544 12
4.7621846 -47.824978 9.3120022 13
4.8301225 -13.028477 -0.22890987 7
4.9402471 -3.2107797 -0.27448466 6
5.1887445 -2.8645325 -0.27294335 6
5.017374 -24.842476 0.44156933 8
4.8111672 -47.884594 0.81146836 8
5.0120864 -24.840343 1.3273013 9
5.0109978 -24.858938 2.2178972 10
4.8014984 -47.872993 2.4927716 9
5.0002804 -24.830326 3.1092963 11
4.9938502 -24.822985 4.0096793 12
4.9911771 -24.834427 4.9231915 13
4.9792399 -24.825874 6.7838731 15
5.4138737 -2.4991503 -0.27145806 6
5.3858547 -24.833927 0.44470233 8
5.503952 33.086327 0.77093917 8
5.4956408 -47.821033 0.81489778 8
5.3764 -24.813187 1.3318073 9
5.4845285 33.060993 1.9432425 9
5.3731985 -24.821121 2.223166 10
5.4861584 -47.813377 2.4967778 9
5.3668146 -24.814627 3.1186647 11
5.4728632 33.081856 3.122654 10
5.4759936 -47.80006 4.1836505 10
5.3581882 -24.798019 4.0196915 12
5.464489 33.122967 4.3136678 11
5.3545814 -24.804701 4.9340935 13
5.4521832 33.141666 5.514411 12
5.4666514 -47.794281 5.8807116 11
5.3461971 -24.78973 5.8562775 14
5.5975285 31.337957 6.3821497 13
5.4333649 33.122608 6.7224622 13
5.4565487 -47.782528 7.590889 12
5.5816669 31.332783 7.5457659 14
5.4191899 33.132576 7.9529009 14
5.5668292 31.334591 8.7301426 15
5.4466972 -47.773769 9.3196936 13
5.409512 33.171192 9.2122898 15
5.7835426 -12.730324 -0.22394143 7
5.6340928 -2.123533 -0.27101904 6
5.823473 -1.7274201 -0.2704064 6
5.9782763 -1.3132697 -0.26957396 6
5.6492562 18.792244 -0.20477076 7
5.7505441 -24.800333 0.44752702 8
5.6656981 31.315514 0.73712903 8
5.7470894 -24.806896 1.3377641 9
5.6524453 31.321033 1.8512666 9
5.7389979 -24.793671 2.2298794 10
5.7305646 -24.779091 3.1262593 11
5.636529 31.312366 2.968787 10
5.7251825 -24.777765 4.031383 12
5.6245408 31.325621 4.0956459 11
5.719841 -24.776857 4.9464774 13
5.6101584 31.326521 5.231349 12
5.7144103 -24.77586 5.8739085 14
5.704525 -24.756044 6.8110785 15
6.0949879 -0.88424891 -0.26848119 6
6.213613 -0.44719905 -0.26897216 6
6.3154898 0.36818987 -0.2689454 6
6.3375754 0.83206129 -0.26975289 6
6.32863 1.3018228 -0.2709583 6
6.2694054 1.7704107 -0.27178514 6
6.1890516 2.2422161 -0.27354726 6
6.0547218 2.7035115 -0.27482176 6
6.1174679 -24.769764 0.45054248 8
6.1364489 31.34647 0.74501872 8
6.1832767 -47.77832 0.81891596 8
6.1152258 -24.781075 1.3430084 9
6.1233368 31.352074 1.8633271 9
