# .PCD v0.7 - Point Cloud Data file format
VERSION 0.7
FIELDS x y z intensity
SIZE 4 4 4 4
TYPE F F F F
COUNT 1 1 1 1
WIDTH 1396
HEIGHT 1
VIEWPOINT 0 0 0 1 0 0 0
POINTS 1396
DATA ascii
-24.798359 -22.752581 1.7018207 9
-24.491793 -28.252411 3.1973271 10
-24.531868 -27.495523 3.1514509 10
-24.574955 -26.764639 3.1080742 10
-24.617863 -26.054739 3.0666673 10
-24.654772 -25.358597 3.0264122 10
-24.701954 -24.691839 2.9892046 10
-24.73107 -24.024965 2.9515326 10
-24.758978 -23.374386 2.9153781 10
-24.797508 -22.750067 2.8820398 10
-24.407705 -29.835522 3.2954099 10
-24.451895 -29.033684 3.2454686 10
-24.578796 -26.766209 4.3906064 11
-24.630493 -26.065666 4.3334579 11
-24.66721 -25.36911 4.2763224 11
-24.690727 -24.678474 4.2194757 11
-24.742344 -24.033922 4.1698523 11
-24.766068 -23.379215 4.1178265 11
-24.40658 -29.830729 4.6549902 11
-24.453175 -29.032013 4.5847549 11
-24.504288 -28.263834 4.5186553 11
-24.544231 -27.506588 4.45362 11
-24.67037 -25.370054 5.5358758 12
-24.70549 -24.69108 5.4646997 12
-24.752699 -24.041969 5.3993034 12
-24.770363 -23.381393 5.3304601 12
-24.453804 -29.029539 5.9351897 12
-24.512354 -28.270124 5.8512936 12
-24.540695 -27.499805 5.7642388 12
-24.589554 -26.77529 5.6858644 12
-24.630428 -26.063129 5.6092525 12
-24.41242 -29.834419 6.0274882 12
-24.708166 -24.69158 6.7216692 13
-24.74951 -24.036835 6.6395364 13
-24.789362 -23.397429 6.5606294 13
-24.509935 -28.264286 7.1961842 13
-24.555563 -27.513617 7.094038 13
-24.588734 -26.77173 6.9930272 13
-24.645636 -26.076735 6.9031982 13
-24.677937 -25.375504 6.8106766 13
-24.421543 -29.842079 7.4165039 13
-24.471384 -29.047153 7.3053985 13
-24.710297 -24.691502 7.9956183 14
-24.751289 -24.036507 7.8977199 14
-24.788326 -23.394527 7.8028774 14
-24.600754 -26.782116 8.3219814 14
-24.643003 -26.071423 8.210125 14
-24.677395 -25.372587 8.1007004 14
-24.477343 -29.05092 8.691741 14
-24.527969 -28.281996 8.5659742 14
-24.562117 -27.518072 8.4403753 14
-24.433413 -29.853062 8.8261089 14
-24.769346 -24.051945 9.1822739 15
-24.796017 -23.39983 9.0681343 15
-24.649662 -26.075899 9.5412931 15
-24.690277 -25.383436 9.4164457 15
-24.724905 -24.703861 9.294878 15
-24.566895 -27.520493 9.8082228 15
-24.610199 -26.789658 9.6724339 15
-24.021502 -36.221535 0.67038447 8
-24.074181 -35.199093 0.65785229 8
-24.127457 -34.217846 0.64603138 8
-24.192394 -33.290138 0.63516444 8
-24.236338 -32.36832 0.6243524 8
-24.283705 -31.484232 0.61420357 8
-24.34127 -30.643812 0.60484618 8
-24.38278 -29.811829 0.59558934 8
-24.366018 -49.546795 0.8535887 8
-24.352306 -30.654081 1.9734089 9
-24.386051 -29.812445 1.9417979 9
-24.026171 -36.223118 2.189672 9
-24.08218 -35.2057 2.1488321 9
-24.14533 -34.238445 2.1107666 9
-24.186522 -33.277611 2.0728033 9
-24.243185 -32.373322 2.0380661 9
-24.295483 -31.49563 2.004724 9
-24.357584 -49.518597 2.781934 9
-24.156744 -34.249863 3.5816009 10
-24.21242 -33.308796 3.5191715 10
-24.263138 -32.395809 3.4591944 10
-24.313236 -31.514765 3.4021142 10
-24.350679 -30.648401 3.346097 10
-24.051718 -36.256153 3.717808 10
-24.097483 -35.222946 3.6468639 10
-24.345575 -49.483101 4.7143507 10
-24.365942 -30.663958 4.7298946 11
-24.104593 -35.228199 5.1537066 11
-24.162977 -34.253887 5.0612612 11
-24.213369 -33.305618 4.9719033 11
-24.268808 -32.399193 4.8880463 11
-24.314159 -31.512049 4.8063574 11
-24.054485 -36.254803 5.253027 11
-24.279446 -32.409172 6.3307142 12
-24.323296 -31.519943 6.2244768 12
-24.367014 -30.661612 6.1233568 12
-24.337723 -49.456001 6.6568627 11
-24.114601 -35.237637 6.6746874 12
-24.170851 -34.260216 6.5543709 12
-24.220877 -33.311428 6.4385309 12
-24.001318 -37.314388 6.9352908 12
-24.056026 -36.251564 6.8009162 12
-24.375692 -30.668812 7.53438 13
-24.236586 -33.328465 7.9245653 13
-24.282846 -32.409443 7.7878952 13
-24.328478 -31.522669 7.6577396 13
-24.065916 -36.260841 8.368556 13
-24.120584 -35.241135 8.2119226 13
-24.177801 -34.265167 8.0642309 13
-24.33519 -49.43964 8.6157494 12
-24.014479 -37.328804 8.5350275 13
-24.338844 -31.532063 9.1126871 14
-24.389709 -30.682667 8.9672098 14
-24.18959 -34.276913 9.5969715 14
-24.235762 -33.322689 9.425868 14
-24.292427 -32.4179 9.2672815 14
-24.133574 -35.254795 9.7732019 14
-23.775587 -1.7000942 -0.42088696 7
-23.893486 -38.36393 0.6970883 8
-23.954853 -37.265739 0.68327028 8
-23.907402 -38.379971 2.2778139 9
-23.966959 -37.278713 2.232528 9
-23.918373 -38.391281 3.8650968 10
-23.9818 -37.295925 3.7888942 10
-23.937216 -38.415173 5.4647465 11
-23.996933 -37.31353 5.3562088 11
-23.940825 -38.414562 7.0755506 12
-23.947945 -38.419506 8.7053928 13
-23.468254 -49.493572 0.84744173 8
-23.461552 -49.467865 2.7606201 9
-23.451361 -49.434772 4.6780195 10
-23.448658 -49.417419 6.6066008 11
-23.44046 -49.38839 8.548317 12
-22.588753 -49.450581 0.84179491 8
-22.580616 -49.420643 2.7404189 9
-22.57432 -49.394711 4.6439738 10
-22.566633 -49.365685 6.5566792 11
-22.557926 -49.334324 8.4831123 12
-22.201538 -3.1912899 -0.40062255 7
-21.715618 -49.393383 0.83622384 8
-21.716457 -49.382584 2.7216113 9
-21.70042 -49.33337 4.6093931 10
-21.699345 -49.318111 6.5093541 11
-21.692987 -49.290756 8.4223337 12
-20.863432 -49.35614 0.83129883 8
-20.856428 -49.326225 2.7026601 9
-20.84643 -49.289204 4.5778461 10
-20.845505 -49.273575 6.4644074 11
-20.840509 -49.248196 8.3642664 12
-20.648611 -4.4905758 -0.38173333 7
-20.015486 -49.301575 0.8263886 8
-20.011269 -49.277153 2.6849566 9
-20.005878 -49.249825 4.5481224 10
-19.988075 -49.191883 6.4165425 11
-19.996466 -49.198288 8.3074226 12
-19.005396 -5.285253 0.32914555 8
-19.18096 -49.25238 0.82185739 8
-18.975588 -5.2769322 1.017013 9
-18.933716 -5.2652531 1.7041132 10
-18.869637 -5.2473974 2.3895292 11
-19.17828 -49.230743 2.6682119 9
-18.828566 -5.2359433 3.0799084 12
-19.169151 -49.192513 4.518085 10
-19.166222 -49.170135 6.3783679 11
-19.16234 -49.14518 8.2524529 12
-18.784716 -5.2237139 3.7743723 13
-18.751226 -5.2143683 4.4775634 14
-18.711906 -5.2033992 5.1880774 15
-18.35408 -49.195194 0.81748134 8
-18.35483 -49.181667 2.6521208 9
-18.34959 -49.152039 4.490901 10
-18.346722 -49.128693 6.3394413 11
-18.345106 -49.108574 8.2025833 12
-18.340094 -49.079189 10.082932 13
-17.751553 -6.618824 -0.34970272 7
-17.843893 -5.2377186 -0.33964139 7
-17.728611 -6.9000101 0.31226721 8
-17.748243 -6.6174903 0.31163621 8
-17.780064 -6.1993723 0.31088674 8
-17.809355 -5.7846546 0.31024453 8
-17.802986 -5.5028973 0.30946541 8
-17.726395 -6.8990297 0.97704947 9
-17.763172 -6.6229558 0.97448486 9
-17.775906 -6.1978297 0.96879542 9
-17.798805 -5.7811661 0.96413732 9
-17.822598 -5.5089149 0.96180081 9
-17.74118 -6.9046707 1.6456271 10
-17.750278 -6.6180472 1.638262 10
-17.783846 -6.2004561 1.6298686 10
-17.8193 -5.7877665 1.6224352 10
-17.815804 -5.5067663 1.6155297 10
-17.757542 -6.6206551 2.3077111 11
-17.782867 -6.1999865 2.2943835 11
-17.812901 -5.7856264 2.2827871 11
-17.845154 -5.5157928 2.2773373 11
-17.763817 -6.6228929 2.9832523 12
-17.792313 -6.203352 2.9662476 12
-17.814777 -5.7861762 2.9496806 12
-17.828163 -5.5104895 2.9393182 12
-17.770346 -6.6252232 3.6667767 13
-17.788675 -6.2019367 3.643549 13
-17.822887 -5.7887478 3.6253521 13
-17.830902 -5.5112867 3.611367 13
-17.782915 -6.6298046 4.3615608 14
-17.791298 -6.2026911 4.3313107 14
-17.805086 -5.7829027 4.3045492 14
-17.84473 -5.5155125 4.2954273 14
-17.788342 -6.631722 5.066493 15
-17.805401 -6.2076602 5.0336533 15
-17.828949 -5.7905931 5.0051188 15
-17.8363 -5.5128551 4.9853616 15
-17.545073 -49.159008 0.81373435 8
-17.54262 -49.135735 2.6369765 9
-17.541534 -49.116234 4.4654136 10
-17.532667 -49.074879 6.3006959 11
-17.533749 -49.061245 8.1532021 12
-17.529343 -49.032085 10.022012 13
-16.742474 -49.114536 0.81012499 8
-16.738285 -49.084919 2.6223309 9
-16.73597 -49.060749 4.4393802 10
-16.733301 -49.035454 6.2655263 11
-16.732964 -49.016838 8.1065264 12
-16.729685 -48.989452 9.9647236 13
-16.370241 -7.4734135 -0.33547464 7
-15.948718 -49.069492 0.80677551 8
-15.947612 -49.047714 2.6091523 9
-15.943234 -49.015846 4.4155226 10
-15.938584 -48.983055 6.2303934 11
-15.940324 -48.969757 8.0615749 12
-15.941032 -48.953087 9.9113522 13
-15.074293 -8.2280903 -0.32309249 7
-15.166968 -49.035408 0.80386943 8
-15.15892 -48.989899 2.5956044 9
-15.160231 -48.974613 4.3931804 10
-15.154039 -48.934975 6.197464 11
-15.152413 -48.909946 8.0166636 12
-15.156916 -48.904503 9.8580904 13
-14.38262 -48.965805 0.8006472 8
-14.385831 -48.95602 2.5840375 9
-14.38512 -48.932838 4.3719511 10
-14.380544 -48.896393 6.1673527 11
-14.382342 -48.881485 7.9789586 12
-14.382426 -48.860523 9.8082972 13
-13.796932 -8.8631725 -0.31105274 7
-13.617575 -48.934906 0.79830736 8
-13.614417 -48.901478 2.5720716 9
-13.616718 -48.887623 4.3515468 10
-13.616186 -48.863449 6.1395197 11
-13.614516 -48.835049 7.9403338 12
-13.614469 -48.812241 9.7601194 13
-13.342801 8.0436077 0.28894159 8
-13.349583 8.0483942 0.83406723 9
-13.370598 8.0617666 1.3832877 10
-13.376291 8.0659037 1.9354461 11
-13.390547 8.0752163 2.4944925 12
-13.401155 8.0823355 3.0601664 13
-13.401725 8.0834084 3.6317968 14
-13.420033 8.0951939 4.2184191 15
-12.956207 8.0649319 0.28321266 8
-12.854327 -48.884472 0.79590082 8
-12.964978 8.0711088 0.81733853 9
-12.996131 8.0919552 1.8971658 11
-12.854962 -48.863293 2.5616472 9
-13.018874 8.1068525 2.4467816 12
-13.011754 8.1031561 2.9975853 13
-13.025212 8.1122942 3.5610301 14
-12.856759 -48.846478 4.3326173 10
-13.039226 8.1217899 4.1350055 15
-12.854251 -48.813175 6.111052 11
-12.857384 -48.801121 7.9057221 12
-12.852345 -48.757812 9.7131414 13
-12.594445 -9.4240179 -0.30052248 7
-12.585167 8.0847578 -0.2445372 7
-12.599396 8.094636 0.27807003 8
-12.619565 8.1090803 1.3293686 10
-12.625872 8.1146336 2.3946431 12
-12.630803 8.1185656 2.9364345 13
-12.645313 8.1286678 3.4887629 14
-12.674102 8.1479683 4.0559344 15
-12.236128 8.1103306 0.27271891 8
-12.249746 8.120122 0.78685611 9
-12.255487 8.1246891 1.3032553 10
-12.267384 8.1333466 1.8242911 11
-12.267371 8.1341114 2.3486092 12
-12.296822 8.1544313 2.8857498 13
-12.301361 8.1582403 3.4258573 14
-12.295788 8.1553516 3.971941 15
-11.894379 8.1305647 0.26778176 8
-11.897053 8.1331758 0.77170694 9
-11.918077 8.1483383 1.2797511 10
-11.914315 8.146553 1.7890444 11
-11.776219 8.1758356 2.2877614 12
-11.940246 8.1658964 2.8293097 13
-11.77316 8.1753635 3.3269627 14
-11.787385 8.1861486 3.8636925 15
-11.412518 -9.8844357 -0.2901881 7
-11.25345 8.173418 0.25868499 8
-11.408193 8.1617289 0.75129932 9
-11.434098 8.1812134 1.2464564 10
-11.440849 8.1868401 1.7440295 11
-11.298111 8.2092123 2.2287555 12
-11.28382 8.1996775 2.7284234 13
-10.942397 8.1877928 -0.22295831 7
-10.94695 8.1920471 0.25436854 8
-10.949903 8.1951084 0.73264384 9
-10.965381 8.207551 1.2143958 10
-10.964965 8.2080994 1.69807 11
-10.973912 8.2165451 2.681695 13
-10.981467 8.223094 3.1845956 14
-11.008452 8.244215 3.7029581 15
-10.647396 8.2075911 0.25015467 8
-10.660448 8.2185316 0.7211113 9
-10.672606 8.2296696 1.6708949 11
-10.67499 8.2324018 2.1515234 12
-10.682157 8.2388334 2.6389742 13
-10.687583 8.2439346 3.133297 14
-10.403885 8.2658081 3.5777874 15
-10.690491 8.2471123 3.6353691 15
-10.288347 -10.283269 -0.2809197 7
-10.216648 8.2293129 0.24415575 8
-10.367422 8.2312794 0.70920664 9
-10.236813 8.2473269 1.1656826 10
-10.101633 8.2599964 1.6178769 11
-10.249288 8.2593603 2.10096 12
-10.253006 8.2631893 2.576149 13
-10.264147 8.2732286 3.0604947 14
-10.1271 8.284688 3.5230193 15
-9.8113632 8.2573309 0.68705153 9
-9.8264132 8.2709579 1.1389188 10
-9.8295393 8.2745514 1.5930834 11
-9.8357906 8.2807884 2.0521829 12
-9.8400383 8.285347 2.5165362 13
-9.8574944 8.3010492 2.9917264 14
-9.8613615 8.3053207 3.471554 15
-9.5767145 66.594391 -1.1994109 7
-9.2083921 -10.621441 -0.27239969 7
-9.5415802 8.2639236 -0.20587817 7
-9.4218483 8.2786808 0.23340458 8
-9.4342556 8.290679 0.6728934 9
-9.4348145 8.2921238 1.1138302 10
-9.4405041 8.2981033 1.5584537 11
-9.3128138 8.3064766 1.9917818 12
-9.5734825 8.2964993 2.0219846 12
-9.580307 8.3034258 2.4802136 13
-9.4548626 8.3139019 2.9229167 14
-9.4655075 8.3242884 3.394212 15
-8.926836 8.3073349 0.22684024 8
-8.9319506 8.3130913 0.65365958 9
-8.9390945 8.3218994 1.5142697 11
-9.0731115 8.3284264 1.9657418 12
-8.835784 8.3473616 2.3779149 13
-9.0760603 8.332202 2.4103236 13
-9.075532 8.3328018 2.8602614 14
-9.0844011 8.3420525 3.3209944 15
-8.5768194 8.3322563 0.22233266 8
-8.5792713 8.3357382 0.64069343 9
-8.6897154 8.3236399 1.0669066 10
-8.5967655 8.3549519 1.4862244 11
-8.5886393 8.3481712 1.9116004 12
-8.6026344 8.3629122 2.3470428 13
-8.5997381 8.3612432 2.7844372 14
-8.6075077 8.3699675 3.2327635 15
-8.1554899 -10.888302 -0.26412126 7
-8.3450403 8.3408518 -0.19275585 7
-8.3521204 8.3490543 0.21948884 8
-8.2391071 8.354888 0.62837082 9
-8.2400751 8.3571119 1.0404423 10
-8.135066 8.3712072 1.4470153 11
-8.2567129 8.3762312 1.8771068 12
-8.2609797 8.3818045 2.3021839 13
-8.2569876 8.3789463 2.7308586 14
-8.2638359 8.3870525 3.1703522 15
-7.8029504 8.3772907 0.21250276 8
-7.6947474 8.3820963 0.60903543 9
-7.9222627 8.3875132 1.0226412 10
-7.7105823 8.4005899 1.0105867 10
-7.9287438 8.3955889 1.4314066 11
-7.7135324 8.4050522 1.4139755 11
-7.9230385 8.3907681 1.841619 12
-7.7175431 8.4106827 1.8214949 12
-7.7113867 8.4052391 2.2311242 13
-7.8311677 8.4147472 2.6683178 14
-7.8292813 8.4141083 3.0945258 15
-7.2892227 8.4077778 -0.18244779 7
-7.4873533 8.3924465 0.20855336 8
-7.293509 8.4140272 0.20632711 8
-7.3929911 8.4072342 0.59904778 9
-7.4027958 8.4198809 0.99345219 10
-7.4904785 8.3997707 1.3948163 11
-7.2996511 8.4250565 1.3814187 11
-7.5080094 8.4207344 1.8001348 12
-7.4045334 8.4257622 2.1938858 13
-7.3099084 8.4409523 2.5916486 14
-7.4136696 8.438859 3.0241995 15
-7.1456475 -11.112117 -0.25659743 7
-6.8332419 -0.48827964 -0.36034477 6
-6.9352703 1.8043629e-05 -0.36347097 6
-7.0425501 0.50325185 -0.36873287 6
-7.1095734 1.0213046 -0.37385184 6
-7.1402187 1.5519071 -0.37913948 6
-7.1262126 2.0906391 -0.3842563 6
-7.0802503 2.6385388 -0.38997564 6
-6.9752035 3.1827614 -0.39488184 6
-6.8253388 3.7237623 -0.39978465 6
-6.9967837 8.4293537 0.20273602 8
-6.9875765 8.4194422 0.58513051 9
-7.0054593 8.4424772 0.97179425 10
-7.0989442 8.4339075 1.3659486 11
-7.0115805 8.452755 1.7520375 12
-7.0133686 8.4562521 2.1484561 13
-7.008039 8.4513149 2.5480356 14
-7.0171003 8.4636679 2.9596934 15
-6.6350465 4.2604856 -0.40497172 6
-6.4360666 -1.3987048 -0.34899819 6
-6.638618 -0.95358145 -0.35407704 6
-6.7051477 8.440135 0.19920091 8
-6.7083855 8.4456463 0.57651919 9
-6.6200128 8.4585314 0.95111179 10
-6.6285257 8.4708281 1.3323637 11
-6.6279211 8.4715862 1.7156305 12
-6.6245704 8.4688787 2.1023426 13
-6.6366043 8.4856844 2.4998438 14
-6.6333532 8.4831295 2.8986545 15
-6.7246599 -25.478443 7.0152087 15
-6.3957043 4.7837214 -0.40993041 6
-6.1153445 5.2944946 -0.41513288 6
-6.1576548 -11.269565 -0.24911283 7
-6.2025261 -1.8193797 -0.3437472 6
-6.3376722 8.4615116 -0.17430522 7
-6.2445292 8.4633169 0.19384043 8
-6.2522373 8.4753857 0.56245589 9
-6.1657381 8.4864693 0.9283219 10
-6.2568197 8.4846458 1.3054695 11
-6.3484674 8.4835958 1.6897312 12
-6.2614574 8.4941149 2.0629432 13
-6.2672772 8.5036469 2.4509525 14
-6.2751989 8.5160456 2.8470402 15
-6.3331399 -25.47567 6.0166712 14
-6.3350887 -25.469568 6.9880896 15
-5.7827611 5.7778459 -0.41974851 6
-5.6838541 -2.5929298 -0.33449173 6
-5.9563017 -2.2192652 -0.33920622 6
-5.8564277 8.495039 0.18963163 8
-5.940289 -25.527027 0.41528434 8
-5.8592701 8.5006075 0.55086184 9
-5.7766738 8.5121088 0.90991974 10
-5.9413776 -25.517475 1.3310702 9
-5.7777772 8.5154572 1.2737441 11
-5.735064 8.5203314 1.7599585 12.333333
-5.94348 -25.512243 2.2498534 10
-5.8212762 8.5185709 2.266819 13.666667
-5.8578854 8.5299711 2.6557961 14.666667
-5.9403491 -25.484463 3.1710308 11
-5.9412813 -25.474016 4.1008725 12
-5.9446526 -25.473885 5.0422878 13
-5.9442124 -25.457224 5.9926105 14
-5.9440889 -25.4417 6.9574261 15
-5.3947592 6.2205424 -0.4232761 6
-5.2079415 -11.395802 -0.24233104 7
-5.3921494 -2.941052 -0.32986072 6
-5.4760427 8.5161362 -0.16819748 7
-5.3864589 8.5110645 0.18437092 8
-5.5517397 -25.501825 0.41443738 8
-5.3931742 8.5235424 0.53742701 9
-5.402987 8.5410624 0.89331448 10
-5.5526838 -25.490808 1.3263106 9
-5.3970675 8.533392 1.2491372 11
-5.4034219 8.5462198 1.7934599 12.5
-5.5500278 -25.463205 2.2392263 10
-5.4047318 8.5511751 2.3459425 14
-5.410471 8.5620766 2.7247758 15
-5.5543418 -25.467541 3.1596596 11
-5.5580258 -25.468836 4.0877876 12
-5.5577526 -25.451836 5.0226655 13
-5.5545731 -25.421318 5.9658689 14
-5.5604124 -25.43187 6.9333315 15
-4.9712663 6.635077 -0.42694524 6
-5.079762 -3.2607899 -0.32507494 6
-5.0328717 8.5475025 0.18091048 8
-5.1682062 -25.485975 0.4138661 8
-5.0268512 8.5394392 0.52734661 9
-4.9160585 8.562623 0.87184918 10
-5.1662073 -25.459455 1.321642 9
-5.0368419 8.5612736 1.4053625 11.5
-5.0416713 8.5725851 1.9425402 13
-5.1663032 -25.44323 2.2316999 10
-5.0040517 8.580678 2.3029521 14
-5.0436816 8.5801239 2.6770496 15
-5.1681437 -25.435528 3.1471722 11
-5.1728053 -25.44157 4.0721183 12
-5.1734481 -25.427654 5.0038018 13
-5.1741967 -25.41404 5.9472327 14
-5.1757922 -25.404331 6.9060206 15
-4.5126305 7.0156279 -0.4305872 6
-4.4197736 -3.8249764 -0.31617939 6
-4.7655396 -3.5631671 -0.32122377 6
-4.6013355 8.5662813 -0.16324845 7
-4.6019936 8.5697803 0.17651664 8
-4.5957303 -25.448772 0.41303891 8
-4.6011205 8.5703421 0.51677674 9
-4.5790739 8.5812111 0.97243392 10.333333
-4.595685 -25.429235 1.3161669 9
-4.6304584 8.5817595 1.436216 11.666667
-4.6126604 8.6007967 1.905362 13
-4.5974088 -25.419952 2.2220559 10
-4.608326 8.5948305 2.2601554 14
-4.6079659 8.5965738 2.6225553 15
-4.5997052 -25.413425 3.1331186 11
-4.6021905 -25.40774 4.0516405 12
-4.6022911 -25.389095 4.9773722 13
-4.792932 -25.389338 5.9258862 14
-4.7963433 -25.388288 6.8834195 15
-4.0120797 7.3410358 -0.43314683 6
-4.2782044 -11.461569 -0.23549737 7
-4.0742922 -4.068996 -0.31197536 6
-4.0336156 0.14470798 -0.35299987 5
-4.0550342 0.58211112 -0.35703456 5
-4.0277243 1.0270745 -0.36159509 5
-4.2249875 8.5873804 -0.16157123 7
-4.1910567 8.5979366 0.17261292 8
-4.0266652 -25.399197 0.41225252 8
-4.1884537 8.5951109 0.50702554 9
-4.1931591 8.6084576 1.0131862 10.5
-4.0303602 -25.400541 1.3114097 9
-4.1922665 8.6102657 1.5237077 12
-4.1930614 8.6145296 1.8696077 13
-4.0313621 -25.384842 2.212419 10
-4.1980238 8.6272097 2.2227256 14
-4.1970572 8.6275711 2.5788834 15
-4.035121 -25.386393 3.1198969 11
-4.0330219 -25.350901 4.0293598 12
-4.0361943 -25.348356 4.9527893 13
-3.7316434 -4.3007216 -0.30884448 6
-3.7408128 -0.95256436 -0.34042796 5
-3.8920405 -0.55866581 -0.34544224 5
-3.961525 -0.28287795 -0.34819368 5
-3.96105 1.4751115 -0.36670205 5
-3.8639605 1.7618778 -0.36803499 5
-3.6996164 2.1919866 -0.37251914 5
-3.8256609 8.6143332 -0.16017693 7
-3.8256261 8.6170769 0.16919494 8
-3.6572125 -25.41044 0.41260344 8
-3.8294914 8.6283178 0.49965402 9
-3.9596391 30.671389 0.52549744 8
-3.8266244 8.6259604 0.9976725 10.5
-3.6567335 -25.382641 1.3087233 9
-3.830224 8.6381502 1.5025233 12
-3.8282573 8.6364956 1.8425695 13
-3.9544244 30.666214 1.6064276 9
-3.6600974 -25.381483 2.2084224 10
-3.8291264 8.6411095 2.1887107 14
-3.8309405 8.6482716 2.5415452 15
-3.9532764 30.692722 2.6936662 10
-3.6592646 -25.351084 3.1099122 11
-3.9517479 30.716547 3.7890372 11
-3.6612201 -25.339846 4.01999 12
-3.6638908 -25.333307 4.9402509 13
-3.9464481 30.71139 4.8908377 12
-3.9431491 30.722206 6.0075765 13
-3.9415438 30.746756 7.1434593 14
-3.9376473 30.754078 8.2948246 15
-3.492825 7.641325 -0.43659398 6
-3.3778048 -11.494123 -0.22909923 7
-3.3709731 -4.4967227 -0.30501351 6
-3.2744162 -1.7846403 -0.3309094 5
-3.5056052 -1.4488909 -0.33587754 5
-3.478143 2.5996428 -0.37576342 5
-3.2993681 2.8544242 -0.37759328 5
-3.2951405 8.6407509 -0.15869725 7
-3.4030583 8.6464596 0.16553535 8
-3.281785 -25.366245 0.41217756 8
-3.4008672 8.6442099 0.49046451 9
-3.5169268 30.688429 0.52286941 8
-3.404557 8.6580801 0.98241085 10.5
-3.2858095 -25.369867 1.306612 9
-3.4044416 8.6625242 1.4787977 12
-3.4030132 8.6621332 1.8140152 13
-3.512327 30.688181 1.6027788 9
-3.2859175 -25.343149 2.2018917 10
-3.4046359 8.6694441 2.1556823 14
-3.4051316 8.6738806 2.502609 15
-3.5099592 30.707607 2.6882811 10
-3.2893124 -25.341663 3.1038008 11
-3.5069935 30.722086 3.7811246 11
-3.2909787 -25.326637 4.0111713 12
-3.292815 -25.312649 4.9277105 13
-3.5040915 30.737511 4.8844786 12
-3.5017512 30.758362 6.0021777 13
-3.498575 30.772478 7.1349907 14
-3.49563 30.789358 8.2878828 15
-2.938025 7.8699627 -0.43839663 6
-2.9910898 -4.6472812 -0.29996026 6
-3.0213866 -2.0924606 -0.3270953 5
-2.8231144 0.10064587 -0.34685001 4
-2.822978 0.50871217 -0.35133857 4
-3.1072826 3.1023626 -0.38022158 5
-2.8904669 3.330441 -0.38219848 5
-3.0249188 8.6685715 -0.1584429 7
-3.0222166 8.6640682 0.16226639 8
-3.0248477 8.6754332 0.48389974 9
-3.0751929 30.705652 0.52032429 8
-3.0067992 8.6782045 0.968521 10.5
-2.9887123 8.6813498 1.4574828 12
-2.9895697 8.6873474 1.7894886 13
-3.0737543 30.737234 1.600844 9
-2.994359 8.7050314 2.1293118 14
-2.9888439 8.6925249 2.4673936 15
-3.0701268 30.747154 2.6855814 10
-3.0657146 30.749521 3.7766638 11
-3.0634143 30.7735 4.8806629 12
-3.0607295 30.794214 5.9979219 13
-3.0562527 30.797585 7.1278238 14
-3.0523934 30.807978 8.2781363 15
-2.5046818 -11.503076 -0.22323005 7
-2.6315205 -4.8117309 -0.29750952 6
-2.5363672 -2.5310168 -0.31962183 5
-2.7461979 -2.3747652 -0.32354397 5
-2.4979084 -1.0316101 -0.33464929 4
-2.6547995 -0.67546546 -0.33825541 4
-2.7678242 -0.29620418 -0.34272751 4
-2.7465103 0.91221613 -0.3537991 4
-2.6299767 1.3134847 -0.35894564 4
-2.4967422 1.6009247 -0.36176875 4
-2.6670122 3.5569668 -0.38578975 5
-2.408098 3.7409465 -0.38670388 5
-2.6524017 8.6831112 -0.15797357 7
-2.6558583 8.6986294 0.15957125 8
-2.6346443 -26.234344 0.42717221 8
-2.6359515 8.6952047 0.63669395 9.5
-2.6354086 30.736649 0.51809043 8
-2.6213143 8.7081394 1.118345 11
-2.6405632 -26.255804 1.3500947 9
-2.5871499 8.7125731 1.4413731 12
-2.6317487 30.747927 1.5972074 9
-2.6185939 8.709053 1.7700088 13
-2.6519008 -26.330931 2.2824957 10
-2.5866594 8.7194281 2.102339 14
-2.5875654 8.7266302 2.4418824 15
-2.6301701 30.783785 2.6831436 10
-2.6562557 -26.336313 3.2173281 11
-2.6250932 30.779108 3.7732117 11
-2.6622601 -26.357693 4.1630549 12
-2.669364 -26.389482 5.1227646 13
-2.6216977 30.794621 4.8754611 12
-2.6181309 30.808786 5.9907236 13
-2.6151931 30.831186 7.1240549 14
-2.6108329 30.837797 8.2730722 15
-2.3677485 8.056427 -0.44035795 6
-2.1991906 30.749878 -0.56091338 7
-2.2507493 -4.9202633 -0.29317617 6
-2.1078706 -2.8093531 -0.31361231 5
-2.3222654 -2.6741526 -0.31613585 5
-2.2323384 -1.4298997 -0.3296299 4
-2.0571206 -0.52343315 -0.33766446 3
-2.1179767 -0.3035827 -0.33958864 3
-2.1604037 0.30969396 -0.34505245 3
-2.1329029 0.58369601 -0.34980071 3
-2.014739 0.91735345 -0.34922504 3
-2.3156428 1.861793 -0.36272642 4
-2.1174309 2.11251 -0.36515719 4
-2.1411023 3.9146478 -0.38860703 5
-2.2251179 8.7132797 -0.15808822 7
-2.2240999 8.7140045 0.15620105 8
-2.2248156 8.7243795 0.62946635 9.5
-2.1958804 30.768621 0.51594847 8
-2.1910863 8.7298737 1.105206 11
-2.1894157 8.7288303 1.4257367 12
-2.192121 30.781181 1.5950425 9
-2.222615 8.7335281 1.7527044 13
-2.1889472 8.7375822 2.0806544 14
-2.1904132 8.7480297 2.4178312 15
-2.1880734 30.789978 2.6785727 10
-2.1839464 30.798088 3.7692034 11
-2.1814008 30.829144 4.8733492 12
-2.1770103 30.834961 5.9869838 13
-2.1732018 30.849989 7.1182971 14
-2.1698792 30.873116 8.2711468 15
-1.7816578 8.1827612 -0.44156086 6
-1.8712033 -5.0079756 -0.28916806 6
-1.7830997 -2.9972646 -0.31157666 5
-1.8372818 -1.8304973 -0.32332048 4
-1.6335654 -1.218513 -0.32574889 3
-1.8300153 -0.99522948 -0.33294201 3
-1.9750103 -0.73426592 -0.33552077 3
-1.6915673 -0.36656231 -0.33726951 2
-1.735334 0.37610996 -0.34451109 2
-1.6264474 0.74002284 -0.3464053 2
-1.9587694 1.0663748 -0.3517608 3
-1.7809298 1.3801923 -0.35611099 3
-1.6107519 1.6058263 -0.35915351 3
-1.9675944 2.2653921 -0.36662054 4
-1.7249649 2.4786577 -0.36984971 4
-1.8581727 4.0620213 -0.38996741 5
-1.8348094 8.7324352 -0.15841331 7
-1.6749207 8.9175119 -0.16186889 7
-1.8353696 8.7406616 0.1535515 8
-1.7488405 10.11351 0.1751525 8
-1.8345454 8.7460365 0.62324077 9.5
-1.7501278 10.129519 0.53503782 9
-1.8360751 8.7622614 1.0978327 11
-1.7463516 10.116259 0.89476436 10
-1.8340524 8.7587147 1.4162431 12
-1.7460393 10.123112 1.2582308 11
-1.8317502 8.7541533 1.737716 13
-1.7482395 10.14906 1.8138897 12.5
-1.8113896 8.7695274 2.1775188 14.333333
-1.7472224 10.156593 2.3770745 14
-1.8976024 8.76861 2.4040117 15
-1.7433326 10.14313 2.7557869 15
-1.495382 -5.0830431 -0.28589654 6
-1.4337381 -3.1312044 -0.30721402 5
-1.3748708 -2.1306961 -0.31639236 4
-1.2102134 -1.6101868 -0.32263345 3
-1.4390842 -1.4328092 -0.32556343 3
-1.3816742 -0.95444161 -0.3297756 2
-1.3640933 -0.65711087 -0.33068097 1.3333334
-1.3236217 -0.28651747 -0.33642226 0.5
-1.3410683 0.29034069 -0.33992881 0.5
-1.350925 0.67351651 -0.3481288 1
-1.4137803 0.95168215 -0.34938818 1.6666666
-1.3408948 1.2435588 -0.35517573 2
-1.393482 1.7890306 -0.35930276 3
-1.3503127 2.6917763 -0.37004238 4
-1.4070432 4.221395 -0.3904098 5
-1.1873531 8.2513266 -0.44217977 6
-1.1208748 -5.1417336 -0.28308466 6
-1.0776457 -3.2266636 -0.30311692 5
-0.96279663 -2.3146369 -0.31217673 4
-0.95995665 -1.74835 -0.32000887 3
-1.014925 -1.2993071 -0.32403529 2
-1.0062362 -1.0000627 -0.32763964 1
-1.0677421 -0.6944378 -0.33055335 0.25
-1.0842668 0.69296193 -0.34525499 0
-1.0317768 1.0269139 -0.34887037 0.75
-1.0363274 1.4018159 -0.35368702 1.75
-0.98633438 1.7998953 -0.3587656 2.5
-0.95141011 2.076545 -0.36290327 3
-0.9520278 2.8544083 -0.37133583 4
-0.94623792 4.3426638 -0.39166713 5
-0.59148097 8.2655468 -0.44239649 6
-0.71797168 -3.2895689 -0.29903767 5
-0.53322363 -2.4403348 -0.31003848 4
-0.70642197 -2.3960423 -0.31044963 4
-0.59289175 -1.8803825 -0.31594542 3
-0.60997277 -1.3672833 -0.31965908 1.5
-0.67216581 -1.0576118 -0.3268621 0.25
-0.62389207 1.1356499 -0.35047245 0
-0.57804233 1.3469658 -0.35381943 0.75
-0.60671473 1.7125001 -0.35624447 2
-0.60204148 2.1865969 -0.3626079 3
-0.53664207 2.9679775 -0.37417543 4
-0.63134331 4.384613 -0.3918514 5
-0.34427556 -1.4548169 -0.31849954 1.5
-0.29454517 -1.1450356 -0.31948051 0
-0.20935762 1.3826314 -0.35234502 0.5
-0.25965723 1.7992946 -0.35839811 2
-0.24382922 2.2628374 -0.3653931 3
-0.21449365 2.9957075 -0.37405118 4
-0.31493005 4.3997197 -0.39178228 5
0.11639272 8.2724771 -0.40035489 6
0.33015049 -5.1272006 -0.27131546 6
0.21320789 -3.3120186 -0.29147956 5
0.25399941 -2.4394307 -0.30178368 4
0.20109962 -1.9275624 -0.30770817 3
0.21096651 -1.4516429 -0.31124023 1.5
0.20012544 -1.1545947 -0.3161343 0
0.2018102 1.4144189 -0.33563721 0.5
0.18674591 1.8453199 -0.34137082 2
0.23320059 2.2848451 -0.34386435 3
0.14822944 3.0229325 -0.35117531 4
0.21817654 4.4273696 -0.36356577 5
0.71873784 -11.17031 -0.20144479 7
0.7305637 -5.0739918 -0.26879412 6
0.58945405 -3.2600574 -0.28926629 5
0.60151297 -2.3474014 -0.29623887 4
0.58205086 -1.8485376 -0.3058798 3
0.60282308 -1.3469557 -0.31070015 1.5
0.65530741 -1.0255531 -0.31260005 0.25
0.62611276 1.1387432 -0.32690963 0
0.54869878 1.3449923 -0.32990026 0.66666669
0.54903322 1.7368535 -0.33225024 2
0.62316078 2.1859646 -0.33643657 3
0.57052243 2.959918 -0.34513092 4
0.68250269 4.3479514 -0.35534039 5
0.69884282 8.1831598 -0.39027998 6
0.87067944 61.090347 -0.87341619 7
1.090099 -5.0021901 -0.2665371 6
1.0491083 -3.1413836 -0.28647622 5
1.0187532 -2.2183735 -0.29598138 4
0.96281403 -1.6779612 -0.30250505 3
1.0473158 -1.3532041 -0.30401719 2.3333333
0.97704053 -0.961752 -0.30852672 1
1.0463151 -0.64305758 -0.31021062 0.25
1.1664544 -0.278492 -0.30998424 0
1.1965907 0.31030604 -0.31352884 0
1.0868154 0.62439203 -0.31703362 0
1.0171764 1.016237 -0.3218421 0.75
1.0051727 1.4033064 -0.32526574 1.75
1.0934559 1.9664588 -0.32878894 3
0.95103252 2.037307 -0.32944521 3
1.0672277 2.7734704 -0.33519375 4
0.87180895 2.8532004 -0.33829007 4
0.98299104 4.2629166 -0.34993213 5
1.1205473 40.00272 0.83337408 8
1.1017077 39.990246 2.2305658 9
1.0840878 40.024731 3.636549 10
1.0654016 40.02499 5.0495353 11
1.0467232 40.03183 6.4760613 12
1.5805799 -10.986538 -0.19569819 7
1.4420059 -4.9010029 -0.26391384 6
1.4835064 -2.9516006 -0.28266266 5
1.3314412 -2.0587089 -0.29426962 4
1.4787041 -1.9616597 -0.2935077 4
1.3771185 -1.3615568 -0.29862553 3
1.3792951 -1.0406877 -0.30313292 2.3333333
1.3794795 -0.59356111 -0.30625778 1.5
1.32024 -0.18900906 -0.30985171 0.66666669
1.3422925 0.21489477 -0.31212333 0.66666669
1.3943425 0.67578804 -0.31497404 1.3333334
1.4188466 1.0319554 -0.31671184 2
1.4074142 1.3950285 -0.31841686 2.5
1.340273 1.7680364 -0.32335696 3
1.3878212 2.5964072 -0.33009613 4
1.4106677 4.0798221 -0.3411397 5
1.2672662 8.0405645 -0.38010311 6
1.7855257 -4.776299 -0.2612175 6
1.897427 -2.719409 -0.28033727 5
1.7472496 -1.7318504 -0.29161108 4
1.9925073 -1.4756321 -0.290474 4
1.7320027 -0.92795563 -0.29809317 3
1.9066032 -0.57804328 -0.29889351 3
1.6473722 -0.1859964 -0.30557138 2
1.6706512 0.20770912 -0.30723611 2
1.8624618 0.6142 -0.30610189 2.6666667
1.8735158 1.0133135 -0.30978307 3
1.6943634 1.3526001 -0.31459492 3
1.8248861 2.2288074 -0.31966752 4
1.8157438 3.8617017 -0.33320779 5
1.8117245 7.8273687 -0.36895552 6
1.6927258 40.016575 0.84120858 8
1.6760379 40.05724 2.2425661 9
1.6568794 40.041065 3.6470175 10
1.6395278 40.071339 5.0650945 11
1.6210654 40.079006 6.4941368 12
2.3494034 -10.791561 -0.19069171 7
2.1249475 -4.6413522 -0.25917023 6
2.1819859 -2.5039372 -0.27790403 5
2.3653514 -2.3505599 -0.27716547 5
2.1028237 -1.3349037 -0.29031518 4
2.3191342 -0.99099916 -0.2911419 4
2.0193882 -0.19666825 -0.30085984 3
2.0461869 0.21219806 -0.3022266 3
2.0225832 0.43230343 -0.30238754 3
2.3460627 1.4862918 -0.30644494 4
2.1749275 1.7929853 -0.31179503 4
2.3010056 3.50019 -0.32307464 5
2.0600169 3.6783948 -0.32702586 5
2.338372 7.5970311 -0.35933566 6
2.266978 40.047653 0.84951693 8
2.2486341 40.047058 2.2506583 9
2.2315948 40.071068 3.65942 10
2.212703 40.064148 5.0748677 11
2.1958106 40.09647 6.5086756 12
2.4602942 -4.4933662 -0.25763795 6
2.7796061 -4.3121848 -0.25545013 6
2.6320081 -2.1045482 -0.27741382 5
2.4793203 -0.61319792 -0.2912707 4
2.5802586 -0.25728083 -0.29307109 4
2.6331232 0.26725051 -0.29591122 4
2.6105587 0.64993513 -0.29900357 4
2.5235872 1.0275718 -0.30156866 4
2.4310579 1.3076104 -0.3047556 4
2.7789941 2.1997275 -0.14502035 6
2.7562227 2.6279492 -0.13520977 6.1666665
2.7354028 3.012413 -0.14093409 6.1999998
2.6791008 3.3755724 -0.1485168 6.1999998
2.6977744 3.789428 -0.11529363 6.5
2.7751503 2.208565 0.2260693 9
2.7532303 2.6080058 0.24038309 9
2.7366569 2.9748702 0.22602496 8.8000002
2.7165024 3.4078684 0.19678122 8.5
2.6926391 3.7729642 0.20766161 8.5
2.7689176 2.2008305 0.60028863 12
2.7482612 2.5961711 0.64025319 12
2.7308791 3.0147362 0.57036799 11.2
2.709682 3.4038172 0.57819438 11
2.6910567 3.7628384 0.5901494 10.857142
2.7432501 -48.027657 0.8057642 8
2.7674298 2.169812 0.90409565 14.4
2.7429128 2.5790014 0.9938215 14.6
2.7263978 3.0013885 0.95760655 13.857142
2.7036889 3.381731 1.0111109 13.8
2.6849127 3.8021486 1.0345218 13.5
2.6951222 3.4922071 1.2255441 15
2.6786919 3.8268771 1.2963369 15
2.7333386 -47.991795 2.4855781 9
2.7240496 -47.96719 4.1698942 10
2.7899287 40.104725 5.0916767 11
2.7148407 -47.944683 5.8629432 11
2.7726245 40.123264 6.5260167 12
2.7054627 -47.920258 7.5685654 12
2.6966026 -47.906452 9.293375 13
3.1042356 -10.562408 -0.18573906 7
3.0844328 -4.1067414 -0.25306749 6
2.9307911 -1.7218441 -0.27594748 5
3.1321239 -1.412766 -0.27588168 5
3.0066342 2.0264688 -0.085122712 6.5
2.8278065 7.2963142 -0.34856731 6
3.0039041 2.0288916 0.23093693 9
2.9964507 2.0313702 0.61512488 12
2.9750862 2.0334308 0.94014734 14.5
2.8419821 40.063622 0.85762525 8
2.8255124 40.088406 2.2620449 9
2.8076067 40.094067 3.6718829 10
3.3924646 -3.9009254 -0.25198501 6
3.3015103 -1.0801356 -0.27629077 5
3.4875546 -0.60893226 -0.27804467 5
3.571944 -0.23502289 -0.27850842 5
3.5472927 1.43499 -0.29094601 5
3.4219687 1.8306091 -0.29434276 5
3.3674529 2.0438504 -0.13670076 6.1666665
3.301405 6.9961896 -0.33997893 6
3.3701446 2.0468931 0.2275966 8.833333
3.3395708 -25.854755 0.44615233 8
3.3991997 2.0494699 0.60171664 11.5
3.4285259 -47.978512 0.80863041 8
3.3995931 2.0531087 0.99193561 14.2
3.3335059 -25.842796 1.3570434 9
3.305491 -25.660566 2.2554181 10
3.4184792 -47.949276 2.48861 9
3.2958655 -25.620975 3.1639533 11
3.4090092 -47.928413 4.1733055 10
3.2875226 -25.591555 4.0790634 12
3.2772572 -25.547464 4.99933 13
3.3998091 -47.911919 5.8672748 11
3.3893454 -47.878468 7.571867 12
3.3797174 -47.857964 9.2954512 13
3.8522496 -10.31771 -0.18116611 7
3.6880579 -3.6732752 -0.25090334 6
3.9608572 -3.416739 -0.24927177 6
3.642396 0.22975849 -0.28137827 5
3.6450284 0.627312 -0.28355312 5
3.618535 1.0298233 -0.28681114 5
3.7967994 2.0633554 -0.10189077 6.5
3.7276597 6.6319423 -0.3302426 6
3.8032517 2.0678494 0.19985735 8.5
3.9524539 -24.963564 0.43610492 8
3.8000784 2.0729644 0.58068359 11
3.7402205 2.0704794 0.98401797 13.666667
3.945508 -24.948008 1.3190235 9
3.8852592 2.0800121 1.2319759 15
3.9403453 -24.943802 2.2050114 10
3.9325504 -24.923088 3.0940161 11
3.9286861 -24.9275 3.9931571 12
3.922821 -24.919537 4.9001093 13
4.2336745 -3.1533411 -0.24866459 6
4.2430177 2.0911894 -0.029581346 7
4.1198997 6.2440443 -0.32117814 6
4.2499566 2.0952449 0.21833172 8.5
4.3114653 -24.920767 0.4381766 8
4.2062888 2.0936613 0.57388324 10.666667
4.114018 -47.931896 0.81176716 8
4.247035 2.0996809 1.0080526 13.2
4.3074098 -24.923571 1.3226429 9
4.1717362 2.0973372 1.3053313 15
4.3014174 -24.915249 2.2094982 10
4.1050858 -47.921673 2.4929905 9
4.2981701 -24.922995 3.1031249 11
4.2891979 -24.897747 3.9996345 12
4.0956898 -47.906342 4.1790915 10
4.2808652 -24.876461 4.9050255 13
4.0856113 -47.883518 5.8734064 11
4.0743957 -47.848061 7.5785804 12
4.064898 -47.83374 9.3042021 13
4.5863004 -10.031234 -0.17650776 7
4.4906502 -2.8694382 -0.24811061 6
4.7272329 -2.5641611 -0.24746679 6
4.6911817 2.1130278 -0.093351185 6.6666665
4.6699462 2.1176775 0.23575297 8.5
4.6800923 -24.92622 0.44122189 8
4.6717768 2.1192732 0.59621006 10.5
4.570724 2.1150484 0.94499403 12.5
4.6730871 -24.91342 1.3273374 9
4.5796094 2.120012 1.3164879 14.5
4.6669168 -24.905134 2.2161229 10
4.7909255 -47.87746 2.4970825 9
4.6560607 -24.87196 3.1065893 11
4.780057 -47.850582 4.1828594 10
4.6535115 -24.883343 4.0094585 12
4.6433787 -24.854433 4.9151502 13
4.7706418 -47.838673 5.8787904 11
4.6353574 -24.863214 6.7778902 15
4.7603974 -47.819092 7.5871434 12
4.7498212 -47.79705 9.3125076 13
4.9143257 57.270397 -0.77068824 7
4.9328709 -2.2350924 -0.24631497 6
5.1441522 -1.9004142 -0.24659647 6
5.0463848 -24.909576 0.44401351 8
4.8004956 -47.891598 0.81524092 8
5.0374751 -24.888613 1.3315754 9
5.0316067 -24.882727 2.2221692 10
5.0231767 -24.8643 3.1161599 11
5.0151067 -24.847813 4.0167718 12
5.0120187 -24.856266 4.9310908 13
5.0026426 -24.833836 5.8511662 14
5.3108115 -9.7139425 -0.17196675 7
5.3387136 -1.5487499 -0.24720348 6
5.5052338 -1.1781704 -0.24769665 6
5.4103947 -24.874836 0.44661653 8
5.4887204 -47.859329 0.81908596 8
5.4025908 -24.860674 1.3359683 9
5.3955002 -24.849846 2.2277946 10
5.4779983 -47.837811 2.5019925 9
5.3882103 -24.838215 3.1241374 11
5.4662471 -47.807495 4.1886597 10
5.3825235 -24.834146 4.0285168 12
5.377872 -24.835102 4.9435883 13
5.4568162 -47.797829 5.8859401 11
5.3699031 -24.82102 5.867609 14
5.3618431 -24.806868 6.8055358 15
5.4460716 -47.777248 7.595294 12
5.4347572 -47.752422 9.3212452 13
5.6568904 -0.79333162 -0.24877715 6
5.7690334 -0.39201683 -0.24942829 6
5.9601593 0.36248228 -0.25370634 6
5.9991164 0.79754442 -0.25529221 6
5.9830503 2.1588535 -0.26439792 6
5.931489 19.226816 -0.21861136 7
5.780714 -24.861753 0.44974139 8
5.7750382 -24.857948 1.3420461 9
5.7636662 -24.829666 2.2350774 10
5.7583871 -24.82774 3.1347983 11
5.7512298 -24.817881 4.0407648 12
5.745903 -24.816145 4.957644 13
5.7369742 -24.79912 5.8832269 14
5.7313147 -24.79656 6.8265252 15
6.0267372 -9.3650246 -0.16754396 7
6.0110846 1.2408751 -0.25733414 6
6.0229888 1.6989553 -0.26109502 6
6.150413 -24.837708 0.45280778 8
6.3230629 31.321981 0.73074937 8
6.1436448 -24.829979 1.3471017 9
6.3075175 31.312792 1.8463306 9
6.1344995 -24.812696 2.2431815 10
6.1295323 -24.812424 3.1455858 11
6.2913957 31.300959 2.9653165 10
6.1209021 -24.797472 4.0532708 12
6.2798529 31.312296 4.0935645 11
6.1140475 -24.789927 4.9713755 13
6.2630053 31.297838 5.2282596 12
6.1061406 -24.778362 5.9004517 14
6.2445292 31.275953 6.3732562 13
6.0975366 -24.764284 6.8430142 15
6.234199 31.295774 7.542624 14
6.222734 31.311169 8.7314329 15
6.7280812 -8.9742508 -0.16307396 7
6.5235882 -24.819517 0.456121 8
6.7778816 31.267656 0.73658174 8
6.5173202 -24.814404 1.3531673 9
6.7835679 1.7301375 1.4370677 13
6.7620964 2.1699877 1.4584965 13
6.747601 2.562669 1.482735 13
6.7279072 2.9288273 1.5074122 13
6.76578 31.274651 1.8545294 9
6.5091071 -24.801935 2.2523916 10
6.5019259 -24.793499 3.156662 11
6.7516332 31.272467 2.9764256 10
6.4908276 -24.770262 4.0656047 12
6.7387624 31.276592 4.1060915 11
6.4835796 -24.761906 4.9858871 13
6.7320266 31.309776 5.2508812 12
6.4753728 -24.750135 5.9172459 14
6.7196093 31.317398 6.4057932 13
6.4686236 -24.744238 6.8644323 15
6.7059922 31.320368 7.5761518 14
6.6944761 31.334257 8.7690535 15
7.1361756 18.369547 -0.20092075 7
6.8966112 -24.79253 0.45941654 8
6.8912525 -24.791208 1.3591657 9
7.0636864 -3.0204744 1.4115285 12.5
7.0185957 -2.63679 1.516026 13
7.0005174 -2.20875 1.4872129 13
6.9799371 -1.8225204 1.4639324 13
6.9539595 -1.4477236 1.4438428 13
6.9401031 -1.0340406 1.4287586 13
6.916317 -0.62808549 1.416383 13
6.8934908 -0.2289774 1.4087659 13
6.8758407 0.16580875 1.406649 13
6.844944 0.55861413 1.4062244 13
6.8265953 0.95313728 1.4127837 13
6.8081264 1.351761 1.4238564 13
6.8019357 1.7082765 1.4393212 13
6.8490596 -24.730886 5.9375558 14
7.1935325 31.33581 6.4350557 13
6.8415866 -24.722965 6.8871026 15
7.1817398 31.346361 7.6117172 14
7.1684084 31.351259 8.8069267 15
7.4300141 -8.5606375 -0.15893555 7
7.2607026 31.270048 -0.3757818 7
7.2499785 31.282244 0.74413997 8
7.5940657 3.1100266 1.3889118 12
7.5084729 3.2647669 1.3859118 12
7.2397304 31.296618 1.8666521 9
7.2252293 31.292889 2.992805 10
7.2148461 31.307354 4.1282134 11
7.2049432 31.324493 5.2751198 12
7.727571 31.304649 0.75201952 8
7.9496598 2.2975376 1.3992957 12
7.8546414 2.5468678 1.3968455 12
7.6815071 2.9232922 1.3909553 12
7.716291 31.313831 1.8788877 9
7.7050452 31.323395 3.0108087 10
7.6976128 31.348845 4.1526856 11
7.6837759 31.348799 5.3021531 12
7.6721015 31.35821 6.4665861 13
7.6609058 31.370407 7.6485367 14
7.6451221 31.364813 8.8458157 15
8.3965883 53.060749 -0.67512774 7
8.1348352 -8.1201458 -0.1551072 7
8.3825426 0.67962593 1.4169284 12
8.3298283 0.94629687 1.413558 12
8.2378731 1.3566538 1.4092033 12
8.1386337 1.7325935 1.4057605 12
8.0317526 2.0741057 1.4021908 12
8.1936731 31.319395 1.8908252 9
8.1870003 31.345734 3.0287042 10
8.1761827 31.356625 4.1736364 11
8.1667089 31.373161 5.3304076 12
8.7912388 18.582644 -0.19746506 7
8.4554758 0.16950537 1.4226966 12
8.4011965 0.49987754 1.4171596 12
8.8171253 -7.6247673 -0.15109386 7
9.4877119 -7.0864716 -0.14717108 7
10.160395 -6.5131202 -0.14357576 7
10.606239 18.817274 -0.196107 7
10.83326 -5.8982038 -0.14027524 7
11.511933 -5.2394819 -0.13735151 7
12.16103 -4.5173435 -0.13441734 7
12.799753 -3.7392085 -0.13178618 7
12.638717 19.096664 -0.19732293 7
13.463087 -2.9089096 -0.12987527 7
13.887345 -47.365505 4.3403535 10
13.869842 -47.339134 6.0793457 11
13.852311 -47.312904 7.8312635 12
13.837781 -47.297272 9.6027431 13
14.093969 -2.0059247 -0.12816973 7
14.724368 -1.0319333 -0.12708335 7
14.643273 -47.360779 0.89042956 8
14.626617 -47.338688 2.6222103 9
14.609067 -47.313778 4.3583169 10
14.598649 -47.312149 6.1060872 11
14.581105 -47.28767 7.8648424 12
14.563208 -47.262375 9.6410379 13
15.373374 -47.316547 0.89770353 8
15.353701 -47.286671 2.6352851 9
15.343121 -47.284878 4.3794889 10
15.325515 -47.261608 6.1313119 11
15.311477 -47.249584 7.8982315 12
15.285577 -47.201263 9.6763201 13
15.829626 0.92763156 -0.12678725 7
16.11515 -47.290344 0.90561968 8
16.093981 -47.257896 2.6503677 9
16.07757 -47.239506 4.4002705 10
16.058229 -47.212654 6.1582785 11
16.038111 -47.183731 7.9289327 12
16.023441 -47.171169 9.7203465 13
16.41555 2.1446154 -0.12769969 7
16.797625 -47.166294 6.1871533 11
16.785446 -47.161427 7.9689536 12
16.766563 -47.138008 9.7662039 13
16.976437 3.4638336 -0.12957011 7
16.8526 -47.233768 0.91326094 8
16.837029 -47.218899 2.6656115 9
16.817707 -47.193604 4.4221511 10
17.517822 4.89784 -0.13265617 7
17.585266 -47.176411 2.6814051 9
17.568369 -47.159126 4.4462833 10
17.548784 -47.134773 6.219594 11
17.532604 -47.119785 8.007782 12
17.507917 -47.08223 9.8098698 13
17.601093 -47.190903 0.92147577 8
18.023226 6.4562368 -0.13709004 7
18.363369 -47.166004 0.93036395 8
18.343311 -47.14167 2.6984024 9
18.325672 -47.123634 4.4715328 10
18.30348 -47.094006 6.2524729 11
18.285557 -47.075584 8.0482721 12
18.266527 -47.054604 9.8619509 13
19.119095 -47.105721 0.93888468 8
19.102562 -47.091469 2.7152967 9
19.067745 -47.058929 6.2878056 11
19.04513 -47.03009 8.0906849 12
19.891489 -47.068134 0.94819039 8
19.86949 -47.041889 2.7330203 9
19.856569 -47.037239 4.5243101 10
19.819107 -47.000874 8.1381092 12
19.797062 -46.975204 9.9690094 13
20.672852 -47.032024 0.95787328 8
20.645109 -46.994122 2.7516634 9
20.633396 -46.992794 4.5525036 10
20.614071 -46.974274 6.3617806 11
20.597191 -46.96151 8.1860495 12
20.572126 -46.930347 10.025525 13
21.161261 52.284763 3.3603642 9
21.146271 52.30262 5.341239 10
21.128511 52.313999 7.3350968 11
21.105677 52.313324 9.3452415 12
21.45805 -46.984982 0.96769309 8
21.438387 -46.966602 2.7723403 9
21.424253 -46.960415 4.5832067 10
21.396381 -46.924252 6.4004326 11
21.352629 -46.878819 10.083419 13
21.725386 51.549397 3.3397162 9
21.716787 51.580898 5.3057384 10
21.689873 51.569271 7.2805171 11
21.670601 51.576248 9.2751646 12
22.232491 -46.920513 2.7927949 9
22.278915 50.822453 3.3197157 9
22.213146 -46.903942 4.6129236 10
22.261738 50.832394 5.2677889 10
22.196814 -46.893871 6.4436383 11
22.239643 50.83144 7.2274075 11
22.171831 -46.865704 8.2859592 12
22.227407 50.853455 9.2083921 12
22.147436 -46.839031 10.14672 13
22.787436 50.120674 7.1786518 11
22.763887 50.116261 9.1397028 12
23.063028 -46.905529 0.98874497 8
22.820253 50.099293 3.3000622 9
23.020849 -46.867195 4.6459818 10
22.804701 50.111717 5.2330055 10
22.994177 -46.836811 6.4851036 11
23.193048 -24.598143 6.6995468 13
23.17161 -24.585836 7.929872 14
22.974058 -46.819962 8.3399124 12
23.171963 -24.596836 9.1875172 15
22.949652 -46.794617 10.211996 13
23.315466 -26.156052 3.1854961 10
23.273146 -25.369164 3.133554 10
23.238548 -24.615793 3.0848577 10
23.402431 -27.814796 3.2969041 10
23.365288 -26.978453 3.2408295 10
23.25631 -25.361263 4.3478317 11
23.227394 -24.614069 4.2798953 11
23.394911 -27.817511 4.5808425 11
23.339163 -26.959507 4.4978652 11
23.295641 -26.144636 4.4207983 11
23.340076 49.40377 5.1998544 10
23.244656 -25.3591 5.5729065 12
23.210403 -24.606249 5.4835305 12
23.390039 -27.823477 5.8766031 12
23.335077 -26.966114 5.7692623 12
23.300613 -26.161146 5.6715455 12
23.373264 -27.815409 7.1835303 13
23.326679 -26.967869 7.0539727 13
23.282784 -26.15218 6.9308376 13
23.231264 -25.355145 6.8107462 13
23.326984 49.420559 7.1319418 11
23.319843 -26.971586 8.3568354 14
23.261488 -26.139462 8.2051439 14
23.219681 -25.353313 8.0656271 14
23.351757 -27.801857 8.5057259 14
23.303394 49.415531 9.0783644 12
23.249493 -26.137356 9.5026398 15
23.219395 -25.364 9.3451567 15
23.342152 -27.802666 9.8530722 15
23.29315 -26.952507 9.6728668 15
23.874613 -46.853931 0.99959922 8
23.847305 -46.82357 2.8361073 9
23.826269 -23.845228 4.2701197 11
23.828072 -46.809143 4.6783714 10
23.873219 48.717937 5.1693449 10
23.794413 -23.823132 5.4656582 12
23.812132 -46.801304 6.5315247 11
23.775375 -23.813963 6.675745 13
23.858995 48.73119 7.0873055 11
23.752363 -23.80094 7.8999977 14
23.785624 -46.772877 8.3961401 12
23.728706 -23.78742 9.1424761 15
23.831121 48.716965 9.0181322 12
23.760883 -46.748154 10.279877 13
24.392765 48.029373 5.1388602 10
24.375402 48.035374 7.0422359 11
24.365574 48.056591 8.9657116 12
24.389143 -23.760597 9.2689266 15
24.706942 -46.821911 1.011273 8
24.6826 -46.798607 2.8605952 9
24.479538 -23.808847 4.3293862 11
24.653852 -46.767006 4.7138319 10
24.449255 -23.789137 5.5410571 12
24.633661 -46.75177 6.5780344 11
24.434702 -23.78483 6.7684131 13
24.407669 -23.768494 8.0078745 14
24.604771 -46.720181 8.4539309 12
24.58651 -46.709011 10.352518 13
25.146038 -23.767561 4.3904104 11
24.908131 47.356045 5.1103258 10
25.122442 -23.754963 5.6198072 12
25.105934 -23.74917 6.8633633 13
24.891602 47.362865 7.001092 11
25.072262 -23.727259 8.1176195 14
24.869461 47.359371 8.9071388 12
25.048918 -23.715265 9.3937416 15
25.539385 -46.768612 1.0229012 8
25.507572 -46.732788 2.8835607 9
25.491493 -46.725857 4.7509303 10
25.414236 46.686974 5.082562 10
25.47047 -46.709984 6.6277299 11
25.396639 46.691082 6.9605618 11
25.453196 -46.701172 8.5205135 12
25.381332 46.699734 8.8563166 12
25.838192 -23.732153 4.4553094 11
25.821526 -23.726522 5.7035069 12
25.788031 -23.705517 6.9602952 13
25.999622 -3.360121 7.2625647 15
25.767769 -23.696802 8.236145 14
25.742634 -23.683756 9.5298738 15
26.153803 -4.5073028 0.6798467 8
26.121954 -4.1183157 0.67968154 8
26.122936 -3.7367091 0.68046695 8
26.091551 -3.3524542 0.68051487 8
26.076078 -2.9723327 0.68107456 8
26.381176 -46.711422 1.0348693 8
26.077772 -3.3534043 1.5999639 9
26.071623 -2.9744449 1.5989523 9
26.14456 -4.5087643 1.6077455 9
26.136305 -4.123539 1.6057081 9
26.113041 -3.7381275 1.6030536 9
26.369423 -46.712704 2.9103553 9
26.339214 -46.681355 4.7892795 10
26.099064 -4.5165091 6.3442225 14
26.078737 -4.1294765 6.3266072 14
26.027515 -3.7403078 6.3028464 14
26.037863 -3.3621881 6.2953024 14
26.008036 -2.9805305 6.2793431 14
26.314482 -46.659817 6.6784019 11
26.071543 -4.514976 7.3230572 15
26.063122 -4.1301265 7.305707 15
26.044409 -3.745764 7.2870107 15
26.003775 -2.9828255 7.2532883 15
26.290501 -46.63979 8.5821352 12
26.549063 -23.694845 4.5228143 11
26.512495 -23.671841 5.7846241 12
26.495218 -23.666159 7.0630021 13
26.470682 -23.654119 8.3557997 14
26.441284 -23.637882 9.6664066 15
27.177431 -46.62109 6.7329545 11
27.156984 -46.60817 8.6520777 12
27.253344 -46.685654 1.0479761 8
27.222219 -46.654079 2.9357982 9
27.209063 -46.653362 4.8309755 10
28.123131 -46.632832 1.0609397 8
28.094294 -46.606453 2.9629977 9
28.067366 -46.583275 4.8700037 10
28.0441 -46.566307 6.7874994 11
28.018253 -46.545216 8.7191381 12
29.009579 -46.584946 1.0744869 8
28.973694 -46.54845 2.9906411 9
28.952303 -46.535305 4.9130669 10
28.925695 -46.513874 6.8447599 11
28.904612 -46.501492 8.7928133 12
29.878872 -46.508621 3.0205991 9
29.861237 -46.50211 4.9595146 10
29.83094 -46.476002 6.9066439 11
29.80028 -46.449474 8.8680658 12
30.768684 -46.442722 5.0050516 10
30.744493 -46.427021 6.9694557 11
30.717962 -46.407936 8.9485807 12
30.80551 -46.477608 3.0523396 9
47.941914 17.136518 1.4048603 8
47.934956 17.136509 3.185286 9
48.399124 16.526241 3.198878 9
48.425915 16.533184 1.4107357 8
48.871052 15.909308 1.4155815 8
48.872944 15.91183 3.2134836 9
49.348656 15.288574 1.4214731 8
49.363655 15.294847 3.2295818 9
49.845173 14.66528 1.4279929 8
49.837029 14.664248 3.2449167 9
50.318913 14.026732 1.4339582 8
50.326618 14.029966 3.2616901 9
50.821598 13.387376 1.440843 8
51.304543 12.733605 1.4472675 8
51.316315 12.737069 3.2970772 9
51.812759 12.076579 1.4545021 8
51.821465 12.078883 3.3160207 9
52.328667 11.411109 1.4620491 8
52.315155 11.408179 3.3346341 9
52.855347 10.73725 1.4700034 8
52.826225 10.731089 3.3547726 9
53.355927 10.047382 1.4773271 8
53.359051 10.047442 3.3766911 9
53.905186 9.3553762 1.4860977 8
53.887619 9.3515434 3.3987546 9
54.439964 8.648838 1.4945725 8
54.425842 8.6455412 3.4218514 9
54.997166 7.9334784 1.5037658 8
