# .PCD v0.7 - Point Cloud Data file format
VERSION 0.7
FIELDS x y z intensity
SIZE 4 4 4 4
TYPE F F F F
COUNT 1 1 1 1
WIDTH 208
HEIGHT 1
VIEWPOINT 0 0 0 1 0 0 0
POINTS 208
DATA ascii
-30.946388 -0.4417952 1.6224772 9
-30.927422 -0.44153944 2.7065527 10
-30.807951 -3.9797971 4.9242339 12
-30.869772 -1.3228018 4.8952627 12
-30.823219 -2.6464984 6.0163808 13
-30.874971 8.9424524e-05 7.1279936 14
-30.837074 -1.3215545 8.2718658 15
-30.922384 2.2110484 8.3038397 15
-30.993921 4.907557 8.4013901 15
-30.686953 -11.939817 0.58384544 8
-30.678482 -11.937168 1.7342714 9
-30.648294 -11.926067 2.8862731 10
-30.648525 -11.425826 4.0250573 11
-30.731222 -7.1432972 5.0038323 12
-30.62542 -11.918472 5.2140546 12
-30.732386 -6.6829972 6.1198215 13
-30.658165 -9.4761419 6.2456679 13
-30.779158 -3.5304937 7.1563368 14
-30.717703 -6.6801238 7.2639866 14
-30.625277 -10.433251 7.4781103 14
-30.768087 -3.9751673 8.31709 15
-30.690832 -7.1349502 8.4497757 15
-30.58079 -12.91875 6.4623861 13
-30.521614 -15.546713 7.9178548 14
-30.566338 -11.897498 8.7981243 15
-30.491045 -15.532135 9.1790438 15
-19.405809 15.403221 0.40601328 8
-19.409269 15.86299 1.286579 9
-19.22389 8.4447174 0.35327458 8
-19.303156 12.013 0.37694696 8
-19.229736 9.1109581 1.1008652 9
-19.340963 13.218232 1.2056909 9
-19.22345 9.4464989 1.8590976 10
-19.3111 12.404168 1.9876678 10
-19.394835 15.394595 2.1403182 10
-19.23933 10.146358 2.6546235 11
-19.317261 13.20224 2.8510981 11
-19.391367 15.848413 3.0481439 11
-19.212841 9.7845526 3.3995497 12
-19.289797 12.390728 3.6109898 12
-19.365088 15.371068 3.8899732 12
-19.237865 10.858904 4.2766943 13
-19.359692 15.366831 4.7785583 13
-19.269884 11.993064 5.2204895 14
-19.343222 14.908666 5.6130428 14
-19.217871 10.489011 5.8496318 15
-19.27581 12.774478 6.1749897 15
-19.344149 15.354587 6.5913758 15
-19.192442 8.1065178 2.5457695 11
-19.184481 8.4281902 4.0601783 13
-19.174885 8.7527866 4.8527327 14
-19.088535 5.6023774 5.3223782 15
-19.127668 7.4437404 5.4883914 15
-12.406834 -11.376369 3.8886204 14
-12.402934 -11.373793 4.511632 15
-12.219961 -1.7550474 0.21728761 8
-12.219334 -1.7550319 0.6487307 9
-12.210077 -1.7538517 1.5163242 11
-12.05921 -11.372586 0.29122677 8
-12.026331 -2.7933521 0.2180969 8
-12.025586 -2.7933095 0.64956397 9
-12.068285 -11.382118 0.8713178 9
-12.023407 -2.7929337 1.0824391 10
-12.195058 -1.7516168 1.079623 10
-12.015608 -2.7912517 1.5171096 11
-11.757513 -47.359261 0.80446869 8
-11.754143 -47.359127 2.5102298 9
-11.747582 -47.346184 4.220922 10
-11.745193 -47.350155 5.9431138 11
-11.378098 -11.362385 1.4082204 10
-11.368858 -11.354155 1.974304 11
-11.031406 -11.336942 2.5065989 12
-10.401739 -11.319534 2.9889462 13
-10.109991 -11.323109 3.5050578 14
-9.8323059 -11.326706 0.26168659 8
-9.8237562 -11.31794 0.7853629 9
-9.8161478 -11.315943 4.0142736 15
-9.2536564 -11.299791 2.3128328 12
-8.9779062 -11.286503 1.7699941 11
-8.7215004 -11.289789 1.2469821 10
-8.2061081 -4.3221302 0.16439617 8
-8.2035961 -4.3210702 0.48839605 9
-8.2168407 -11.286526 0.7298196 9
-8.2015543 -4.3202596 0.81344724 10
-8.2041655 -4.3219056 1.1409914 11
-8.2048683 -11.27644 3.2181885 14
-8.0492697 0.80624002 0.14016563 8
-8.0639868 0.80776882 0.70805001 10
-8.0390301 0.8052929 0.99104625 11
-8.0530634 0.80672705 1.2809187 12
-8.1967745 -4.318275 1.469785 12
-8.0547838 0.80692691 1.5726 13
-8.017787 -4.3713455 1.7774203 13
-7.9709129 -11.282142 0.23888113 8
-7.8916144 0.90446621 1.8328228 14
-7.9543009 -11.26775 3.6940956 15
-7.7457461 2.2717056 0.13762677 8
-7.671896 1.2135576 0.40549439 9
-7.7552199 2.2745421 0.42037156 9
-7.7459111 2.2719214 0.98812634 11
-7.7215977 2.2648406 1.2715647 12
-7.7236485 2.2655001 1.5616984 13
-7.4616203 -4.9372177 0.15829849 8
-7.5808101 1.4218512 0.13270198 8
-7.4679065 -4.9417229 0.47141433 9
-7.4444203 -4.9264946 0.78309071 10
-7.5546799 1.7546643 0.6762355 10
-7.5767932 1.4212211 0.94476235 11
-7.4526224 -4.9322734 1.0993998 11
-7.5467844 1.527391 1.2176498 12
-7.4444871 -4.9272251 1.4160331 12
-7.5667877 1.4194264 1.4947942 13
-7.5396056 1.63834 1.7793274 14
-7.2515635 -11.260465 1.6416777 11
-7.2453918 -11.253676 2.599036 13
-5.9456191 -11.235034 0.21673833 8
-5.9450426 -11.235557 0.66121137 9
-5.9386344 -11.225039 1.1062281 10
-5.9448557 -11.23846 1.5564115 11
-5.75106 -11.259481 1.997637 12
-5.7434421 -11.246248 2.4499111 13
-5.7299337 -11.22147 2.904294 14
-5.730989 -11.225307 3.3726518 15
-5.2497845 8.99191 0.16572705 8
-5.265368 8.7292738 0.51912272 9
-5.2446599 8.9823399 0.8947652 10
-5.2391486 8.9725037 1.260849 11
-5.2342367 8.9636889 1.6294394 12
-5.232739 8.9607162 2.0026829 13
-5.2766576 8.7461433 2.3444738 14
-5.2149858 8.9295006 2.7568953 15
2.8843489 8.983242 0.18969861 8
2.8822629 8.9699821 0.51776016 9
2.8861125 8.9748735 0.84788626 10
2.8876071 8.9725132 1.1795523 11
2.8884928 8.9682331 1.5136917 12
2.8919578 8.971755 1.8529696 13
2.8905628 8.9603481 2.1935954 14
2.8972638 8.9735136 2.5460443 15
4.3762469 8.9794188 0.19096915 8
4.7050748 8.9868011 0.5458135 9
4.712079 8.9950075 0.90195042 10
4.7118974 8.9896202 1.2591349 11
4.7158766 8.9920368 1.6205112 12
4.7193861 8.9935093 1.986022 13
4.7198391 8.98915 2.3552468 14
4.7248979 8.9933786 2.7328894 15
12.182923 -10.872351 1.3668005 10
12.203013 -10.890253 1.9469086 11
12.202901 -10.890116 2.529557 12
12.221906 -10.907045 3.123389 13
12.22216 -10.907231 3.721257 14
12.240707 -10.923754 4.3351622 15
14.105985 -69.757858 8.5778465 11
16.780607 12.968843 0.34442285 8
16.788074 12.96899 1.0859599 9
16.797426 12.97056 1.8307786 10
16.817102 12.60159 2.552773 11
16.826654 12.981656 3.3396487 12
16.832979 12.980744 4.1052003 13
16.844772 12.983941 4.8830309 14
16.866722 12.994829 5.6776314 15
19.315176 28.259487 0.62350386 8
19.33045 28.267887 1.8202754 9
19.334913 28.260469 3.0208988 10
19.684652 27.867283 6.6528864 13
19.701403 27.876818 7.9016652 14
20.241316 27.013666 4.1595135 11
20.547054 26.608835 5.3359761 12
20.889477 26.23044 8.9922619 15
21.051529 25.758926 0.587062 8
21.084257 25.786985 1.7516936 9
21.42963 25.411852 6.4630961 13
21.946022 24.589071 4.0430312 11
22.213892 24.196407 2.8673842 10
22.2778 24.221418 7.5897913 14
22.73601 23.399063 1.6980277 9
22.99803 23.012653 0.55348712 8
23.087021 23.050133 6.3254209 13
23.589529 22.264372 3.9619734 11
23.612335 22.275951 5.1202455 12
23.65202 22.28282 8.6844702 15
29.496614 13.959192 6.2667346 13
29.52648 13.966324 7.4635 14
30.77832 11.991263 0.48978671 8
30.797337 11.992446 1.6454695 9
30.826738 11.997631 2.8073924 10
30.840374 11.996654 3.9762394 11
30.935011 12.007512 8.801321 15
31.142487 11.598551 5.1738176 12
32.055378 10.385875 7.6809864 14
32.332382 9.9738989 6.4773636 13
32.594688 9.5590286 4.0699515 11
32.823025 9.1303301 1.6827849 9
33.458298 8.2790442 2.9081461 10
33.813068 7.844739 5.3872213 12
33.881699 7.8492293 7.9168501 14
34.026497 7.4055357 0.49551967 8
34.41563 6.9603992 4.196629 11
34.472832 6.9609652 6.7200031 13
34.695538 6.5131445 1.7332959 9
35.817715 5.1195121 8.2261553 14
36.330517 4.1685233 0.50914598 8
36.381866 4.1643901 3.0749884 10
36.465508 4.1586323 7.0034223 13
36.71368 3.6766438 1.8023785 9
36.760845 3.6714034 4.4045367 11
37.120148 3.1674008 5.7659669 12
